VERSION .7
FIELDS x y z
SIZE 4 4 4
TYPE F F F
COUNT 1 1 1
WIDTH 838
HEIGHT 1
VIEWPOINT 0 0 0 1 0 0 0
POINTS 838
DATA ascii
4.7276716232299805 7.9966044425964355 0.24102559685707092
4.695091247558594 7.979248046875 0.23964279890060425
4.669966220855713 7.975479602813721 0.23866499960422516
4.649464130401611 7.978390693664551 0.23789885640144348
4.631519317626953 7.9856462478637695 0.23726429045200348
4.598994255065918 7.968740463256836 0.235907644033432
4.580934047698975 7.975632667541504 0.23616337776184082
4.558892250061035 7.975533485412598 0.2353193163871765
4.53326416015625 7.970169544219971 0.23398157954216003
4.509474754333496 7.96676778793335 0.23304738104343414
4.488754749298096 7.968692779541016 0.23227208852767944
4.457221508026123 7.952393054962158 0.23073604702949524
4.438157558441162 7.9570512771606445 0.2300470918416977
4.398470878601074 7.964558124542236 0.22861552238464355
4.366225242614746 7.945085525512695 0.22724215686321259
4.348901748657227 7.953770637512207 0.22667065262794495
4.324352264404297 7.94801139831543 0.22569753229618073
4.306031703948975 7.953611373901367 0.22505025565624237
4.277561187744141 7.941496849060059 0.22389748692512512
6.224414825439453 -10.710115432739258 0.28752240538597107
6.244142532348633 -10.692028045654297 0.28859567642211914
6.30579948425293 -10.694818496704102 0.29089608788490295
6.339062213897705 -10.699531555175781 0.2924545407295227
6.368492603302002 -10.697914123535156 0.29353541135787964
6.398494720458984 -10.697742462158203 0.29510876536369324
6.42506217956543 -10.690851211547852 0.296053022146225
6.453324317932129 -10.686986923217773 0.29708361625671387
6.485243797302246 -10.688775062561035 0.2985856533050537
6.515896797180176 -10.689216613769531 0.29974010586738586
6.542157173156738 -10.68175983428955 0.30113527178764343
6.574719429016113 -10.684210777282715 0.30236199498176575
6.600959300994873 -10.676554679870605 0.30361369252204895
6.635479927062988 -10.682762145996094 0.30494844913482666
6.669377326965332 -10.68692398071289 0.30532240867614746
6.699291706085205 -10.684837341308594 0.3051866292953491
6.785548210144043 -10.672737121582031 0.30868303775787354
6.880434513092041 -10.673187255859375 0.31304293870925903
6.968585968017578 -10.66214370727539 0.3167951703071594
7.070054054260254 -10.670309066772461 0.3210143446922302
7.157820701599121 -10.656659126281738 0.3247690796852112
7.248778343200684 -10.646854400634766 0.3285309672355652
7.832738876342773 -10.618953704833984 0.3512253761291504
7.859645366668701 -10.609272003173828 0.3525768518447876
7.929172515869141 -10.609416961669922 0.3557877540588379
7.964761257171631 -10.611043930053711 0.35720616579055786
8.041845321655273 -10.620283126831055 0.3606110215187073
8.13369369506836 -10.602421760559082 0.36466795206069946
8.173713684082031 -10.608928680419922 0.36629238724708557
8.231125831604004 -10.590888977050781 0.3665315508842468
8.270737648010254 -10.595606803894043 0.36860740184783936
8.303428649902344 -10.591556549072266 0.369893878698349
8.337190628051758 -10.589290618896484 0.37124255299568176
8.373627662658691 -10.589491844177246 0.3726922273635864
8.443480491638184 -10.586677551269531 0.37582045793533325
8.469942092895508 -10.573978424072266 0.3773232698440552
8.507522583007812 -10.575305938720703 0.37883618474006653
8.545686721801758 -10.577722549438477 0.3803884983062744
8.575349807739258 -10.568710327148438 0.3815464377403259
8.613448143005371 -10.570222854614258 0.38342273235321045
8.659664154052734 -10.58201789855957 0.38533705472946167
8.679615020751953 -10.560821533203125 0.3865635097026825
8.723356246948242 -10.568719863891602 0.38835933804512024
8.751388549804688 -10.557976722717285 0.3894692659378052
8.796384811401367 -10.566240310668945 0.3916460871696472
8.826566696166992 -10.557859420776367 0.39285409450531006
8.870676040649414 -10.565984725952148 0.39518487453460693
8.898063659667969 -10.552746772766113 0.3962428569793701
8.94444465637207 -10.563194274902344 0.39817649126052856
9.01698112487793 -10.558370590209961 0.40146201848983765
9.041717529296875 -10.542953491210938 0.40092289447784424
9.121245384216309 -10.545485496520996 0.4033077657222748
9.169076919555664 -10.55643081665039 0.4053066074848175
9.231647491455078 -10.538492202758789 0.4078187346458435
9.271678924560547 -10.539981842041016 0.40947699546813965
9.350265502929688 -10.539482116699219 0.41356658935546875
9.38221549987793 -10.531391143798828 0.41487324237823486
9.457919120788574 -10.526771545410156 0.41798579692840576
10.03250503540039 -10.482650756835938 0.44062185287475586
10.167073249816895 -10.490429878234863 0.44666630029678345
10.199735641479492 -10.480524063110352 0.448037326335907
10.280231475830078 -10.474613189697266 0.4514243006706238
10.319692611694336 -10.471264839172363 0.4536358118057251
10.35915756225586 -10.46649169921875 0.45528626441955566
10.397409439086914 -10.461627960205078 0.4569135308265686
10.444649696350098 -10.465633392333984 0.4593023955821991
10.488529205322266 -10.464795112609863 0.4611537456512451
10.519784927368164 -10.452507019042969 0.4624793529510498
10.565581321716309 -10.45452880859375 0.4644460082054138
10.60749626159668 -10.451251983642578 0.46621522307395935
10.688155174255371 -10.443655967712402 0.4702196717262268
10.73178482055664 -10.441564559936523 0.4720720946788788
10.777299880981445 -10.442401885986328 0.4744083285331726
10.810874938964844 -10.431522369384766 0.47584962844848633
10.855001449584961 -10.429414749145508 0.47773027420043945
10.909717559814453 -10.438533782958984 0.4801064729690552
10.946149826049805 -10.429207801818848 0.4783657193183899
10.986351013183594 -10.423585891723633 0.4787670373916626
11.032649993896484 -10.424094200134277 0.4811432361602783
11.07815170288086 -10.422384262084961 0.4830858111381531
11.12004280090332 -10.418377876281738 0.4848994016647339
11.166051864624023 -10.417299270629883 0.4868784546852112
11.198525428771973 -10.40369701385498 0.4882746934890747
11.258426666259766 -10.415902137756348 0.49088042974472046
11.294827461242676 -10.405403137207031 0.49244600534439087
11.388181686401367 -10.403841018676758 0.496503084897995
11.469952583312988 -10.390263557434082 0.5009932518005371
11.51557731628418 -10.388168334960938 0.5029903650283813
11.65399169921875 -10.38089370727539 0.5090364813804626
11.736560821533203 -10.366127967834473 0.5126456618309021
11.798046112060547 -10.376415252685547 0.515338122844696
11.88376522064209 -10.363887786865234 0.5191091895103455
12.018050193786621 -10.348706245422363 0.5225415229797363
12.30681037902832 -10.329477310180664 0.5332804322242737
12.457731246948242 -10.323356628417969 0.5399631261825562
12.59791374206543 -10.306631088256836 0.5467953085899353
12.755849838256836 -10.30265998840332 0.553834080696106
12.83613395690918 -10.278482437133789 0.5574451684951782
12.898124694824219 -10.284265518188477 0.560217022895813
13.063484191894531 -10.282444953918457 0.5680399537086487
13.096440315246582 -10.264442443847656 0.5695618391036987
13.152507781982422 -10.263104438781738 0.5720653533935547
13.204774856567383 -10.259872436523438 0.5695689916610718
13.257405281066895 -10.255423545837402 0.5694285035133362
13.315081596374512 -10.25594425201416 0.5720174312591553
13.37109088897705 -10.254945755004883 0.5745378732681274
13.418745994567871 -10.246042251586914 0.5766751766204834
13.468077659606934 -10.23953628540039 0.5789146423339844
13.519354820251465 -10.234317779541016 0.5812405943870544
13.584169387817383 -10.237810134887695 0.5841251015663147
13.624493598937988 -10.223936080932617 0.5859864354133606
13.691547393798828 -10.22938346862793 0.5889895558357239
13.747029304504395 -10.225675582885742 0.5914928913116455
13.808917999267578 -10.227269172668457 0.594291627407074
13.852346420288086 -10.213682174682617 0.5962721109390259
13.911661148071289 -10.212919235229492 0.5989660620689392
13.951822280883789 -10.197914123535156 0.6008387804031372
14.009382247924805 -10.19414234161377 0.6034374237060547
14.065921783447266 -10.190705299377441 0.6060221195220947
14.132282257080078 -10.194129943847656 0.6090331077575684
14.18254280090332 -10.184392929077148 0.611327052116394
14.24388313293457 -10.183706283569336 0.6141290664672852
14.353073120117188 -10.17070198059082 0.6191343069076538
14.520453453063965 -10.152793884277344 0.6223268508911133
14.589536666870117 -10.155550003051758 0.6228200197219849
15.240716934204102 -10.094991683959961 0.6521271467208862
15.427292823791504 -10.078813552856445 0.6607488393783569
15.620376586914062 -10.06541633605957 0.6697016954421997
15.684301376342773 -10.060606002807617 0.6722232103347778
15.81254768371582 -10.049129486083984 0.6781903505325317
15.875774383544922 -10.043120384216309 0.6811548471450806
15.941707611083984 -10.037211418151855 0.6835283041000366
16.000125885009766 -10.027687072753906 0.6814874410629272
16.13335609436035 -10.016801834106445 0.6848589777946472
16.266075134277344 -10.00454044342041 0.6903374195098877
16.346145629882812 -10.007095336914062 0.6940261125564575
16.400827407836914 -9.993837356567383 0.6966397762298584
16.473430633544922 -9.989884376525879 0.6999926567077637
16.52768325805664 -9.975932121276855 0.7021187543869019
16.609329223632812 -9.978246688842773 0.7058894634246826
16.664215087890625 -9.962835311889648 0.7085022926330566
16.746837615966797 -9.96511459350586 0.711616039276123
16.799762725830078 -9.94890022277832 0.7141715288162231
16.885908126831055 -9.951814651489258 0.7181336879730225
16.94805335998535 -9.941112518310547 0.7210988998413086
17.033750534057617 -9.942532539367676 0.7250468134880066
17.084924697875977 -9.924924850463867 0.7270649671554565
17.17145538330078 -9.927591323852539 0.7310807108879089
17.23110008239746 -9.913022994995117 0.7332080602645874
17.30681610107422 -9.908836364746094 0.7367740869522095
17.372745513916016 -9.898200988769531 0.7399164438247681
17.4473876953125 -9.891988754272461 0.7434293031692505
17.52188491821289 -9.886232376098633 0.7469580173492432
17.749446868896484 -9.867466926574707 0.7505010962486267
17.972660064697266 -9.844161987304688 0.7603200674057007
18.343225479125977 -9.79821491241455 0.7766854763031006
18.58972930908203 -9.780176162719727 0.7878367900848389
18.832372665405273 -9.75629997253418 0.7980824708938599
19.08061981201172 -9.733251571655273 0.8091412782669067
19.251243591308594 -9.719212532043457 0.8172858953475952
19.335834503173828 -9.710740089416504 0.8207907676696777
19.408166885375977 -9.696683883666992 0.8243326544761658
19.503976821899414 -9.69254207611084 0.8280587196350098
19.58442497253418 -9.681894302368164 0.824737548828125
19.675758361816406 -9.67568588256836 0.8282693028450012
19.752552032470703 -9.661709785461426 0.8319852948188782
19.8304500579834 -9.64886474609375 0.8352234363555908
19.921152114868164 -9.641315460205078 0.8395407795906067
20.030357360839844 -9.642020225524902 0.8438335657119751
20.10072135925293 -9.624563217163086 0.8473184108734131
20.19162940979004 -9.61512279510498 0.8510963320732117
20.284772872924805 -9.607887268066406 0.8555505275726318
20.379192352294922 -9.600265502929688 0.8592379093170166
20.449996948242188 -9.580909729003906 0.8627493381500244
20.56450653076172 -9.58256721496582 0.8675654530525208
20.64068603515625 -9.565361022949219 0.8713191151618958
20.742570877075195 -9.559423446655273 0.8753297328948975
20.82156753540039 -9.54349422454834 0.8786609172821045
20.938400268554688 -9.542970657348633 0.8841363787651062
21.012001037597656 -9.523904800415039 0.8869779109954834
21.116291046142578 -9.517773628234863 0.8919503688812256
21.214542388916016 -9.50821304321289 0.8960963487625122
21.319602966308594 -9.502220153808594 0.9011255502700806
21.59496307373047 -9.462038040161133 0.9131045341491699
21.893138885498047 -9.429078102111816 0.9211409091949463
22.402549743652344 -9.370912551879883 0.942836344242096
22.72454071044922 -9.338179588317871 0.9569015502929688
23.03883171081543 -9.29847240447998 0.9706934690475464
23.255573272705078 -9.272250175476074 0.9803209900856018
23.35503387451172 -9.25479793548584 0.9846014380455017
23.464393615722656 -9.241841316223145 0.9899430274963379
23.597688674926758 -9.237150192260742 0.9953730702400208
23.68825912475586 -9.2149658203125 0.9992947578430176
23.922203063964844 -9.190170288085938 1.0090889930725098
24.143342971801758 -9.159631729125977 1.0199520587921143
24.275142669677734 -9.151046752929688 1.0247015953063965
24.394088745117188 -9.138114929199219 1.0250904560089111
24.61529541015625 -9.102952003479004 1.0350189208984375
24.752429962158203 -9.094625473022461 1.0409399271011353
24.869375228881836 -9.078038215637207 1.0466678142547607
24.995094299316406 -9.065193176269531 1.0511653423309326
25.104835510253906 -9.045387268066406 1.0566107034683228
25.26044464111328 -9.041236877441406 1.0630176067352295
25.3638916015625 -9.018929481506348 1.0675606727600098
25.496524810791016 -9.005825996398926 1.0739974975585938
25.612442016601562 -8.985986709594727 1.078079104423523
25.754207611083984 -8.975030899047852 1.0849175453186035
25.864025115966797 -8.95210075378418 1.0894222259521484
25.992656707763672 -8.936264038085938 1.0950570106506348
26.132919311523438 -8.92316722869873 1.1018624305725098
26.261253356933594 -8.905115127563477 1.1064783334732056
26.380481719970703 -8.883824348449707 1.112415075302124
26.79339599609375 -8.835728645324707 1.129884958267212
27.198993682861328 -8.780287742614746 1.1474262475967407
27.473155975341797 -8.741207122802734 1.158814549446106
27.616676330566406 -8.723799705505371 1.1641016006469727
27.899707794189453 -8.684155464172363 1.1769890785217285
28.333166122436523 -8.624076843261719 1.195853352546692
28.639163970947266 -8.585599899291992 1.209059238433838
28.791812896728516 -8.5662841796875 1.215494155883789
29.080276489257812 -8.518962860107422 1.2279984951019287
29.240638732910156 -8.498941421508789 1.23511803150177
29.398990631103516 -8.478057861328125 1.2418092489242554
29.539567947387695 -8.452238082885742 1.2481218576431274
29.694534301757812 -8.428786277770996 1.2546782493591309
29.847702026367188 -8.404576301574707 1.261530876159668
30.01195526123047 -8.382471084594727 1.2684922218322754
30.15838623046875 -8.355941772460938 1.2750847339630127
30.33055877685547 -8.335105895996094 1.2823996543884277
30.49380111694336 -8.310754776000977 1.2897075414657593
30.64826011657715 -8.28375244140625 1.2962870597839355
30.804773330688477 -8.257497787475586 1.3033394813537598
30.990421295166016 -8.237161636352539 1.3112494945526123
31.13648223876953 -8.20602035522461 1.3170723915100098
31.303693771362305 -8.179438591003418 1.3234126567840576
31.480628967285156 -8.155920028686523 1.3309786319732666
31.648540496826172 -8.128540992736816 1.3385430574417114
31.828182220458984 -8.103078842163086 1.3462259769439697
31.999710083007812 -8.075234413146973 1.3539628982543945
32.17741775512695 -8.049090385437012 1.3607711791992188
32.361263275146484 -8.021661758422852 1.3698577880859375
32.53263473510742 -7.992517471313477 1.376406192779541
32.71880340576172 -7.965035915374756 1.3844008445739746
32.88511657714844 -7.9324140548706055 1.3919618129730225
33.07634735107422 -7.905942916870117 1.400200366973877
33.24938201904297 -7.87312126159668 1.40806245803833
33.4477424621582 -7.845952987670898 1.415761947631836
33.82109069824219 -7.783405303955078 1.432286262512207
34.00375747680664 -7.7511773109436035 1.4402003288269043
34.38310241699219 -7.6854681968688965 1.4561665058135986
34.590389251708984 -7.656468391418457 1.466435194015503
34.98078918457031 -7.5884881019592285 1.4825029373168945
36.424434661865234 -7.342409133911133 1.5425668954849243
36.6456298828125 -7.307892799377441 1.5535733699798584
36.86590576171875 -7.2709150314331055 1.5622577667236328
37.096923828125 -7.235581398010254 1.5714004039764404
37.31121826171875 -7.19563102722168 1.5821534395217896
37.54449462890625 -7.159841060638428 1.591411828994751
37.76017761230469 -7.118830680847168 1.5999176502227783
38.01282501220703 -7.083375930786133 1.6123487949371338
38.24101638793945 -7.042840003967285 1.6213977336883545
38.46309280395508 -7.001245498657227 1.6316170692443848
38.700767517089844 -6.960114479064941 1.642044186592102
38.9571418762207 -6.921802520751953 1.6523025035858154
30.41466522216797 -5.337995529174805 1.288848638534546
23.247882843017578 -3.9800243377685547 0.9863899946212769
23.9661865234375 -4.050909996032715 1.0165436267852783
24.52705955505371 -4.092772960662842 1.0414323806762695
24.653791427612305 -4.061352729797363 1.046454668045044
24.797082901000977 -4.030567169189453 1.0521690845489502
24.94625473022461 -4.00169563293457 1.0596880912780762
181.92857360839844 -28.398284912109375 7.71835994720459
41.97593688964844 -6.372357368469238 1.7818074226379395
42.229827880859375 -6.32020902633667 1.7920172214508057
42.77880096435547 -6.218290328979492 1.8168277740478516
43.05853271484375 -6.1677350997924805 1.8281611204147339
43.61838150024414 -6.060575485229492 1.8508310317993164
43.894142150878906 -6.006071090698242 1.864707589149475
44.46308135986328 -5.8932695388793945 1.8878060579299927
45.05717468261719 -5.779029846191406 1.9147573709487915
45.34508514404297 -5.720335006713867 1.9264845848083496
45.96971130371094 -5.6025567054748535 1.9520018100738525
46.27351379394531 -5.542153835296631 1.9655606746673584
46.58795928955078 -5.478890419006348 1.9801242351531982
46.883766174316406 -5.415063858032227 1.9922153949737549
47.19263458251953 -5.349782943725586 2.0048556327819824
47.48564529418945 -5.282027244567871 2.016827344894409
47.810123443603516 -5.217700958251953 2.0313334465026855
48.10799789428711 -5.146239280700684 2.04351806640625
48.327816009521484 -5.0683393478393555 2.052405595779419
48.36829376220703 -4.969348907470703 2.0548744201660156
48.39933776855469 -4.869857311248779 2.0557541847229004
48.37858581542969 -4.766379356384277 2.0562219619750977
48.42620086669922 -4.667841911315918 2.0578219890594482
48.44614028930664 -4.567111492156982 2.0582563877105713
48.453880310058594 -4.4664154052734375 2.058187484741211
48.4528694152832 -4.36195707321167 2.0589447021484375
48.460838317871094 -4.261312484741211 2.0589029788970947
48.47404098510742 -4.1593427658081055 2.0608608722686768
48.53453063964844 -4.061887264251709 2.0630648136138916
48.526512145996094 -3.9598264694213867 2.062371253967285
48.51641082763672 -3.8546879291534424 2.0615878105163574
48.546592712402344 -3.7557225227355957 2.0625338554382324
48.561370849609375 -3.6537275314331055 2.064030647277832
48.59076690673828 -3.553345203399658 2.064958333969116
48.599342346191406 -3.452594757080078 2.0650136470794678
48.60089111328125 -3.3483736515045166 2.0665483474731445
48.59833526611328 -3.246882200241089 2.0661492347717285
48.628684997558594 -3.0432562828063965 2.066875457763672
48.587425231933594 -2.9394640922546387 2.06605863571167
48.607994079589844 -2.7353014945983887 2.067626476287842
48.63677215576172 -2.6356821060180664 2.0686137676239014
48.630943298339844 -2.531186103820801 2.0681307315826416
48.61809539794922 -2.4293627738952637 2.0673656463623047
48.67134094238281 -2.2265777587890625 2.0692124366760254
48.6655158996582 -2.1251189708709717 2.068772554397583
48.69774627685547 -2.022308111190796 2.0699546337127686
48.71702194213867 -1.9218454360961914 2.0705995559692383
48.70961380004883 -1.8203219175338745 2.070120334625244
48.73097229003906 -1.716882348060608 2.072645902633667
48.746498107910156 -1.6161525249481201 2.0731592178344727
48.73899841308594 -1.5128793716430664 2.072699785232544
48.687313079833984 -1.408949375152588 2.070371150970459
48.62623977661133 -1.306194543838501 2.067654609680176
48.61144256591797 -1.2018828392028809 2.0669116973876953
48.614707946777344 -1.1010217666625977 2.066948652267456
48.63954162597656 -0.9988265037536621 2.0679101943969727
48.581077575683594 -0.8955779075622559 2.065340518951416
48.5718994140625 -0.7945818901062012 2.064875602722168
48.57945251464844 -0.6909043192863464 2.065129280090332
48.60091781616211 -0.5903356075286865 2.0659852027893066
48.55195617675781 -0.48720526695251465 2.0638551712036133
48.52130126953125 -0.38500380516052246 2.060743570327759
48.48754119873047 -0.2841099500656128 2.060474395751953
48.462493896484375 -0.18043369054794312 2.0593905448913574
48.394798278808594 -0.07975223660469055 2.056502103805542
14.477807998657227 0.03534628450870514 -0.2298966348171234
14.487457275390625 0.0654345154762268 -0.22917544841766357
14.496654510498047 0.12653040885925293 -0.22791442275047302
14.507360458374023 0.15673235058784485 -0.2272043526172638
14.552701950073242 0.24872760474681854 -0.2261582314968109
14.636802673339844 0.49600428342819214 -0.22129936516284943
14.63763427734375 0.5273400545120239 -0.2209620475769043
14.640338897705078 0.5882889032363892 -0.21942594647407532
14.661652565002441 0.6205193996429443 -0.21886864304542542
14.665974617004395 0.6511943340301514 -0.21805772185325623
14.67496109008789 0.682109534740448 -0.21731798350811005
14.696893692016602 0.7145960330963135 -0.2176624834537506
14.708366394042969 0.7457518577575684 -0.21695560216903687
14.712275505065918 0.7770992517471313 -0.21613600850105286
14.736248016357422 0.8093993663787842 -0.21561944484710693
14.737199783325195 0.8401299715042114 -0.21475133299827576
14.748281478881836 0.8723737001419067 -0.21403641998767853
14.77659797668457 0.9048241376876831 -0.21393762528896332
14.768768310546875 0.935651421546936 -0.21349091827869415
14.801919937133789 0.9689620733261108 -0.21308958530426025
14.801250457763672 0.9997695684432983 -0.2122003138065338
14.824869155883789 1.0328158140182495 -0.2116612195968628
14.820012092590332 1.0637532472610474 -0.21071764826774597
14.84896469116211 1.0968091487884521 -0.21024982631206512
14.84984016418457 1.1284070014953613 -0.20976372063159943
14.877218246459961 1.1619123220443726 -0.20981377363204956
14.892204284667969 1.1947256326675415 -0.2091432362794876
14.893918991088867 1.2263450622558594 -0.2082885503768921
14.906344413757324 1.2585169076919556 -0.2075902819633484
14.919795989990234 1.291386365890503 -0.20689094066619873
14.918983459472656 1.3228847980499268 -0.20600253343582153
14.946834564208984 1.3566217422485352 -0.2047809362411499
14.966029167175293 1.3906044960021973 -0.20417079329490662
14.964492797851562 1.4217901229858398 -0.2032635658979416
14.992838859558105 1.4558833837509155 -0.2031382918357849
14.982303619384766 1.4871747493743896 -0.20212164521217346
15.0018949508667 1.5205645561218262 -0.20150324702262878
15.022995948791504 1.5866490602493286 -0.20058168470859528
15.030789375305176 1.619018793106079 -0.19980162382125854
15.047626495361328 1.6849689483642578 -0.19827383756637573
15.082618713378906 1.7532339096069336 -0.19735287129878998
15.087061882019043 1.785489797592163 -0.19653330743312836
15.094974517822266 1.8509204387664795 -0.19542470574378967
15.0888671875 1.881962776184082 -0.19446828961372375
15.112348556518555 1.9495604038238525 -0.19301077723503113
15.105880737304688 1.9806039333343506 -0.19243544340133667
15.086577415466309 2.0108649730682373 -0.19130320847034454
15.067954063415527 2.0402157306671143 -0.19019261002540588
15.06482982635498 2.104437828063965 -0.18730789422988892
15.048384666442871 2.1339874267578125 -0.1858576238155365
15.053625106811523 2.1671652793884277 -0.18503907322883606
15.05095386505127 2.1990513801574707 -0.1845112293958664
15.044464111328125 2.229999542236328 -0.18356361985206604
15.05762767791748 2.2648346424102783 -0.18285202980041504
15.066905975341797 2.2982141971588135 -0.18209008872509003
15.056139945983887 2.3285536766052246 -0.18108932673931122
15.066535949707031 2.3631279468536377 -0.18034511804580688
15.059194564819336 2.3940064907073975 -0.17993766069412231
15.062753677368164 2.427192211151123 -0.17911115288734436
15.060064315795898 2.4592156410217285 -0.17820794880390167
15.063304901123047 2.491848945617676 -0.17774789035320282
15.063837051391602 2.5250089168548584 -0.1768832504749298
15.07936954498291 2.559795618057251 -0.17620059847831726
15.081624984741211 2.5929532051086426 -0.17535856366157532
15.097009658813477 2.6282496452331543 -0.1746649295091629
15.074609756469727 2.65659236907959 -0.1735331118106842
15.078048706054688 2.690037250518799 -0.17270484566688538
15.071182250976562 2.721479892730713 -0.1723124086856842
15.101103782653809 2.7592544555664062 -0.17178072035312653
15.085134506225586 2.7892656326293945 -0.17110788822174072
15.091785430908203 2.8232827186584473 -0.17031776905059814
15.09708023071289 2.8567118644714355 -0.16950616240501404
15.100763320922852 2.890835762023926 -0.16532248258590698
15.111950874328613 2.9255001544952393 -0.16419002413749695
15.098630905151367 2.9560112953186035 -0.16317826509475708
15.093629837036133 2.9879560470581055 -0.16224870085716248
15.105001449584961 3.022794246673584 -0.16149920225143433
15.11095142364502 3.057572841644287 -0.1606934517621994
15.117898941040039 3.0916495323181152 -0.15988679230213165
15.115663528442383 3.1238861083984375 -0.15955175459384918
15.115150451660156 3.157463312149048 -0.1590558886528015
15.112464904785156 3.1896462440490723 -0.15815573930740356
15.119245529174805 3.2238645553588867 -0.15735262632369995
15.101343154907227 3.2537899017333984 -0.1562945693731308
15.115720748901367 3.289726734161377 -0.15556594729423523
15.12708568572998 3.3589859008789062 -0.1539379209280014
15.114828109741211 3.3891923427581787 -0.15294039249420166
15.118619918823242 3.4239792823791504 -0.15210294723510742
15.1192626953125 3.457125186920166 -0.15123628079891205
15.12618637084961 3.5258069038391113 -0.15050524473190308
15.136103630065918 3.561251163482666 -0.1497288942337036
15.139080047607422 3.629305362701416 -0.14800861477851868
15.132455825805664 3.6609416007995605 -0.14706379175186157
15.128904342651367 3.7275948524475098 -0.14206470549106598
15.129755020141602 3.761124849319458 -0.14119622111320496
15.1268949508667 3.794743537902832 -0.1402919739484787
15.11122989654541 3.8241634368896484 -0.13965347409248352
15.13192081451416 3.863415241241455 -0.13896703720092773
15.13048267364502 3.8969099521636963 -0.13807545602321625
15.126927375793457 3.929486036300659 -0.13716259598731995
15.143439292907715 3.968327522277832 -0.13643412292003632
15.131723403930664 3.998833656311035 -0.13544853031635284
15.14885139465332 4.037010192871094 -0.1352887898683548
15.138256072998047 4.06884241104126 -0.13431325554847717
15.12984561920166 4.100266456604004 -0.13335689902305603
15.144628524780273 4.138027667999268 -0.13260680437088013
15.139801025390625 4.17148494720459 -0.13168074190616608
15.151814460754395 4.208644866943359 -0.13129141926765442
15.134798049926758 4.238361358642578 -0.13026122748851776
15.130256652832031 4.271373748779297 -0.12933892011642456
15.149245262145996 4.310697555541992 -0.1286173164844513
15.146276473999023 4.344850063323975 -0.12770746648311615
15.139169692993164 4.376833915710449 -0.12733463943004608
15.146352767944336 4.412989616394043 -0.12650908529758453
15.15468978881836 4.450562477111816 -0.12569335103034973
15.153116226196289 4.484279155731201 -0.12479253113269806
15.161916732788086 4.52172327041626 -0.12052996456623077
15.145840644836426 4.551584243774414 -0.11951225996017456
15.160306930541992 4.590255260467529 -0.11930941045284271
15.159200668334961 4.624886512756348 -0.11841019988059998
15.17153549194336 4.663496017456055 -0.11761397123336792
15.150776863098145 4.6915483474731445 -0.11656016111373901
15.176885604858398 4.735186576843262 -0.11586876958608627
15.169073104858398 4.767314910888672 -0.1149134486913681
15.184856414794922 4.806921482086182 -0.11453033983707428
15.178823471069336 4.8407111167907715 -0.11358874291181564
15.199464797973633 4.88206672668457 -0.1128450334072113
15.180326461791992 4.911304473876953 -0.11180569231510162
15.173928260803223 4.944457054138184 -0.11086013913154602
15.184183120727539 4.982678413391113 -0.11061655730009079
15.192628860473633 5.021424770355225 -0.10977871716022491
15.194631576538086 5.057086944580078 -0.10889078676700592
15.170249938964844 5.083965301513672 -0.10781542956829071
15.172348022460938 5.120745658874512 -0.10693089663982391
15.19869613647461 5.164796352386475 -0.10621125996112823
15.177257537841797 5.192668914794922 -0.10555395483970642
15.183795928955078 5.231164932250977 -0.10469703376293182
15.195077896118164 5.270352840423584 -0.10386823117733002
15.181901931762695 5.337516784667969 -0.1025509461760521
15.189367294311523 5.375584602355957 -0.09876566380262375
15.202459335327148 5.4167890548706055 -0.09754455089569092
15.195390701293945 5.449833869934082 -0.09756997227668762
15.172208786010742 5.513744831085205 -0.09559973329305649
15.17508316040039 5.5504655838012695 -0.09470318257808685
15.16943359375 5.620944023132324 -0.09284057468175888
15.176128387451172 5.659270286560059 -0.09196262806653976
15.175601959228516 5.731986999511719 -0.09012649953365326
15.180559158325195 5.76988410949707 -0.08923676609992981
15.186126708984375 5.8091583251953125 -0.08934421837329865
15.165054321289062 5.837202072143555 -0.0882999449968338
15.127674102783203 5.8595170974731445 -0.08716288208961487
15.0851469039917 5.879505157470703 -0.08600586652755737
15.003686904907227 5.883650779724121 -0.08462724089622498
14.957822799682617 5.902563095092773 -0.08345578610897064
14.904826164245605 5.917426109313965 -0.08225009590387344
14.826951026916504 5.922157287597656 -0.08091287314891815
14.759681701660156 5.93187952041626 -0.08022044599056244
14.704889297485352 5.945333003997803 -0.07941478490829468
14.656447410583496 5.961163520812988 -0.07825303077697754
14.583488464355469 5.967828273773193 -0.07697083055973053
14.528812408447266 5.980683326721191 -0.07521919161081314
14.452028274536133 5.9847917556762695 -0.07393180578947067
14.395242691040039 5.996720790863037 -0.07275570929050446
14.333982467651367 6.006138801574707 -0.07155776023864746
14.289107322692871 6.023252487182617 -0.07045015692710876
14.221405982971191 6.029500961303711 -0.06979693472385406
14.165145874023438 6.0409650802612305 -0.0686430037021637
14.108114242553711 6.051689147949219 -0.06786893308162689
14.039968490600586 6.056984901428223 -0.06666867434978485
13.984689712524414 6.068193435668945 -0.06553643941879272
13.938714027404785 6.083057403564453 -0.0644509419798851
13.873515129089355 6.088909149169922 -0.06328507512807846
13.822122573852539 6.10119104385376 -0.06273616850376129
13.756124496459961 6.106607437133789 -0.06157534569501877
13.70354175567627 6.117338180541992 -0.06047973036766052
13.655475616455078 6.130898952484131 -0.05978158488869667
13.6045503616333 6.141989707946777 -0.05870337039232254
13.537439346313477 6.146134376525879 -0.05756208300590515
13.475631713867188 6.1522369384765625 -0.056448906660079956
13.4203519821167 6.160686016082764 -0.05590759962797165
13.36274528503418 6.16883659362793 -0.05482538044452667
13.304609298706055 6.175524711608887 -0.053743407130241394
13.250960350036621 6.184077262878418 -0.05304437130689621
13.192510604858398 6.191154479980469 -0.0519738644361496
13.149171829223633 6.2041449546813965 -0.05096789821982384
13.098230361938477 6.213374137878418 -0.049935221672058105
13.03127670288086 6.215750694274902 -0.048851996660232544
12.986217498779297 6.2273712158203125 -0.048370663076639175
12.862615585327148 6.234860897064209 -0.046618133783340454
12.825433731079102 6.249740123748779 -0.04565966874361038
12.770073890686035 6.256556034088135 -0.04464176669716835
12.73012924194336 6.269778251647949 -0.04368070885539055
12.677506446838379 6.276583671569824 -0.042682331055402756
12.620230674743652 6.281830787658691 -0.0421861857175827
12.561033248901367 6.284923553466797 -0.0411735400557518
12.512264251708984 6.293590068817139 -0.04054964333772659
12.464707374572754 6.302501678466797 -0.039584673941135406
12.416559219360352 6.310544967651367 -0.03862383961677551
12.350711822509766 6.309928894042969 -0.03761361911892891
12.310708999633789 6.322125434875488 -0.03719058632850647
12.260879516601562 6.3287248611450195 -0.036236561834812164
12.219179153442383 6.340293884277344 -0.0356556698679924
12.172351837158203 6.348092079162598 -0.0347178690135479
12.122505187988281 6.354128837585449 -0.03377750143408775
12.072627067565918 6.360898017883301 -0.032845135778188705
12.024873733520508 6.367652893066406 -0.03241320326924324
11.976285934448242 6.3743391036987305 -0.03149055317044258
11.930896759033203 6.382369041442871 -0.031897254288196564
11.881074905395508 6.387463569641113 -0.030641209334135056
11.836980819702148 6.396389961242676 -0.030230574309825897
11.788518905639648 6.4018449783325195 -0.02932075411081314
11.738664627075195 6.406351089477539 -0.02841387316584587
11.703868865966797 6.419848442077637 -0.027880243957042694
11.657787322998047 6.426078796386719 -0.026987604796886444
11.607183456420898 6.42962646484375 -0.026573143899440765
11.564950942993164 6.438556671142578 -0.025700144469738007
11.50790786743164 6.438117980957031 -0.024798553436994553
11.484644889831543 6.457355499267578 -0.023973964154720306
11.425823211669922 6.4555253982543945 -0.023402974009513855
11.390120506286621 6.466571807861328 -0.023032626137137413
11.330671310424805 6.464865684509277 -0.02214444987475872
11.31129264831543 6.48496150970459 -0.021335966885089874
11.256040573120117 6.484901428222656 -0.02046574093401432
11.213231086730957 6.491639137268066 -0.019942060112953186
11.163521766662598 6.493829250335693 -0.019557558000087738
11.132529258728027 6.507298946380615 -0.01874065212905407
11.075161933898926 6.505007743835449 -0.017882969230413437
11.044509887695312 6.5178680419921875 -0.017072193324565887
10.981303215026855 6.512236595153809 -0.01653387024998665
10.959683418273926 6.530195236206055 -0.01620488613843918
10.90914535522461 6.530796051025391 -0.015374809503555298
10.862754821777344 6.5345869064331055 -0.015934398397803307
10.826676368713379 6.543519496917725 -0.015129148960113525
10.738809585571289 6.552318096160889 -0.014276919886469841
10.699779510498047 6.559012413024902 -0.013477528467774391
10.655731201171875 6.56336784362793 -0.012675562873482704
10.623302459716797 6.573843002319336 -0.012200001627206802
10.570942878723145 6.571817874908447 -0.011847393587231636
10.543938636779785 6.586300849914551 -0.01107427291572094
10.495515823364258 6.586371898651123 -0.01028117910027504
10.45455551147461 6.590945720672607 -0.009500015527009964
10.411696434020996 6.595049858093262 -0.009473738260567188
10.384286880493164 6.60792350769043 -0.008710462599992752
10.339930534362793 6.610772132873535 -0.007935835048556328
10.303579330444336 6.617693901062012 -0.007171208970248699
10.272623062133789 6.627963066101074 -0.007159379776567221
10.217357635498047 6.623261451721191 -0.006387107074260712
10.188312530517578 6.634499549865723 -0.005635656416416168
10.137720108032227 6.632079124450684 -0.004875720012933016
10.102005004882812 6.639049530029297 -0.004865668248385191
10.078882217407227 6.653842926025391 -0.0041237641125917435
10.016559600830078 6.643109321594238 -0.0033702398650348186
9.988611221313477 6.6548171043396 -0.0026330803520977497
9.946358680725098 6.656511306762695 -0.0026254989206790924
9.911625862121582 6.663967132568359 -0.00319038238376379
9.872018814086914 6.667126655578613 -0.0025922644417732954
9.85077953338623 6.682589530944824 -0.0018643469084054232
9.799077987670898 6.678127765655518 -0.0014264392666518688
9.767457962036133 6.68630313873291 -0.0007022349745966494
9.72131633758545 6.684906959533691 -0.00040738930692896247
9.699127197265625 6.699689865112305 0.00031140499049797654
9.656549453735352 6.699922561645508 0.0007380874012596905
9.621244430541992 6.705920219421387 0.0010250427294522524
9.576616287231445 6.704385757446289 0.0017358365003019571
9.54340648651123 6.710688591003418 0.0024431589990854263
9.515291213989258 6.721343040466309 0.0028632422909140587
9.47773265838623 6.724338054656982 0.003144894726574421
9.439456939697266 6.7266740798950195 0.00384341599419713
9.409547805786133 6.735714435577393 0.004258378874510527
9.372537612915039 6.738681793212891 0.004954149946570396
9.337003707885742 6.743085861206055 0.005226455628871918
9.30453872680664 6.749415397644043 0.005632697604596615
9.266956329345703 6.751547813415527 0.006318292580544949
9.225603103637695 6.75163459777832 0.006583843845874071
9.195504188537598 6.758955001831055 0.007268611341714859
9.165033340454102 6.766411781311035 0.007667761296033859
9.140235900878906 6.777805328369141 0.00835311971604824
9.096202850341797 6.7744550704956055 0.008606579154729843
9.061322212219238 6.778269290924072 0.007767123635858297
9.017592430114746 6.775136947631836 0.008432228118181229
8.986284255981445 6.780834197998047 0.009106222540140152
8.960500717163086 6.791467666625977 0.009368328377604485
8.91546630859375 6.786510467529297 0.009744537994265556
8.892648696899414 6.798335075378418 0.010416506789624691
8.860006332397461 6.8034186363220215 0.010675041005015373
8.83027172088623 6.809762001037598 0.011056836694478989
8.761951446533203 6.816112518310547 0.0119624063372612
8.719697952270508 6.812334060668945 0.012324005365371704
8.701831817626953 6.828362464904785 0.012990696355700493
8.665323257446289 6.828815460205078 0.01323480624705553
8.62479305267334 6.825936317443848 0.0135902538895607
8.596634864807129 6.833569049835205 0.014237434603273869
8.574980735778809 6.845442771911621 0.01449829712510109
8.529630661010742 6.838268280029297 0.014842262491583824
8.504512786865234 6.848028182983398 0.015490613877773285
8.462318420410156 6.843047618865967 0.015710581094026566
8.443963050842285 6.858089447021484 0.01609915867447853
8.398396492004395 6.850054740905762 0.0166991725564003
8.378803253173828 6.8630781173706055 0.01668861135840416
8.349601745605469 6.869014739990234 0.01732046902179718
8.313801765441895 6.868542194366455 0.01793208345770836
8.281888961791992 6.871650695800781 0.01750762015581131
8.25786304473877 6.881047248840332 0.018139660358428955
8.225693702697754 6.883213520050049 0.01836669258773327
8.189444541931152 6.882331848144531 0.018974345177412033
8.162646293640137 6.889110565185547 0.01894271746277809
8.124521255493164 6.8858537673950195 0.01953713968396187
8.106935501098633 6.900760650634766 0.020177718251943588
8.055078506469727 6.885499000549316 0.02008688822388649
8.04114055633545 6.902515411376953 0.020737100392580032
8.006952285766602 6.902931213378906 0.021067621186375618
7.971189022064209 6.90098762512207 0.021276947110891342
7.944937705993652 6.908009052276611 0.02188648097217083
7.91549015045166 6.911301612854004 0.022223100066184998
7.892410755157471 6.92006778717041 0.02245645970106125
7.863807201385498 6.92475700378418 0.022800182923674583
7.836123943328857 6.929303169250488 0.023021213710308075
7.80158805847168 6.927666664123535 0.023600585758686066
7.775364398956299 6.93414306640625 0.023942522704601288
7.748056411743164 6.9387102127075195 0.024158254265785217
7.713366985321045 6.936541557312012 0.02447086200118065
7.685678005218506 6.9413957595825195 0.024687979370355606
7.650942802429199 6.938905715942383 0.024999938905239105
7.6182756423950195 6.938998222351074 0.02557080239057541
7.59327507019043 6.945111274719238 0.025786839425563812
7.564970970153809 6.9481096267700195 0.026485027745366096
7.542422294616699 6.957161903381348 0.026711929589509964
7.503758907318115 6.950375080108643 0.02725053019821644
7.479705333709717 6.95749568939209 0.02721436694264412
7.455067157745361 6.963835716247559 0.027804506942629814
7.420393943786621 6.960338592529297 0.028348423540592194
7.3684892654418945 6.970218658447266 0.028881104663014412
7.352286338806152 6.983859062194824 0.02887476608157158
7.303632736206055 6.96738338470459 0.029357779771089554
7.288110256195068 6.981520652770996 0.029353883117437363
7.260666847229004 6.984183311462402 0.029920348897576332
7.224150657653809 6.978830814361572 0.030191559344530106
7.202542781829834 6.986910343170166 0.0304105281829834
7.170208930969238 6.985336780548096 0.030700715258717537
7.144708633422852 6.9894514083862305 0.030899181962013245
7.117277145385742 6.991579055786133 0.031205516308546066
7.083542823791504 6.9882378578186035 0.03137128800153732
7.0624189376831055 6.996376991271973 0.03194825351238251
7.035802841186523 6.999000072479248 0.031891196966171265
7.001141548156738 6.9943389892578125 0.032406799495220184
6.9874067306518555 7.009650230407715 0.0324094220995903
6.9630584716796875 7.015132427215576 0.03296917304396629
6.927177429199219 7.008010387420654 0.03286949172616005
6.905569076538086 7.0152082443237305 0.03415193781256676
6.86992883682251 7.008887767791748 0.03404892235994339
6.855014324188232 7.02276611328125 0.03440351411700249
6.827393054962158 7.024078369140625 0.034581612795591354
6.793612003326416 7.018754005432129 0.03483779728412628
6.772830963134766 7.026403903961182 0.035047497600317
6.75394344329834 7.036483287811279 0.035382501780986786
6.718070030212402 7.028594970703125 0.03551025688648224
6.7006683349609375 7.039577484130859 0.035848695784807205
6.671115875244141 7.038578033447266 0.03601313382387161
6.649953842163086 7.045475959777832 0.03632652014493942
6.616923809051514 7.039690971374512 0.03646664321422577
6.5846171379089355 7.035375595092773 0.03672223538160324
6.5643310546875 7.042939186096191 0.03668872267007828
6.5374650955200195 7.044224739074707 0.0372096449136734
6.51652193069458 7.050948143005371 0.0371733233332634
6.487101078033447 7.048402309417725 0.03767292946577072
6.4681572914123535 7.058019638061523 0.03765164315700531
6.440516948699951 7.057204246520996 0.038157328963279724
6.4183454513549805 7.062288284301758 0.038112886250019073
6.397927761077881 7.070108413696289 0.038664594292640686
6.365749835968018 7.063959121704102 0.038558535277843475
6.3426618576049805 7.067776679992676 0.0387418232858181
6.315210819244385 7.067502498626709 0.0390099361538887
6.288679599761963 7.067273139953613 0.03996684402227402
6.259909629821777 7.065276622772217 0.04011186957359314
6.243578910827637 7.0763750076293945 0.04067765921354294
6.219470500946045 7.078606605529785 0.0406167209148407
6.196378707885742 7.082782745361328 0.04113933444023132
6.164740562438965 7.076197147369385 0.04102783650159836
6.115896701812744 7.080114364624023 0.041471973061561584
6.096168041229248 7.086952209472656 0.04143746197223663
6.060783386230469 7.076335906982422 0.041869327425956726
6.0426788330078125 7.084904670715332 0.04184649884700775
6.025512218475342 7.094542980194092 0.04182819277048111
6.000870704650879 7.096197128295898 0.0423298254609108
5.97530460357666 7.09577751159668 0.04225263372063637
5.928598403930664 7.10079288482666 0.04269915446639061
5.907903671264648 7.105929374694824 0.04265548288822174
5.878536224365234 7.101410865783691 0.04311496764421463
5.852150917053223 7.099478721618652 0.04303008317947388
5.831421852111816 7.104318618774414 0.04331891983747482
5.810209274291992 7.109389305114746 0.0435013622045517
5.777115345001221 7.098909854888916 0.043364472687244415
5.761700630187988 7.110055446624756 0.04369062930345535
5.737915992736816 7.111710548400879 0.04385002702474594
5.718788146972656 7.118178367614746 0.04514205455780029
5.689217567443848 7.112438201904297 0.04502847045660019
5.671746253967285 7.120838642120361 0.04523276537656784
5.649195671081543 7.122808456420898 0.04550018906593323
5.6146697998046875 7.110421657562256 0.04534434527158737
5.59592342376709 7.116997718811035 0.045536190271377563
5.578760623931885 7.12608528137207 0.045847274363040924
5.5527448654174805 7.123622894287109 0.04575631022453308
5.530238151550293 7.125194549560547 0.04591570049524307
5.508393287658691 7.128071308135986 0.04618620127439499
5.494695663452148 7.141291618347168 0.04619699344038963
5.462921142578125 7.130562782287598 0.046277016401290894
5.444191932678223 7.1376495361328125 0.0462472140789032
5.418819427490234 7.135041236877441 0.0464821383357048
5.407546043395996 7.1509599685668945 0.046512629836797714
5.365733623504639 7.127264022827148 0.04650472477078438
5.364123821258545 7.155981540679932 0.04694380983710289
5.3356499671936035 7.149770259857178 0.04682818427681923
5.314561367034912 7.152429580688477 0.04699378088116646
5.28938627243042 7.149492263793945 0.047224998474121094
5.268227577209473 7.152800559997559 0.047172412276268005
5.251785755157471 7.161553859710693 0.04715816304087639
5.22588586807251 7.157334327697754 0.04727840796113014
5.206099510192871 7.162311553955078 0.04755881428718567
5.182499408721924 7.161043167114258 0.04811970144510269
5.156605243682861 7.157406330108643 0.04823991656303406
5.133366584777832 7.156416893005371 0.04816112667322159
5.112743854522705 7.158987522125244 0.04810704290866852
5.0941162109375 7.165219306945801 0.04839421808719635
5.072878837585449 7.1667938232421875 0.048551544547080994
5.021212577819824 7.157533645629883 0.04834532365202904
5.012401580810547 7.176605224609375 0.04872123897075653
4.965897560119629 7.174194812774658 0.048778172582387924
4.942058563232422 7.171511173248291 0.04869043081998825
4.927118301391602 7.182621479034424 0.04869401827454567
4.902721881866455 7.178948879241943 0.04891541600227356
4.884793281555176 7.184664726257324 0.04910045117139816
4.854665756225586 7.173263072967529 0.048951245844364166
4.844533920288086 7.190393447875977 0.04899973422288895
4.816526412963867 7.181884288787842 0.04887121915817261
4.800462245941162 7.190141677856445 0.0493873730301857
4.7767415046691895 7.186863899230957 0.04929681867361069
4.759698390960693 7.194512367248535 0.0492795966565609
4.732339859008789 7.185518264770508 0.04915054142475128
4.715402603149414 7.192249298095703 0.04912957549095154
4.694494724273682 7.193827152252197 0.04938344657421112
4.6677374839782715 7.185361385345459 0.0492577888071537
4.651861667633057 7.194128036499023 0.04925099387764931
4.635821342468262 7.202447891235352 0.04924142733216286
4.615253448486328 7.20329475402832 0.049704551696777344
4.592208385467529 7.201145648956299 0.04962148517370224
4.569182395935059 7.197943687438965 0.049533843994140625
4.549631118774414 7.200701713562012 0.049486737698316574
4.530908107757568 7.20452880859375 0.04944707453250885
4.509172439575195 7.203092575073242 0.04937225952744484
4.4861955642700195 7.200146675109863 0.049804676324129105
4.468918800354004 7.206089973449707 0.049781884998083115
4.452856063842773 7.213568210601807 0.04976879805326462
4.4313154220581055 7.213101387023926 0.04970027506351471
4.403725624084473 7.201657295227051 0.0495581179857254
4.393110275268555 7.21790885925293 0.04960738867521286
4.364688873291016 7.205827713012695 0.049459800124168396
4.348913192749023 7.213521957397461 0.04965971037745476
4.332671642303467 7.2214250564575195 0.04995619133114815
4.31010627746582 7.2177228927612305 0.04986768960952759
4.29081392288208 7.219409942626953 0.04981759563088417
4.27114725112915 7.221399307250977 0.049768850207328796
4.2460222244262695 7.213038444519043 0.0496506430208683
4.230483055114746 7.220876693725586 0.049643486738204956
4.208256244659424 7.218247890472412 0.049564044922590256
4.186070442199707 7.214560508728027 0.04978177696466446
4.164993762969971 7.212675094604492 0.04970850795507431
10.720596313476562 -9.429738998413086 -0.3378593921661377
10.794931411743164 -9.295952796936035 -0.3391690254211426
11.28555679321289 -8.395156860351562 -0.3412098288536072
11.319086074829102 -8.310074806213379 -0.34063905477523804
11.368061065673828 -8.236549377441406 -0.34105390310287476
11.404409408569336 -8.189865112304688 -0.34145599603652954
11.425298690795898 -8.16898250579834 -0.3415743112564087
11.43893051147461 -8.106147766113281 -0.3409572243690491
11.452149391174316 -8.079866409301758 -0.3418657183647156
11.48282527923584 -8.029292106628418 -0.3410717248916626
11.486980438232422 -7.996755599975586 -0.34121084213256836
11.903641700744629 -7.321811676025391 -0.3408505320549011
11.945255279541016 -7.244297981262207 -0.3403814136981964
11.98253059387207 -7.1642608642578125 -0.3401498794555664
12.000051498413086 -7.106305122375488 -0.33979111909866333
12.031124114990234 -7.091024398803711 -0.3397548794746399
12.022531509399414 -7.052385330200195 -0.3390939235687256
