VERSION .7
FIELDS x y z
SIZE 4 4 4
TYPE F F F
COUNT 1 1 1
WIDTH 831
HEIGHT 1
VIEWPOINT 0 0 0 1 0 0 0
POINTS 831
DATA ascii
6.107781887054443 7.191409587860107 0.04664637893438339
6.088109016418457 7.199358940124512 0.04661340266466141
6.055072784423828 7.190503120422363 0.04647469148039818
6.0025553703308105 7.189373016357422 0.04673231020569801
5.986845970153809 7.20088005065918 0.04672674834728241
5.9284348487854 7.192021369934082 0.04664862900972366
5.906516075134277 7.195804595947266 0.04659222066402435
5.888443470001221 7.205117225646973 0.04657299071550369
5.855245590209961 7.194915771484375 0.04642704129219055
5.832327842712402 7.197884559631348 0.046366430819034576
5.813213348388672 7.205035209655762 0.046335164457559586
5.786244869232178 7.202141761779785 0.04623917117714882
5.7580246925354 7.198232173919678 0.04613460600376129
5.7436089515686035 7.211061477661133 0.04670242220163345
5.722272872924805 7.2149481773376465 0.0463704839348793
5.689851760864258 7.205406188964844 0.04623088985681534
5.668398857116699 7.209173679351807 0.04617878049612045
5.651883602142334 7.218950271606445 0.046585943549871445
5.623391151428223 7.214028358459473 0.04647732898592949
5.601858615875244 7.217471122741699 0.046423621475696564
5.578474044799805 7.218217849731445 0.04635414108633995
5.557949066162109 7.2235002517700195 0.04631238803267479
5.523375034332275 7.209471702575684 0.04614785313606262
5.510072708129883 7.223793983459473 0.04616483673453331
5.483585834503174 7.220320701599121 0.04620739817619324
5.47272253036499 7.237148284912109 0.04624286666512489
5.430520534515381 7.213090896606445 0.046015143394470215
5.411211013793945 7.21879768371582 0.04639146476984024
5.397146701812744 7.231255054473877 0.046401046216487885
5.372290134429932 7.229890823364258 0.04631837084889412
5.337920188903809 7.21509313583374 0.046151429414749146
5.328911781311035 7.2342681884765625 0.04620364308357239
5.300526142120361 7.228018283843994 0.04609154909849167
5.272622108459473 7.221344470977783 0.04611493647098541
5.2573418617248535 7.2318806648254395 0.04611269384622574
5.241774082183838 7.242947101593018 0.04611179232597351
5.210930347442627 7.231878280639648 0.045972660183906555
5.1916961669921875 7.237500190734863 0.04648164287209511
5.169319152832031 7.238205909729004 0.04600956290960312
5.154641628265381 7.249415397644043 0.04601272940635681
5.119996070861816 7.233360290527344 0.04584132134914398
5.1004319190979 7.237523555755615 0.045800261199474335
5.0796613693237305 7.23991060256958 0.045748889446258545
5.06205940246582 7.24770450592041 0.045729972422122955
5.0295796394348145 7.233129501342773 0.04597523435950279
5.0171051025390625 7.2479376792907715 0.046135880053043365
4.993209362030029 7.245736598968506 0.04605511203408241
4.978274345397949 7.256246566772461 0.04605645313858986
4.95251989364624 7.251630783081055 0.0459606796503067
4.9331583976745605 7.255802154541016 0.04592147842049599
4.910937786102295 7.255456447601318 0.0458545908331871
4.890935897827148 7.259024620056152 0.04581153392791748
4.867832660675049 7.257428169250488 0.04573727399110794
4.844071865081787 7.254502296447754 0.046187419444322586
4.820964813232422 7.2534003257751465 0.04611482471227646
4.803778648376465 7.26017951965332 0.0460943765938282
4.781357765197754 7.258982181549072 0.04602399095892906
4.770758152008057 7.276681900024414 0.046071458607912064
4.740801811218262 7.263820648193359 0.04592759907245636
4.697547435760498 7.2642035484313965 0.04580475762486458
4.684175968170166 7.276597499847412 0.04555702582001686
4.636752128601074 7.270017623901367 0.0457879863679409
4.609707832336426 7.260805130004883 0.045669615268707275
4.598528861999512 7.277507781982422 0.04571278393268585
4.574088096618652 7.2722039222717285 0.04561974108219147
4.547484874725342 7.263308048248291 0.04550464451313019
4.529369354248047 7.268852233886719 0.04560970515012741
4.519822120666504 7.287178039550781 0.04566524922847748
4.48936128616333 7.271712779998779 0.0455099456012249
4.473721027374268 7.281130313873291 0.04590021073818207
4.4559245109558105 7.286020755767822 0.045872654765844345
4.430102348327637 7.2786865234375 0.045766785740852356
4.407211780548096 7.275028228759766 0.045686181634664536
4.3979973793029785 7.293929576873779 0.04574746638536453
4.375061511993408 7.291069030761719 0.04580022767186165
4.349709987640381 7.283034801483154 0.045693330466747284
4.330379009246826 7.284967422485352 0.04564887657761574
4.313255786895752 7.29157829284668 0.046020328998565674
4.291983604431152 7.290099620819092 0.045954685658216476
4.273763179779053 7.294494152069092 0.04592514410614967
4.244422912597656 7.279260635375977 0.04577327519655228
4.2329864501953125 7.2943925857543945 0.04581309109926224
4.206548690795898 7.284379959106445 0.045822303742170334
4.1966094970703125 7.302375793457031 0.04536595940589905
4.167050838470459 7.285898208618164 0.0453377291560173
4.150993824005127 7.2939348220825195 0.04533243179321289
4.122784614562988 7.2794671058654785 0.04557279124855995
4.104707717895508 7.28275203704834 0.045539721846580505
4.089742183685303 7.292576313018799 0.04554624855518341
4.073102951049805 7.298366069793701 0.045529916882514954
4.046128273010254 7.285518646240234 0.045397162437438965
4.032351970672607 7.297396183013916 0.04554497450590134
4.019618511199951 7.310147285461426 0.04557178542017937
3.9955179691314697 7.302961826324463 0.04585534706711769
3.978348731994629 7.307818412780762 0.04583341255784035
3.9567782878875732 7.304250717163086 0.04575949162244797
3.931259870529175 7.294305801391602 0.045644596219062805
6.232767105102539 -10.766939163208008 0.0732772946357727
6.323355674743652 -10.76674747467041 0.07335473597049713
6.477310657501221 -10.768394470214844 0.07305803149938583
8.027193069458008 -10.684834480285645 0.0715775191783905
8.122523307800293 -10.67136287689209 0.07162375748157501
8.229818344116211 -10.672442436218262 0.07115449011325836
8.321840286254883 -10.652612686157227 0.0715750902891159
10.01406478881836 -10.543085098266602 0.07055608928203583
10.137601852416992 -10.539657592773438 0.07006596028804779
10.265758514404297 -10.539470672607422 0.07049199938774109
10.341577529907227 -10.528236389160156 0.06980682909488678
10.398372650146484 -10.542206764221191 0.07004265487194061
10.465495109558105 -10.521260261535645 0.07019542157649994
10.49631404876709 -10.508539199829102 0.0702560767531395
10.593984603881836 -10.517361640930176 0.0697009265422821
10.71894359588623 -10.508444786071777 0.07008734345436096
12.434656143188477 -10.383974075317383 0.07143928110599518
12.567638397216797 -10.361618995666504 0.07108163833618164
12.705669403076172 -10.341938972473145 0.07124365121126175
12.878582000732422 -10.348764419555664 0.07108980417251587
12.969453811645508 -10.332199096679688 0.07135065644979477
13.028255462646484 -10.334922790527344 0.07130312919616699
13.128232955932617 -10.324450492858887 0.07084636390209198
13.282692909240723 -10.311437606811523 0.07132896035909653
13.608251571655273 -10.292593002319336 0.07289844006299973
13.764092445373535 -10.275075912475586 0.07259885966777802
16.04132080078125 -10.0918550491333 0.07576774060726166
16.17270278930664 -10.079693794250488 0.07880611717700958
16.244524002075195 -10.077713012695312 0.07905504107475281
16.366539001464844 -10.05820083618164 0.07856114208698273
16.455053329467773 -10.065613746643066 0.07888492196798325
16.57288360595703 -10.04202651977539 0.07895153760910034
16.623218536376953 -10.025423049926758 0.0790921300649643
16.771820068359375 -10.018962860107422 0.07870256900787354
16.993162155151367 -10.006773948669434 0.07914593815803528
17.20167350769043 -9.984457015991211 0.07982129603624344
19.62859344482422 -9.745649337768555 0.08460791409015656
19.875743865966797 -9.713088989257812 0.08777192234992981
20.160837173461914 -9.695878028869629 0.08876121044158936
20.420488357543945 -9.663159370422363 0.08825371414422989
20.70484161376953 -9.638875961303711 0.0892227366566658
20.890233993530273 -9.618346214294434 0.08984717726707458
20.95374298095703 -9.594937324523926 0.09003015607595444
21.050003051757812 -9.586223602294922 0.08894883841276169
21.09546661376953 -9.552569389343262 0.08905696868896484
21.11868667602539 -9.403547286987305 0.088902547955513
21.10382843017578 -9.344502449035645 0.08875706791877747
21.117053985595703 -9.244186401367188 0.08864863216876984
21.14429473876953 -9.203873634338379 0.08832964301109314
21.177867889404297 -9.060553550720215 0.08998417109251022
21.324214935302734 -7.373624324798584 0.08366557210683823
21.373027801513672 -7.290968418121338 0.0833967924118042
21.373126983642578 -7.24043083190918 0.0823025107383728
21.42263412475586 -7.156771659851074 0.08237484842538834
21.465660095214844 -7.12166166305542 0.08248391002416611
21.476301193237305 -7.024931907653809 0.08240903168916702
21.520801544189453 -6.990082740783691 0.08252516388893127
21.547941207885742 -6.898714065551758 0.08217122405767441
21.567222595214844 -6.8555755615234375 0.08253179490566254
21.620908737182617 -6.772517681121826 0.08228325843811035
21.63228988647461 -6.7268195152282715 0.0822732150554657
21.67676544189453 -6.640662670135498 0.08129605650901794
21.692306518554688 -6.496537685394287 0.08119967579841614
21.693317413330078 -6.447816371917725 0.08115282654762268
21.707216262817383 -6.35257625579834 0.080759696662426
21.746137619018555 -6.215819835662842 0.08075758069753647
21.72736930847168 -4.564323425292969 0.07384571433067322
21.71261978149414 -4.418889045715332 0.07336412370204926
21.74006462097168 -4.377510070800781 0.07342458516359329
21.76343536376953 -4.334897041320801 0.0734705999493599
21.761194229125977 -4.286483287811279 0.0734330415725708
21.755615234375 -4.238504409790039 0.0733831375837326
21.747220993041992 -4.189702033996582 0.07332612574100494
21.75551986694336 -4.143463611602783 0.07230934500694275
21.752731323242188 -4.096173286437988 0.07227186113595963
21.756221771240234 -4.049756050109863 0.07225368916988373
21.75652503967285 -4.002086639404297 0.07222779840230942
21.74592399597168 -3.953500509262085 0.07216564565896988
21.734567642211914 -3.8569483757019043 0.0717366486787796
21.72960090637207 -3.809570789337158 0.07169395685195923
21.728900909423828 -3.7151949405670166 0.07164011895656586
21.734386444091797 -3.669388771057129 0.07163315266370773
21.734134674072266 -3.5756099224090576 0.07057087868452072
21.72879409790039 -3.434577226638794 0.07081886380910873
21.728168487548828 -3.2946062088012695 0.07041418552398682
21.735824584960938 -3.1557743549346924 0.07037170976400375
21.714265823364258 -2.2735800743103027 0.06862261146306992
21.72048568725586 -2.136274576187134 0.06859716773033142
21.722946166992188 -1.9977108240127563 0.06823170185089111
21.726322174072266 -1.860358715057373 0.06720467656850815
21.697492599487305 -1.7205581665039062 0.0670807957649231
21.68589210510254 -1.6287654638290405 0.06702522933483124
21.664825439453125 -1.5809800624847412 0.06694990396499634
21.64071273803711 -1.488620638847351 0.06685609370470047
21.590652465820312 -1.4391733407974243 0.06669244170188904
21.582490921020508 -1.3933180570602417 0.06665509939193726
21.593425750732422 -1.3480396270751953 0.06635221838951111
21.59294891357422 -1.3030314445495605 0.0653514415025711
21.565887451171875 -1.2561583518981934 0.0652618557214737
21.56971549987793 -1.210482120513916 0.06823454052209854
21.57260513305664 -1.1657413244247437 0.0672467052936554
21.5771427154541 -1.1207542419433594 0.06725214421749115
21.561111450195312 -1.0740721225738525 0.06719563901424408
21.553316116333008 -1.0288492441177368 0.06716302782297134
21.555042266845703 -0.9837749004364014 0.06716272234916687
21.559093475341797 -0.8933220505714417 0.06716381013393402
21.532093048095703 -0.7563119530677795 0.06706324219703674
21.528430938720703 -0.620703399181366 0.06671041250228882
20.321372985839844 0.9464206099510193 -0.004966650623828173
20.31352424621582 0.9883055686950684 -0.00496522244066
20.289974212646484 1.0728296041488647 -0.0052731833420693874
20.266368865966797 1.113760232925415 -0.005267747212201357
20.260238647460938 1.1568400859832764 -0.006193005479872227
20.256391525268555 1.198798656463623 -0.006192577071487904
20.2457332611084 1.2837512493133545 -0.006190916057676077
20.23645782470703 1.3253326416015625 -0.006188908126205206
20.194852828979492 1.4501638412475586 -0.006178849842399359
20.17766571044922 1.5764920711517334 -0.0061765010468661785
19.548551559448242 2.8153648376464844 -0.010544778779149055
19.520048141479492 2.936636447906494 -0.010539657436311245
19.46196937561035 3.011770248413086 -0.010515054687857628
19.454713821411133 3.051999568939209 -0.010514532215893269
19.413860321044922 3.1294193267822266 -0.01049972977489233
19.381160736083984 3.165426731109619 -0.01048517506569624
19.38215446472168 3.2072038650512695 -0.010489420965313911
19.330707550048828 3.2408254146575928 -0.010465281084179878
19.32766342163086 3.2815656661987305 -0.01046719215810299
19.30658721923828 3.3617002964019775 -0.010764997452497482
19.260549545288086 3.3948795795440674 -0.010743232443928719
19.234848022460938 3.473935127258301 -0.011629094369709492
19.215408325195312 3.511615753173828 -0.011621695011854172
19.16583251953125 3.586031675338745 -0.011600716039538383
19.12578582763672 3.7031331062316895 -0.013069729320704937
19.07147789001465 3.8171610832214355 -0.014235412701964378
18.589902877807617 4.622188568115234 -0.017519701272249222
18.531448364257812 4.732452869415283 -0.017490392550826073
18.471038818359375 4.840919494628906 -0.017460931092500687
18.439682006835938 4.914883613586426 -0.017743954434990883
18.430395126342773 4.954297065734863 -0.01774516887962818
18.370492935180664 5.020343780517578 -0.017705628648400307
18.349151611328125 5.0563578605651855 -0.017695363610982895
18.334314346313477 5.093533515930176 -0.017692215740680695
18.30471420288086 5.127152442932129 -0.017673125490546227
18.28887939453125 5.163671970367432 -0.017670011147856712
18.280269622802734 5.20252799987793 -0.017671188339591026
18.255294799804688 5.237298488616943 -0.01852540671825409
18.24491310119629 5.275322914123535 -0.018525920808315277
18.22177505493164 5.309935569763184 -0.018513504415750504
18.222362518310547 5.3520612716674805 -0.018525809049606323
18.1832275390625 5.381580352783203 -0.0184951089322567
18.14965057373047 5.412936687469482 -0.018472325056791306
18.126262664794922 5.447849750518799 -0.021050671115517616
18.119033813476562 5.48700475692749 -0.021054456010460854
18.056148529052734 5.592121124267578 -0.02131558582186699
17.993568420410156 5.696951389312744 -0.02128097601234913
16.803800582885742 6.147060394287109 -0.02292170748114586
16.542491912841797 6.169656753540039 -0.02262081205844879
16.291767120361328 6.193089485168457 -0.02339317463338375
16.13037109375 6.209609031677246 -0.023197319358587265
16.0410099029541 6.214303493499756 -0.02308661863207817
15.957910537719727 6.22022819519043 -0.02298727072775364
15.883505821228027 6.229506492614746 -0.0228985957801342
15.81025218963623 6.239500045776367 -0.02281332202255726
15.72721004486084 6.244478225708008 -0.022711636498570442
15.642921447753906 6.248899459838867 -0.022605707868933678
15.553860664367676 6.251607894897461 -0.022496351972222328
15.485251426696777 6.261664390563965 -0.022416500374674797
15.403197288513184 6.265707969665527 -0.022317780181765556
15.331650733947754 6.274535179138184 -0.022237533703446388
15.243247032165527 6.275589942932129 -0.02237531915307045
15.177377700805664 6.285338878631592 -0.0230560339987278
15.091378211975098 6.287253379821777 -0.022942224517464638
15.017570495605469 6.293379783630371 -0.02359376847743988
14.879226684570312 6.309202671051025 -0.023418990895152092
14.811882019042969 6.3169426918029785 -0.023337364196777344
14.656070709228516 6.323573589324951 -0.02312927320599556
14.576072692871094 6.324969291687012 -0.023026593029499054
14.442108154296875 6.339244365692139 -0.022855166345834732
14.379956245422363 6.347586631774902 -0.02301912009716034
14.23068904876709 6.353440284729004 -0.02281760610640049
14.019986152648926 6.365375518798828 -0.022549964487552643
13.076598167419434 6.441162586212158 -0.022459570318460464
12.886133193969727 6.448324203491211 -0.02220294252038002
12.832258224487305 6.454697132110596 -0.022131338715553284
12.718673706054688 6.464822769165039 -0.021983783692121506
12.64776611328125 6.461843013763428 -0.021880533546209335
12.591377258300781 6.466989994049072 -0.02180936560034752
12.546371459960938 6.476815223693848 -0.021756399422883987
12.4812593460083 6.476039886474609 -0.021662933751940727
12.422218322753906 6.479124069213867 -0.021586690098047256
12.368955612182617 6.484029769897461 -0.021516330540180206
12.316514015197754 6.489876747131348 -0.02144896239042282
12.261008262634277 6.493413925170898 -0.021587949246168137
12.199994087219238 6.493555068969727 -0.02150600031018257
12.166234970092773 6.508976936340332 -0.02168162167072296
12.096107482910156 6.503782272338867 -0.021583249792456627
12.056511878967285 6.515493869781494 -0.02153719589114189
11.999900817871094 6.517348766326904 -0.02145986258983612
11.951302528381348 6.523107528686523 -0.021394938230514526
11.893829345703125 6.524518013000488 -0.021317122504115105
11.840873718261719 6.527706146240234 -0.02124556340277195
11.783312797546387 6.527895450592041 -0.021167518571019173
11.739640235900879 6.536515235900879 -0.021114407107234
11.682853698730469 6.536693572998047 -0.021036872640252113
11.638498306274414 6.543626308441162 -0.020978430286049843
11.577056884765625 6.541669845581055 -0.020896118134260178
11.533778190612793 6.548829078674316 -0.020840737968683243
11.425712585449219 6.5512542724609375 -0.020693622529506683
11.389413833618164 6.561883926391602 -0.020654210820794106
11.250349044799805 6.576311111450195 -0.02067585662007332
11.09412670135498 6.578914642333984 -0.02046419121325016
10.466784477233887 6.630614757537842 -0.02003803290426731
10.428703308105469 6.636857509613037 -0.019992314279079437
10.351150512695312 6.648914813995361 -0.019896117970347404
10.30841064453125 6.651721477508545 -0.019841382279992104
10.212376594543457 6.6508355140686035 -0.019708840176463127
10.171634674072266 6.654404640197754 -0.019656792283058167
10.083622932434082 6.657635688781738 -0.019540952518582344
10.046598434448242 6.663167953491211 -0.019496947526931763
10.001649856567383 6.664165019989014 -0.019435415044426918
9.959250450134277 6.665798664093018 -0.019381167367100716
9.924071311950684 6.672114849090576 -0.01952248252928257
9.87002944946289 6.666440010070801 -0.018898166716098785
9.841838836669922 6.677182197570801 -0.018871566280722618
9.794968605041504 6.675327301025391 -0.01880786381661892
9.76039981842041 6.682127952575684 -0.018769416958093643
9.719658851623535 6.683902740478516 -0.018717987462878227
9.685413360595703 6.690871715545654 -0.01885877177119255
9.655120849609375 6.699586391448975 -0.018827609717845917
9.617311477661133 6.70296049118042 -0.018780900165438652
9.573168754577637 6.702624797821045 -0.018722476437687874
9.528090476989746 6.700571060180664 -0.018661797046661377
9.491130828857422 6.704277038574219 -0.018616914749145508
9.451095581054688 6.706089019775391 -0.018565448001027107
9.416489601135254 6.710956573486328 -0.018525315448641777
9.337348937988281 6.7140302658081055 -0.018424980342388153
9.306770324707031 6.721385955810547 -0.01839212141931057
9.231966018676758 6.726701736450195 -0.018300414085388184
9.18735122680664 6.72342586517334 -0.018239671364426613
9.11294937133789 6.728092670440674 -0.01814832165837288
9.086307525634766 6.737815856933594 -0.01812276989221573
9.012354850769043 6.741772174835205 -0.01820346899330616
8.906702041625977 6.750692844390869 -0.017564481124281883
8.789352416992188 6.749165058135986 -0.017416633665561676
8.696258544921875 6.765007972717285 -0.01782030239701271
8.594282150268555 6.773468494415283 -0.01769874431192875
8.516008377075195 6.7694783210754395 -0.017595117911696434
8.483182907104492 6.772796154022217 -0.01755746454000473
8.415034294128418 6.776612281799316 -0.017475394532084465
8.38627815246582 6.782192230224609 -0.017444243654608727
8.329326629638672 6.7943549156188965 -0.01738603040575981
8.285029411315918 6.786900997161865 -0.01732235960662365
8.222729682922363 6.793936252593994 -0.017251765355467796
8.187348365783691 6.79334020614624 -0.017369896173477173
8.153849601745605 6.794375896453857 -0.016842909157276154
8.125988960266113 6.800414085388184 -0.01681511290371418
8.094998359680176 6.803092002868652 -0.01678016223013401
8.061494827270508 6.803740501403809 -0.016740158200263977
8.020354270935059 6.798198699951172 -0.016684632748365402
7.994368553161621 6.8049421310424805 -0.01666012965142727
7.963078022003174 6.8074870109558105 -0.016624972224235535
7.936286449432373 6.813139915466309 -0.016598522663116455
7.894934177398682 6.80635929107666 -0.016541756689548492
7.86761999130249 6.811954021453857 -0.016514763236045837
7.842228412628174 6.8184943199157715 -0.016491129994392395
7.807032585144043 6.816603660583496 -0.016447046771645546
7.7741570472717285 6.817011833190918 -0.01640821248292923
7.747628211975098 6.822241306304932 -0.016382064670324326
7.720632553100586 6.82717752456665 -0.016355127096176147
7.692406177520752 6.8313446044921875 -0.01632598601281643
7.6514081954956055 6.823598384857178 -0.01626921258866787
7.6254191398620605 6.829512596130371 -0.016244716942310333
7.57755184173584 6.815032482147217 -0.01617283560335636
7.558530807495117 6.826560974121094 -0.016162661835551262
7.530338287353516 6.830153465270996 -0.016133315861225128
7.501033306121826 6.8319993019104 -0.016100872308015823
7.441489219665527 6.835325241088867 -0.01603471115231514
7.40839147567749 6.833531856536865 -0.016455402597784996
7.350159645080566 6.837124824523926 -0.01638972759246826
7.326257705688477 6.8435139656066895 -0.016368189826607704
7.258313179016113 6.837513446807861 -0.016280386596918106
7.239906311035156 6.84858512878418 -0.016271205618977547
7.179996490478516 6.84943962097168 -0.016201242804527283
7.098825454711914 6.857761859893799 -0.016115082427859306
7.008230209350586 6.855938911437988 -0.01600680500268936
6.952530860900879 6.858988285064697 -0.015945428982377052
6.9295244216918945 6.864725112915039 -0.0159253291785717
6.880176544189453 6.8734917640686035 -0.015878450125455856
6.840600490570068 6.862376689910889 -0.01581982895731926
6.7883806228637695 6.8675947189331055 -0.015765739604830742
6.767886161804199 6.875967979431152 -0.015751823782920837
6.744765281677246 6.880982875823975 -0.016172347590327263
6.709566116333008 6.873758792877197 -0.01612267829477787
6.690376281738281 6.883245468139648 -0.016111521050333977
6.654478549957275 6.8750104904174805 -0.01605878584086895
6.62866735458374 6.877472400665283 -0.016032222658395767
6.60279655456543 6.879143714904785 -0.016003908589482307
6.563386917114258 6.866761684417725 -0.015942789614200592
6.545399188995361 6.877084732055664 -0.015934450551867485
6.521986484527588 6.881234169006348 -0.015912745147943497
6.490357398986816 6.876386642456055 -0.015870876610279083
6.4693121910095215 6.883278846740723 -0.015854552388191223
6.451333999633789 6.892967700958252 -0.01584647409617901
6.417160987854004 6.88503885269165 -0.015797331929206848
6.403497695922852 6.899662017822266 -0.015799647197127342
6.367191791534424 6.889371395111084 -0.01574583351612091
6.351405620574951 6.901600360870361 -0.015742825344204903
6.321811676025391 6.8981170654296875 -0.015704907476902008
6.306966781616211 6.910866737365723 -0.015703894197940826
6.266305446624756 6.895627975463867 -0.015638630837202072
6.246920108795166 6.90323543548584 -0.015626171603798866
6.215921401977539 6.897696495056152 -0.015585045330226421
6.191115379333496 6.899539947509766 -0.015416981652379036
6.168874740600586 6.903733730316162 -0.014974299818277359
6.130958557128906 6.8900251388549805 -0.01491671521216631
6.116415977478027 6.903108596801758 -0.015761230140924454
6.09502649307251 6.9080071449279785 -0.015743287280201912
6.047707557678223 6.912843704223633 -0.015695270150899887
6.015674114227295 6.905091285705566 -0.015650007873773575
5.965358734130859 6.905843734741211 -0.015177499502897263
5.956153392791748 6.9241814613342285 -0.015190965496003628
5.91070032119751 6.93016242980957 -0.015149256214499474
5.860186576843262 6.929834365844727 -0.015095053240656853
5.830214500427246 6.923480987548828 -0.015053888782858849
5.782384872436523 6.925671100616455 -0.015005530789494514
5.765430450439453 6.934564590454102 -0.01499936357140541
5.713540077209473 6.931324005126953 -0.014939962886273861
5.688261032104492 6.929908275604248 -0.014911340549588203
5.661462783813477 6.927382469177246 -0.014879060909152031
5.649277210235596 6.941822528839111 -0.014885458163917065
5.61810302734375 6.933502197265625 -0.014842798933386803
5.592732906341553 6.931767463684082 -0.014812339097261429
5.570773601531982 6.933944225311279 -0.01479284092783928
5.547595024108887 6.9351701736450195 -0.015177372843027115
5.516802787780762 6.926308631896973 -0.015131722204387188
5.5016679763793945 6.936797618865967 -0.015130866318941116
5.476380348205566 6.935074329376221 -0.015100520104169846
5.454483985900879 6.937113285064697 -0.01508112158626318
5.425362586975098 6.929623126983643 -0.015039958991110325
5.411331653594971 6.942204475402832 -0.01504172757267952
5.393777370452881 6.94937801361084 -0.015033922158181667
5.366673469543457 6.944818019866943 -0.014999519102275372
5.338734149932861 6.938593864440918 -0.014960598200559616
5.322805881500244 6.947675704956055 -0.014956788159906864
5.306360244750977 6.956943511962891 -0.014952290803194046
5.272977352142334 6.9430084228515625 -0.01489915233105421
5.2527360916137695 6.9462385177612305 -0.014882009476423264
5.232346534729004 6.950085639953613 -0.014866793528199196
5.217769622802734 6.9607391357421875 -0.014866922050714493
5.188177108764648 6.951934814453125 -0.01469280943274498
5.168636798858643 6.95604133605957 -0.014677071012556553
5.149293899536133 6.9601335525512695 -0.014663780108094215
5.133289337158203 6.969368934631348 -0.014660293236374855
5.098018169403076 6.951869964599609 -0.014599533751606941
5.087763786315918 6.968163013458252 -0.014612888917326927
5.061485290527344 6.963357925415039 -0.01418532244861126
5.042669296264648 6.967828750610352 -0.014174576848745346
5.023200511932373 6.971341133117676 -0.01494680531322956
4.994422435760498 6.962715148925781 -0.014905563555657864
4.9760847091674805 6.9676337242126465 -0.0148914260789752
4.957948684692383 6.973465442657471 -0.01488417387008667
4.92928409576416 6.96392822265625 -0.014449967071413994
4.9119768142700195 6.970105171203613 -0.014442117884755135
4.889047622680664 6.969137668609619 -0.014418172650039196
4.867475509643555 6.969104766845703 -0.01439637690782547
4.849420070648193 6.974038600921631 -0.014386962167918682
4.835556507110596 6.985891819000244 -0.014390602707862854
4.807945728302002 6.9768967628479 -0.014349337667226791
4.782731056213379 6.971225738525391 -0.014319496229290962
4.767792224884033 6.981374263763428 -0.014319180510938168
4.751647472381592 6.988831043243408 -0.014314274303615093
4.734415054321289 6.995580196380615 -0.014307446777820587
4.713411331176758 6.995777130126953 -0.014288398437201977
4.693238735198975 6.997128009796143 -0.01427103765308857
4.663904190063477 6.985604286193848 -0.014225896447896957
4.647371292114258 6.992219924926758 -0.01421992015093565
4.61000394821167 6.999765872955322 -0.01419748179614544
4.58341121673584 6.990928649902344 -0.014158560894429684
4.567365646362305 6.9990153312683105 -0.01402741763740778
4.544846057891846 6.99618673324585 -0.013747417367994785
4.531554222106934 7.007513523101807 -0.014134842902421951
4.499452590942383 6.990577697753906 -0.014079330489039421
4.479372501373291 6.991217613220215 -0.014062155969440937
4.468801498413086 7.006685733795166 -0.014076150953769684
4.441198825836182 6.9963274002075195 -0.014036498963832855
4.424643516540527 7.002321243286133 -0.014028982259333134
4.402242183685303 6.998991966247559 -0.014004728756844997
4.386567115783691 7.007238388061523 -0.013876015320420265
4.362947463989258 7.001774311065674 -0.01384778507053852
4.342376232147217 7.002041339874268 -0.013828226365149021
4.330472946166992 7.015308856964111 -0.01383842620998621
4.307823181152344 7.0111260414123535 -0.013812861405313015
4.283686637878418 7.005350112915039 -0.013780860230326653
4.268575668334961 7.013296604156494 -0.013404651544988155
4.248250484466553 7.012869834899902 -0.013388045132160187
4.233456611633301 7.022014617919922 -0.013387450948357582
4.2139410972595215 7.0225605964660645 -0.013370968401432037
4.193091869354248 7.021039962768555 -0.013352425768971443
4.171606540679932 7.0188398361206055 -0.013330476358532906
4.150849342346191 7.017029285430908 -0.01331079937517643
4.128292560577393 7.013042449951172 -0.013286028057336807
4.109746932983398 7.014795303344727 -0.013272562995553017
4.091522693634033 7.017034530639648 -0.013260744512081146
4.068471908569336 7.011882781982422 -0.013235483318567276
4.047598361968994 7.009376525878906 -0.013215746730566025
5.725251197814941 -10.82023811340332 0.017934193834662437
5.7495317459106445 -10.810598373413086 0.017937906086444855
5.804729461669922 -10.805567741394043 0.017972640693187714
5.817968845367432 -10.77532958984375 0.018502552062273026
5.88810920715332 -10.796226501464844 0.018581053242087364
5.915949821472168 -10.793927192687988 0.018596872687339783
5.9377593994140625 -10.780191421508789 0.018593449145555496
6.004964351654053 -10.794767379760742 0.01828485168516636
6.0289716720581055 -10.784794807434082 0.018288789317011833
6.061252117156982 -10.788747787475586 0.018317461013793945
6.083359718322754 -10.775288581848145 0.018314706161618233
6.149295330047607 -10.78610610961914 0.018377672880887985
6.1721625328063965 -10.773808479309082 0.018378570675849915
6.231898307800293 -10.77302074432373 0.018422069028019905
6.2568254470825195 -10.764134407043457 0.018428873270750046
6.357765197753906 -10.78121566772461 0.019290538504719734
6.992188930511475 -10.745231628417969 0.019366543740034103
7.079800605773926 -10.731679916381836 0.02001093700528145
7.267190933227539 -10.718976020812988 0.020156214013695717
7.331009864807129 -10.716720581054688 0.020209327340126038
7.358255386352539 -10.707742691040039 0.02022201009094715
7.400431156158447 -10.721383094787598 0.02027672901749611
7.422828674316406 -10.705890655517578 0.01928153820335865
7.464704990386963 -10.717670440673828 0.019331207498908043
7.494487285614014 -10.712958335876465 0.019350729882717133
7.528307914733887 -10.712510108947754 0.019378801807761192
7.587738037109375 -10.702378273010254 0.01941741444170475
7.625030040740967 -10.706428527832031 0.019454261288046837
7.6537652015686035 -10.699715614318848 0.01947089284658432
7.682846546173096 -10.693061828613281 0.020091135054826736
7.752297878265381 -10.694732666015625 0.020155221223831177
7.788936138153076 -10.69814395904541 0.02019229158759117
7.841811180114746 -10.676328659057617 0.020213047042489052
7.938015460968018 -10.665771484375 0.020287364721298218
8.050297737121582 -10.675848007202148 0.02060580626130104
8.153524398803711 -10.672504425048828 0.02069803513586521
8.924314498901367 -10.626046180725098 0.020748835057020187
8.987659454345703 -10.611398696899414 0.02079397439956665
9.026991844177246 -10.612116813659668 0.02104504220187664
9.09782886505127 -10.60555648803711 0.02046663872897625
9.138147354125977 -10.606949806213379 0.020506996661424637
9.203231811523438 -10.592938423156738 0.019910719245672226
9.255495071411133 -10.607565879821777 0.019974887371063232
9.321741104125977 -10.593101501464844 0.020667437463998795
9.359987258911133 -10.5921630859375 0.02070384845137596
9.397058486938477 -10.589418411254883 0.02073689177632332
9.434926986694336 -10.586777687072754 0.020770950242877007
9.480729103088379 -10.593829154968262 0.02082318440079689
9.548077583312988 -10.57908821105957 0.02087322250008583
9.585750579833984 -10.576620101928711 0.02090742066502571
9.66257381439209 -10.571565628051758 0.020977754145860672
9.698358535766602 -10.566600799560547 0.02100774645805359
9.777220726013184 -10.56287956237793 0.02108268439769745
9.813623428344727 -10.55784797668457 0.021112792193889618
9.894115447998047 -10.555275917053223 0.02119005098938942
11.048831939697266 -10.480104446411133 0.021375484764575958
11.17626667022705 -10.46733283996582 0.021494071930646896
11.260873794555664 -10.45885944366455 0.021572532132267952
11.312702178955078 -10.462390899658203 0.02162865549325943
11.39792251586914 -10.453455924987793 0.02170873060822487
11.436789512634277 -10.444525718688965 0.021740593016147614
11.490549087524414 -10.449972152709961 0.021800968796014786
11.52534294128418 -10.437679290771484 0.021826468408107758
11.584172248840332 -10.446321487426758 0.02189566381275654
11.613012313842773 -10.428712844848633 0.021907994523644447
11.712570190429688 -10.42934799194336 0.0220134649425745
11.764981269836426 -10.432323455810547 0.02206982672214508
11.796102523803711 -10.414992332458496 0.02208787202835083
11.852027893066406 -10.42068099975586 0.022151483222842216
11.977761268615723 -10.398453712463379 0.022023551166057587
12.272396087646484 -10.386547088623047 0.023059215396642685
13.693849563598633 -10.272185325622559 0.024030962958931923
13.809152603149414 -10.269065856933594 0.02415802702307701
13.858870506286621 -10.260458946228027 0.024206874892115593
13.976360321044922 -10.25660228729248 0.024072637781500816
14.026835441589355 -10.248927116394043 0.024122821167111397
14.148685455322266 -10.24683952331543 0.02425832860171795
14.196196556091309 -10.236405372619629 0.02430306002497673
14.240510940551758 -10.22318172454834 0.02434205263853073
14.313953399658203 -10.229969024658203 0.024430416524410248
14.431009292602539 -10.223076820373535 0.024557527154684067
14.477043151855469 -10.209641456604004 0.024059299379587173
14.540701866149902 -10.209419250488281 0.024943195283412933
14.714134216308594 -10.19369125366211 0.025131449103355408
14.828474044799805 -10.180749893188477 0.02525223046541214
15.015592575073242 -10.170921325683594 0.025462187826633453
15.19849681854248 -10.15601634979248 0.02566385641694069
16.829792022705078 -10.010435104370117 0.02629704214632511
17.018739700317383 -9.978519439697266 0.026492485776543617
17.2415714263916 -9.964049339294434 0.026437858119606972
17.472688674926758 -9.951611518859863 0.026696091517806053
17.62391471862793 -9.939679145812988 0.02686391770839691
17.693634033203125 -9.930659294128418 0.02600945718586445
17.761512756347656 -9.920344352722168 0.02607816271483898
17.847808837890625 -9.918581008911133 0.02617390640079975
17.916427612304688 -9.90810775756836 0.026244640350341797
17.983421325683594 -9.896480560302734 0.02631302736699581
18.084718704223633 -9.901951789855957 0.026430252939462662
18.15315055847168 -9.890510559082031 0.02650080993771553
18.23361587524414 -9.884977340698242 0.026588285341858864
18.379201889038086 -9.864340782165527 0.02673918753862381
18.625553131103516 -9.846242904663086 0.02700664848089218
20.385608673095703 -8.98039436340332 0.024809133261442184
20.404897689819336 -8.886470794677734 0.02207525260746479
20.409805297851562 -8.838266372680664 0.022060470655560493
20.421409606933594 -8.741345405578613 0.02203345112502575
20.44000816345215 -8.699163436889648 0.022033996880054474
20.454917907714844 -8.60394287109375 0.020996462553739548
20.45773696899414 -8.555208206176758 0.020981639623641968
20.49195098876953 -8.468299865722656 0.020979981869459152
20.507904052734375 -8.42510986328125 0.020978102460503578
20.52811050415039 -8.332539558410645 0.02096247300505638
20.535728454589844 -8.28603744506836 0.02095291018486023
20.56465721130371 -8.197174072265625 0.020947162061929703
20.592037200927734 -8.158239364624023 0.02095687761902809
20.59986686706543 -8.061500549316406 0.020591750741004944
20.623931884765625 -7.9217729568481445 0.02056557685136795
20.87238311767578 -6.783702373504639 0.01541295275092125
20.906152725219727 -6.649662017822266 0.012740731239318848
20.932456970214844 -6.5134077072143555 0.012730041518807411
20.952083587646484 -6.375324249267578 0.01238158531486988
20.98929214477539 -6.242751121520996 0.011379903182387352
21.000808715820312 -6.150028705596924 0.011372551321983337
20.996049880981445 -6.1013569831848145 0.011365292593836784
21.0181941986084 -6.060518741607666 0.01136468630284071
20.98523712158203 -6.002490043640137 0.011344841681420803
20.966415405273438 -5.950064659118652 0.011327672749757767
21.006855010986328 -5.866062164306641 0.011337867937982082
20.94808578491211 -5.7079362869262695 0.011288786306977272
20.914165496826172 -3.9872000217437744 0.0029593338258564472
20.92756462097168 -3.9447646141052246 0.002956789918243885
20.909957885742188 -3.850327730178833 0.002951944014057517
20.910579681396484 -3.8055944442749023 0.0029502720572054386
20.895465850830078 -3.711998462677002 0.0026216234546154737
20.90180015563965 -3.668396472930908 0.0026215268298983574
20.90671730041504 -3.578566551208496 0.0026198483537882566
20.91556167602539 -3.5354197025299072 0.002615609671920538
20.903371810913086 -3.3983359336853027 0.001965995179489255
20.902915954589844 -3.30796480178833 0.000996935646981001
20.89215660095215 -3.1717641353607178 0.0009963648626580834
20.89574432373047 -3.038043737411499 0.0009942833567038178
20.882984161376953 -2.9022507667541504 0.0006706201238557696
20.78141212463379 -1.6517517566680908 -0.001573334913700819
20.70699691772461 -1.5149019956588745 -0.0025113916490226984
20.687145233154297 -1.425886869430542 -0.0025106079410761595
20.67390251159668 -1.381874918937683 -0.0025054351426661015
20.66529083251953 -1.2939038276672363 -0.0025047152303159237
20.66130256652832 -1.250614881515503 -0.003461297368630767
20.647613525390625 -1.1625337600708008 -0.002513663377612829
20.641258239746094 -1.1192107200622559 -0.0025120042264461517
20.6380672454834 -1.0318851470947266 -0.002512744627892971
20.629913330078125 -0.9885640144348145 -0.002510687103495002
20.605398178100586 -0.9004297256469727 -0.002505761804059148
20.617782592773438 -0.8581066727638245 -0.0025077564641833305
20.606449127197266 -0.7707169651985168 -0.003446781076490879
24.51425552368164 0.059094443917274475 0.19602470099925995
24.260848999023438 1.4863147735595703 0.19175530970096588
24.22588348388672 1.6371045112609863 0.19155636429786682
24.185039520263672 1.7871475219726562 0.19094491004943848
24.143360137939453 1.9367502927780151 0.190708190202713
24.150001525878906 1.9877302646636963 0.19079282879829407
24.105615615844727 2.0359301567077637 0.19047610461711884
24.10212516784668 2.08601713180542 0.19048230350017548
24.097135543823242 2.187866687774658 0.1905139982700348
24.06464385986328 2.235276460647583 0.19029337167739868
24.057147979736328 2.3368101119995117 0.19031023979187012
24.025392532348633 2.3840630054473877 0.1897258162498474
24.0003662109375 2.5340445041656494 0.18854893743991852
23.917348861694336 2.6774168014526367 0.18802526593208313
23.09458351135254 4.069582462310791 0.17927712202072144
23.022184371948242 4.207304000854492 0.1789182722568512
23.02498435974121 4.257211685180664 0.179008349776268
22.95949363708496 4.345179080963135 0.17827987670898438
22.939990997314453 4.390817642211914 0.17819882929325104
22.920568466186523 4.437878608703613 0.1781211793422699
22.9046630859375 4.484132766723633 0.17700403928756714
22.8721981048584 4.527080535888672 0.1768253892660141
22.836389541625977 4.570709228515625 0.17662349343299866
22.814453125 4.615579605102539 0.1765279471874237
22.780311584472656 4.657901287078857 0.17633813619613647
22.71770668029785 4.744861125946045 0.17600685358047485
22.69134521484375 4.788519382476807 0.17587891221046448
22.640880584716797 4.8775553703308105 0.17564594745635986
22.560617446899414 5.008880615234375 0.17526404559612274
22.499187469482422 5.144231796264648 0.17187513411045074
22.42148780822754 5.275005340576172 0.17153170704841614
21.870498657226562 6.223935127258301 0.16483856737613678
21.82635498046875 6.30977725982666 0.16470648348331451
21.841583251953125 6.364403247833252 0.16492199897766113
21.81902503967285 6.4565629959106445 0.16494633257389069
21.75452423095703 6.4876861572265625 0.1645607352256775
21.562227249145508 6.528275489807129 0.16330212354660034
21.424530029296875 6.536221981048584 0.16133926808834076
21.279193878173828 6.540538311004639 0.1603490710258484
21.170495986938477 6.55630350112915 0.15963104367256165
21.02482032775879 6.55903434753418 0.15863487124443054
20.881561279296875 6.562275409698486 0.15765812993049622
20.743545532226562 6.5672760009765625 0.15672022104263306
20.629106521606445 6.578176021575928 0.1559574007987976
20.485488891601562 6.579590797424316 0.15464679896831512
20.372770309448242 6.591085910797119 0.15390104055404663
20.235506057739258 6.59309720993042 0.15296635031700134
19.987810134887695 6.605635166168213 0.15130312740802765
19.873390197753906 6.6139373779296875 0.14766715466976166
19.63010597229004 6.624591827392578 0.14606523513793945
19.525081634521484 6.634647369384766 0.14538681507110596
19.1689453125 6.648344039916992 0.1430446207523346
17.037912368774414 6.763989448547363 0.12616635859012604
16.78378677368164 6.785553932189941 0.12376640737056732
16.60456085205078 6.794591426849365 0.12265979498624802
16.50864601135254 6.795372009277344 0.12205483019351959
16.335433959960938 6.804665565490723 0.12098265439271927
16.26217269897461 6.813786029815674 0.12054400146007538
16.073240280151367 6.814339637756348 0.11935575306415558
15.988571166992188 6.818484306335449 0.11883534491062164
15.822113990783691 6.825533866882324 0.117807537317276
15.760869026184082 6.838798999786377 0.11745412647724152
15.660995483398438 6.834401607513428 0.11681918799877167
15.607047080993652 6.849449157714844 0.11652153730392456
15.50107192993164 6.842185020446777 0.11558189988136292
15.429682731628418 6.849249839782715 0.11515238881111145
15.357231140136719 6.8552727699279785 0.11472208052873611
15.278215408325195 6.85890007019043 0.11270127445459366
15.202252388000488 6.863018035888672 0.1122499406337738
15.118300437927246 6.863754749298096 0.11173910647630692
15.041284561157227 6.866750240325928 0.11127698421478271
14.975995063781738 6.874535083770752 0.11089251190423965
14.808597564697266 6.873345851898193 0.10962329059839249
14.595207214355469 6.886151313781738 0.1083584874868393
14.382230758666992 6.896539688110352 0.10709837079048157
14.18262004852295 6.9108195304870605 0.10592905431985855
13.191102027893066 6.949948787689209 0.09897280484437943
13.011630058288574 6.960245132446289 0.09795437753200531
12.87002944946289 6.954367637634277 0.09710869193077087
12.832942962646484 6.968772888183594 0.09693577885627747
12.715826034545898 6.974677085876465 0.09627263993024826
12.635354995727539 6.964686870574951 0.095775306224823
12.594830513000488 6.977219581604004 0.09557784348726273
12.53542423248291 6.9785966873168945 0.09501804411411285
12.481922149658203 6.982780933380127 0.0947229415178299
12.41872501373291 6.982050895690918 0.09435498714447021
12.369670867919922 6.988544464111328 0.09409232437610626
12.309395790100098 6.988227367401123 0.09374269098043442
12.25780200958252 6.99360466003418 0.09346452355384827
12.210067749023438 6.999996185302734 0.09299515187740326
12.14548110961914 6.997237205505371 0.09261611104011536
12.089889526367188 6.998912811279297 0.09230390936136246
12.04416561126709 7.005853652954102 0.09206445515155792
11.986331939697266 7.006278991699219 0.0917363241314888
11.931968688964844 7.00800895690918 0.09143435955047607
11.871135711669922 7.005453109741211 0.09108096361160278
11.832540512084961 7.016800403594971 0.09089529514312744
11.776104927062988 7.016406059265137 0.09057509899139404
11.736279487609863 7.025718688964844 0.09038030356168747
11.661190032958984 7.0146484375 0.0899202898144722
11.62316608428955 7.024665832519531 0.08973698318004608
11.503385543823242 7.018584251403809 0.08904169499874115
11.461803436279297 7.025895118713379 0.08862417936325073
11.369728088378906 7.035501003265381 0.08814030140638351
11.321352005004883 7.038096904754639 0.08788013458251953
11.23583984375 7.050715446472168 0.08744392544031143
10.52792739868164 7.078097343444824 0.08324097841978073
10.405051231384277 7.090868949890137 0.08261974155902863
10.359945297241211 7.091658115386963 0.08237815648317337
10.31345272064209 7.091541290283203 0.08212777227163315
10.271183013916016 7.094607353210449 0.08190898597240448
10.23251724243164 7.099309921264648 0.08171820640563965
10.176307678222656 7.092562675476074 0.081391841173172
10.139620780944824 7.098301410675049 0.08121548593044281
10.08947467803955 7.094440460205078 0.08093103766441345
10.061698913574219 7.107080459594727 0.0808274894952774
10.012919425964355 7.103816032409668 0.08055558055639267
9.964258193969727 7.100423812866211 0.08028237521648407
9.901713371276855 7.087797164916992 0.07971516251564026
9.888957977294922 7.109748840332031 0.08028853684663773
9.837886810302734 7.104959964752197 0.07999581843614578
9.811413764953613 7.116868019104004 0.07990024983882904
9.751930236816406 7.104652404785156 0.07953581213951111
9.715147972106934 7.109673976898193 0.07936044037342072
9.678701400756836 7.113891124725342 0.07918152958154678
9.64338207244873 7.118800640106201 0.0790143609046936
9.59760856628418 7.116735458374023 0.07876381278038025
9.565691947937012 7.12388277053833 0.07862244546413422
9.51956558227539 7.120290756225586 0.07818242907524109
9.503897666931152 7.140283107757568 0.07817856222391129
9.443363189697266 7.125509262084961 0.0778018906712532
9.406547546386719 7.1293158531188965 0.07762572169303894
9.374999046325684 7.136084079742432 0.07748579978942871
9.334717750549316 7.136066436767578 0.07727476954460144
9.284524917602539 7.129171848297119 0.07698705792427063
9.256963729858398 7.138594627380371 0.07688017189502716
9.21312141418457 7.135547161102295 0.07663947343826294
9.145866394042969 7.145057201385498 0.07632911205291748
9.112720489501953 7.14988899230957 0.07617636770009995
9.030216217041016 7.14657735824585 0.07573795318603516
8.91726303100586 7.148812770843506 0.0755135789513588
8.602519989013672 7.168017864227295 0.07398350536823273
8.533514976501465 7.170958042144775 0.07364653050899506
8.48959732055664 7.164828777313232 0.07339860498905182
8.428548812866211 7.173637390136719 0.07312818616628647
8.391315460205078 7.172693252563477 0.07293719798326492
8.35860824584961 7.17503023147583 0.0727832093834877
8.318042755126953 7.170907020568848 0.07256215810775757
8.289260864257812 7.1761345863342285 0.07244066894054413
8.258760452270508 7.179986953735352 0.07230526208877563
8.220809936523438 7.177666187286377 0.07210589200258255
8.192399978637695 7.1828765869140625 0.07198742032051086
8.158402442932129 7.183288097381592 0.071820467710495
8.129291534423828 7.188323497772217 0.07169833034276962
8.084834098815918 7.178963661193848 0.07143732160329819
8.05221939086914 7.18016242980957 0.0712818056344986
8.021471977233887 7.183344841003418 0.07114420086145401
7.985106468200684 7.180913925170898 0.07095471024513245
7.9573163986206055 7.186509132385254 0.07084289193153381
7.924615859985352 7.186888694763184 0.07068447768688202
7.885924339294434 7.181900978088379 0.07047326117753983
7.862021446228027 7.190696716308594 0.07039593905210495
7.824478626251221 7.18623685836792 0.07019296288490295
7.8022050857543945 7.196566104888916 0.07013078033924103
7.757694244384766 7.185363292694092 0.06986474990844727
7.734854221343994 7.194087028503418 0.06979340314865112
7.703115940093994 7.195321083068848 0.06964507699012756
7.673149585723877 7.197202682495117 0.06950950622558594
7.63054084777832 7.187281608581543 0.06925949454307556
7.609033584594727 7.197541236877441 0.06920253485441208
7.577446460723877 7.197515487670898 0.06905081123113632
7.541969299316406 7.193868160247803 0.06886470317840576
7.509413242340088 7.193294525146484 0.0687066987156868
7.482795715332031 7.1978535652160645 0.06860055774450302
