VERSION .7
FIELDS x y z
SIZE 4 4 4
TYPE F F F
COUNT 1 1 1
WIDTH 846
HEIGHT 1
VIEWPOINT 0 0 0 1 0 0 0
POINTS 846
DATA ascii
27.473962783813477 2.372681140899658 0.48937031626701355
27.45956802368164 2.429806709289551 0.4891257882118225
27.45787811279297 2.487834930419922 0.48839813470840454
27.43852996826172 2.5444493293762207 0.4899991750717163
27.4141845703125 2.6577353477478027 0.4886428117752075
27.397449493408203 2.7144620418548584 0.4884790778160095
27.386390686035156 2.829883575439453 0.48848798871040344
27.33827781677246 2.998727798461914 0.4872172176837921
27.312164306640625 3.169752597808838 0.48706263303756714
27.28980255126953 3.28369140625 0.4873621165752411
27.270906448364258 3.3388447761535645 0.4873136878013611
27.276241302490234 3.4561524391174316 0.4868437349796295
27.25957489013672 3.512274742126465 0.48643648624420166
27.228818893432617 3.6242098808288574 0.48554718494415283
27.223541259765625 3.68176007270813 0.4855878949165344
27.211750030517578 3.7386345863342285 0.4855342507362366
27.181480407714844 3.791964054107666 0.48527276515960693
27.174007415771484 3.849168300628662 0.48436057567596436
27.144622802734375 3.903433322906494 0.48577263951301575
27.136762619018555 3.959799289703369 0.4857712686061859
27.117992401123047 4.016242980957031 0.4854995608329773
27.09478187561035 4.070282936096191 0.48426803946495056
27.090862274169922 4.127942085266113 0.4842669665813446
27.04644775390625 4.179571151733398 0.48360690474510193
27.001693725585938 4.230045318603516 0.4830995500087738
26.972429275512695 4.283566951751709 0.4827127158641815
26.917163848876953 4.333022117614746 0.48192906379699707
26.887962341308594 4.386322975158691 0.47990986704826355
26.8583984375 4.439684867858887 0.47967666387557983
26.785982131958008 4.48483943939209 0.4780808389186859
26.74014663696289 4.534968852996826 0.4773651957511902
26.719064712524414 4.589397430419922 0.4778060019016266
26.693763732910156 4.642101287841797 0.47761300206184387
26.64154624938965 4.690735816955566 0.47593510150909424
26.608436584472656 4.742795944213867 0.4747423231601715
26.59282684326172 4.7977094650268555 0.4746716022491455
26.558109283447266 4.849314212799072 0.47413766384124756
26.530548095703125 4.901195049285889 0.4738212525844574
26.493188858032227 4.951905250549316 0.473359614610672
26.457275390625 5.002974510192871 0.4719764292240143
26.435626983642578 5.055723667144775 0.47171199321746826
26.39141273498535 5.105731964111328 0.4711776375770569
26.35566520690918 5.155579566955566 0.4717477560043335
26.340740203857422 5.209436416625977 0.4715616703033447
26.282516479492188 5.256288528442383 0.4698590934276581
26.27043914794922 5.310593128204346 0.4697158634662628
26.21868133544922 5.415159225463867 0.4692174792289734
26.161705017089844 5.460022926330566 0.46834033727645874
26.150888442993164 5.516088962554932 0.46674466133117676
26.121023178100586 5.566431999206543 0.4663556218147278
26.04808807373047 5.665674686431885 0.4655473828315735
26.031761169433594 5.718725204467773 0.46540820598602295
25.96520233154297 5.818838596343994 0.46293118596076965
25.933141708374023 5.868199348449707 0.46255069971084595
25.899478912353516 5.9187703132629395 0.46221181750297546
25.854290008544922 5.9649248123168945 0.4615553021430969
25.827308654785156 6.015908718109131 0.46120697259902954
25.802974700927734 6.067649841308594 0.4602001905441284
25.765939712524414 6.11539363861084 0.45981165766716003
25.737220764160156 6.166685104370117 0.45941072702407837
25.70889663696289 6.216340065002441 0.45912736654281616
25.682781219482422 6.266467094421387 0.4588761329650879
25.645423889160156 6.315428733825684 0.4574069082736969
25.615131378173828 6.364377498626709 0.457138329744339
25.597610473632812 6.4164533615112305 0.45704329013824463
25.571014404296875 6.4678754806518555 0.456828773021698
25.535938262939453 6.515414714813232 0.45625704526901245
25.504491806030273 6.56545352935791 0.45453327894210815
25.469661712646484 6.612875461578369 0.45409002900123596
25.43397331237793 6.659977912902832 0.45383352041244507
25.399002075195312 6.708831787109375 0.45322152972221375
25.37529754638672 6.758934020996094 0.4521891474723816
25.35504150390625 6.810649871826172 0.45212867856025696
25.330801010131836 6.8614583015441895 0.45179593563079834
25.278827667236328 6.903718948364258 0.45112383365631104
25.256444931030273 6.955618381500244 0.4510446786880493
25.218303680419922 7.001448631286621 0.4481213688850403
25.207015991210938 7.054688930511475 0.4482249319553375
25.170909881591797 7.102601051330566 0.4478822350502014
25.14801025390625 7.152514934539795 0.44789326190948486
25.07944107055664 7.190224647521973 0.44552305340766907
25.004837036132812 7.22575569152832 0.444233238697052
24.869861602783203 7.242704391479492 0.4412859082221985
24.761249542236328 7.268490791320801 0.439043790102005
24.654842376708984 7.292863368988037 0.4366890490055084
24.51844024658203 7.3078813552856445 0.4329608678817749
24.403858184814453 7.330530166625977 0.43044090270996094
24.293670654296875 7.3524274826049805 0.4283454418182373
24.185152053833008 7.374405860900879 0.4258672893047333
24.0723934173584 7.396265983581543 0.42264053225517273
23.960920333862305 7.416468620300293 0.4203055799007416
23.85112762451172 7.4383544921875 0.41740506887435913
23.74967384338379 7.46082878112793 0.41522225737571716
23.65241241455078 7.484236717224121 0.41233301162719727
23.53809356689453 7.50341796875 0.4098396301269531
23.44197654724121 7.526403427124023 0.40787965059280396
23.22016143798828 7.563204765319824 0.40267327427864075
23.130342483520508 7.587076187133789 0.4006805419921875
23.032135009765625 7.609397888183594 0.3985898792743683
22.923786163330078 7.626401424407959 0.3950568735599518
22.82555389404297 7.64636754989624 0.39229530096054077
22.717876434326172 7.664310455322266 0.39006099104881287
22.62494468688965 7.685290336608887 0.388317734003067
22.537311553955078 7.708527565002441 0.38572853803634644
22.435569763183594 7.726502895355225 0.3829890787601471
22.322498321533203 7.7394185066223145 0.3809390366077423
22.225772857666016 7.759108543395996 0.3789233863353729
22.14019012451172 7.780812740325928 0.37730079889297485
22.055252075195312 7.802423477172852 0.37469482421875
21.973712921142578 7.826432228088379 0.3727670907974243
21.87929916381836 7.844005584716797 0.3711954951286316
21.776016235351562 7.8587799072265625 0.36849164962768555
21.674861907958984 7.873883247375488 0.3666941821575165
21.55087661743164 7.879506587982178 0.364670068025589
21.42090606689453 7.883904457092285 0.3620961010456085
21.297256469726562 7.88861608505249 0.3601841330528259
21.175390243530273 7.893486499786377 0.3582126200199127
21.063114166259766 7.902922630310059 0.35639533400535583
20.924182891845703 7.900368690490723 0.3537634611129761
20.797813415527344 7.902742385864258 0.3516777455806732
20.677738189697266 7.906974792480469 0.3492833375930786
20.55677604675293 7.909655570983887 0.34733209013938904
20.421131134033203 7.907586097717285 0.3447309732437134
20.306690216064453 7.911771297454834 0.34152549505233765
20.181385040283203 7.911947250366211 0.33978113532066345
20.064260482788086 7.914803981781006 0.3380254805088043
19.947067260742188 7.916447639465332 0.3356071710586548
19.82831382751465 7.917695999145508 0.3336723744869232
19.705881118774414 7.916951656341553 0.33193114399909973
19.591999053955078 7.918457984924316 0.32950082421302795
19.480751037597656 7.92194938659668 0.32788732647895813
19.373912811279297 7.92539644241333 0.3262096643447876
19.1451473236084 7.9260969161987305 0.3221961259841919
19.045055389404297 7.930996417999268 0.32003194093704224
18.827102661132812 7.933436393737793 0.3168129324913025
18.72549057006836 7.936417579650879 0.31467145681381226
18.49178695678711 7.9293975830078125 0.3105632960796356
18.31098175048828 7.943326950073242 0.3072514533996582
18.19073486328125 7.93605899810791 0.30547672510147095
17.997079849243164 7.941958427429199 0.30266085267066956
17.897869110107422 7.943248748779297 0.30053770542144775
17.790695190429688 7.9405646324157715 0.2990483045578003
17.70307731628418 7.945555210113525 0.2972091734409332
17.604503631591797 7.945893287658691 0.2951107621192932
17.504636764526367 7.94522762298584 0.2936854958534241
17.402782440185547 7.942592620849609 0.29231908917427063
17.320602416992188 7.949198246002197 0.29044780135154724
17.23403549194336 7.95344352722168 0.28921234607696533
17.127805709838867 7.947574615478516 0.2876468896865845
17.040294647216797 7.951251983642578 0.28649070858955383
16.952674865722656 7.953248023986816 0.28393715620040894
16.861572265625 7.95387077331543 0.28265923261642456
16.777767181396484 7.957573890686035 0.2814424932003021
16.692136764526367 7.959432601928711 0.2797311544418335
16.609914779663086 7.96319580078125 0.27852511405944824
16.512981414794922 7.959531784057617 0.2766622304916382
16.427001953125 7.960140228271484 0.27542397379875183
16.34673500061035 7.963790416717529 0.2742488384246826
16.278900146484375 7.973201751708984 0.2727002799510956
16.169509887695312 7.961881637573242 0.2712010145187378
16.092313766479492 7.966019630432129 0.27004629373550415
16.020061492919922 7.971685409545898 0.26855194568634033
15.932106018066406 7.969815254211426 0.26738816499710083
15.854598045349121 7.972830295562744 0.2663785219192505
15.779733657836914 7.976853370666504 0.26518514752388
15.699267387390137 7.977730751037598 0.26346355676651
15.607702255249023 7.971995830535889 0.26214033365249634
15.539473533630371 7.9784464836120605 0.26142188906669617
15.448369979858398 7.9728240966796875 0.25965315103530884
15.372708320617676 7.974217414855957 0.25859272480010986
15.303755760192871 7.979386329650879 0.2575882077217102
15.236287117004395 7.985062599182129 0.2561552822589874
15.073335647583008 7.980758190155029 0.25404250621795654
15.000740051269531 7.982221603393555 0.2523189187049866
14.865180015563965 7.990598201751709 0.25048622488975525
14.785143852233887 7.9871673583984375 0.2489074170589447
14.646381378173828 7.992071151733398 0.2466478943824768
14.431722640991211 7.993086814880371 0.24269773066043854
14.292485237121582 7.994809150695801 0.24072200059890747
14.225197792053223 7.996535778045654 0.23942115902900696
14.104004859924316 8.006200790405273 0.23787106573581696
14.019888877868652 7.997525215148926 0.236103817820549
13.95616626739502 8.000181198120117 0.2359476387500763
13.885275840759277 7.997873306274414 0.234885573387146
13.831352233886719 8.00563907623291 0.2337733805179596
13.765035629272461 8.006006240844727 0.2328885793685913
13.702067375183105 8.007482528686523 0.23222918808460236
13.644580841064453 8.012470245361328 0.23093485832214355
13.586917877197266 8.017142295837402 0.2302056849002838
13.505847930908203 8.007684707641602 0.22910787165164948
13.446748733520508 8.010406494140625 0.22801972925662994
13.378963470458984 8.008252143859863 0.22690652310848236
13.313248634338379 8.007034301757812 0.22612452507019043
13.26072883605957 8.013526916503906 0.22509725391864777
13.200845718383789 8.014785766601562 0.22430934011936188
13.134716033935547 8.012527465820312 0.22335472702980042
13.074548721313477 8.01365852355957 0.22223621606826782
13.021418571472168 8.018852233886719 0.22110290825366974
12.958111763000488 8.017004013061523 0.22030432522296906
12.895402908325195 8.015812873840332 0.21895533800125122
12.838321685791016 8.01784896850586 0.21827180683612823
12.782855987548828 8.020685195922852 0.217679962515831
12.707938194274902 8.011011123657227 0.21613341569900513
12.663698196411133 8.019892692565918 0.2156161665916443
12.602156639099121 8.018158912658691 0.21483653783798218
12.545101165771484 8.01900577545166 0.21366387605667114
12.488332748413086 8.019821166992188 0.213984414935112
12.430320739746094 8.019049644470215 0.2126094400882721
12.372493743896484 8.018678665161133 0.21191221475601196
12.321004867553711 8.022211074829102 0.2112695276737213
12.209840774536133 8.022709846496582 0.209628164768219
12.158056259155273 8.025400161743164 0.20900431275367737
12.04210090637207 8.021332740783691 0.20652443170547485
11.983146667480469 8.018553733825684 0.20545314252376556
11.8798828125 8.022093772888184 0.20413900911808014
11.825925827026367 8.021440505981445 0.20352783799171448
11.730685234069824 8.029178619384766 0.20193378627300262
11.57210922241211 8.027934074401855 0.1995544135570526
11.42243766784668 8.031444549560547 0.19748540222644806
11.315654754638672 8.027283668518066 0.19572335481643677
11.265228271484375 8.027210235595703 0.19508308172225952
11.171842575073242 8.031315803527832 0.1944565773010254
11.109938621520996 8.0223388671875 0.19370917975902557
11.078153610229492 8.034944534301758 0.19292613863945007
11.031601905822754 8.036670684814453 0.1923713982105255
10.978328704833984 8.03278636932373 0.191327303647995
10.931440353393555 8.033888816833496 0.19081206619739532
10.875900268554688 8.028383255004883 0.19011317193508148
10.835180282592773 8.033114433288574 0.1892305314540863
10.785268783569336 8.031373977661133 0.1887185424566269
10.723472595214844 8.020501136779785 0.1871572732925415
10.686941146850586 8.028337478637695 0.1867169439792633
10.647315979003906 8.033685684204102 0.18636146187782288
10.585111618041992 8.021276473999023 0.18544411659240723
10.542305946350098 8.023855209350586 0.1850915253162384
10.506653785705566 8.031702041625977 0.18428608775138855
10.460366249084473 8.030765533447266 0.1837865114212036
10.405522346496582 8.023555755615234 0.1830635815858841
10.363824844360352 8.0262451171875 0.18224811553955078
10.325414657592773 8.030831336975098 0.18181753158569336
10.270427703857422 8.023335456848145 0.18080298602581024
10.227319717407227 8.023890495300293 0.1803094446659088
10.197355270385742 8.035143852233887 0.18008479475975037
10.094513893127441 8.022727966308594 0.17919126152992249
10.059863090515137 8.029825210571289 0.17800399661064148
10.011783599853516 8.026005744934082 0.17749710381031036
9.971349716186523 8.028154373168945 0.17695745825767517
9.884828567504883 8.026826858520508 0.17577530443668365
9.844791412353516 8.028790473937988 0.17487794160842896
9.76384162902832 8.030961990356445 0.1740417778491974
9.726655006408691 8.034789085388184 0.17324647307395935
9.638769149780273 8.030721664428711 0.17260630428791046
9.518085479736328 8.032079696655273 0.17092019319534302
9.388195037841797 8.0245361328125 0.1690210998058319
9.268217086791992 8.023366928100586 0.16708578169345856
9.19697380065918 8.02922248840332 0.1660607010126114
9.159235000610352 8.03030776977539 0.16560058295726776
9.088823318481445 8.036046981811523 0.1648838073015213
9.04647445678711 8.032590866088867 0.1641230285167694
9.008769989013672 8.033119201660156 0.16331836581230164
8.974770545959473 8.036772727966309 0.1629824936389923
8.937700271606445 8.037059783935547 0.16262397170066833
8.892768859863281 8.030606269836426 0.16183006763458252
8.854843139648438 8.030254364013672 0.16133984923362732
8.818087577819824 8.030333518981934 0.16063474118709564
8.776647567749023 8.026487350463867 0.16020649671554565
8.739928245544434 8.026748657226562 0.15947705507278442
8.709867477416992 8.032524108886719 0.15986552834510803
8.677031517028809 8.036611557006836 0.15928377211093903
8.637084007263184 8.032976150512695 0.15886613726615906
8.602514266967773 8.03469181060791 0.15818853676319122
8.559240341186523 8.028067588806152 0.15762417018413544
8.522130966186523 8.026569366455078 0.15691065788269043
8.486385345458984 8.027182579040527 0.15656989812850952
8.457756042480469 8.033422470092773 0.15628576278686523
8.413415908813477 8.024582862854004 0.155462846159935
8.381305694580078 8.028220176696777 0.1552066206932068
8.34715747833252 8.028791427612305 0.1545644849538803
8.310973167419434 8.027765274047852 0.15411096811294556
8.272689819335938 8.02450942993164 0.1533733755350113
8.245253562927246 8.031172752380371 0.1531974822282791
8.177230834960938 8.032302856445312 0.15216943621635437
8.141507148742676 8.030987739562988 0.15176023542881012
8.072468757629395 8.029733657836914 0.15079614520072937
8.038000106811523 8.02920913696289 0.15008506178855896
7.970952987670898 8.029075622558594 0.14915376901626587
7.936215877532959 8.027843475341797 0.14873631298542023
7.755613327026367 8.011658668518066 0.1462291181087494
7.674622535705566 8.028849601745605 0.14526137709617615
7.575706481933594 8.025778770446777 0.14371593296527863
7.488683700561523 8.034173011779785 0.14257891476154327
7.413547515869141 8.021026611328125 0.14111579954624176
7.383950233459473 8.022340774536133 0.14094190299510956
7.3557891845703125 8.025101661682129 0.14032024145126343
7.318927764892578 8.019210815429688 0.1400267630815506
7.297478675842285 8.029109954833984 0.13960511982440948
7.260198593139648 8.021987915039062 0.13919766247272491
7.231112480163574 8.023721694946289 0.13853609561920166
7.203560829162598 8.026582717895508 0.13843461871147156
7.170722961425781 8.02393913269043 0.13775283098220825
7.142335414886475 8.026103973388672 0.1375400871038437
7.097079277038574 8.008651733398438 0.13695292174816132
7.071766376495361 8.014514923095703 0.13685455918312073
7.052943706512451 8.026697158813477 0.1364927887916565
7.018658638000488 8.021702766418457 0.13614299893379211
6.994659423828125 8.028302192687988 0.13564863801002502
6.956650733947754 8.018211364746094 0.13527332246303558
6.932350158691406 8.02476978302002 0.13472667336463928
6.901434898376465 8.022577285766602 0.13453298807144165
6.861173629760742 8.009334564208984 0.13371160626411438
6.841580390930176 8.021080017089844 0.1336919516324997
6.815183639526367 8.023796081542969 0.1331031173467636
6.776724815368652 8.012155532836914 0.1326867938041687
6.754166126251221 8.020169258117676 0.13227730989456177
6.726511001586914 8.021055221557617 0.13175860047340393
6.66603946685791 8.017281532287598 0.13091503083705902
6.6414995193481445 8.02156925201416 0.13074754178524017
6.585301399230957 8.022233009338379 0.12988552451133728
6.548959732055664 8.012328147888184 0.12929673492908478
6.457985877990723 8.003181457519531 0.12812718749046326
6.329520225524902 8.014703750610352 0.12666739523410797
6.250327110290527 8.018022537231445 0.12539425492286682
6.171514987945557 8.020401954650879 0.12453600764274597
6.088913917541504 8.016831398010254 0.12321145832538605
6.0296220779418945 8.008084297180176 0.12215904891490936
6.003854274749756 8.008874893188477 0.1219029501080513
5.978007793426514 8.008974075317383 0.12145470082759857
5.956958293914795 8.016441345214844 0.12140808254480362
5.9336347579956055 8.019763946533203 0.12092668563127518
5.898131370544434 8.007012367248535 0.12061518430709839
5.876499652862549 8.012900352478027 0.12044579535722733
5.846884727478027 8.00731086730957 0.11993803083896637
5.827354431152344 8.015976905822754 0.11980171501636505
5.798566818237305 8.011768341064453 0.11936511844396591
5.778714179992676 8.019323348999023 0.11891725659370422
5.752202987670898 8.018592834472656 0.1188117042183876
5.720667839050293 8.009673118591309 0.11806882172822952
5.69051456451416 8.002514839172363 0.11780913174152374
5.673111915588379 8.014237403869629 0.11748901754617691
5.647435188293457 8.013175010681152 0.11735479533672333
5.6232781410217285 8.015206336975098 0.11691299080848694
5.5931196212768555 8.007513046264648 0.11666865646839142
5.571667671203613 8.012166023254395 0.1162412166595459
5.5425519943237305 8.006734848022461 0.1160680428147316
5.517083168029785 8.005389213562012 0.11550692468881607
5.491792678833008 8.004191398620605 0.11530733108520508
5.467704772949219 8.00568962097168 0.11493124067783356
5.4404683113098145 8.001413345336914 0.11440436542034149
5.420004844665527 8.007555961608887 0.11401481926441193
5.397948265075684 8.011232376098633 0.11396200954914093
5.380082607269287 8.020581245422363 0.11350356042385101
5.303935527801514 8.016090393066406 0.11307346820831299
5.2241716384887695 8.004436492919922 0.1117454320192337
5.149143218994141 7.998897552490234 0.11072632670402527
5.034867286682129 8.004781723022461 0.1095382571220398
4.963038444519043 8.002279281616211 0.10857152193784714
4.8960466384887695 8.006196022033691 0.10781912505626678
4.874575614929199 8.008378982543945 0.10750985145568848
4.850710391998291 8.007116317749023 0.10731643438339233
4.826494216918945 8.005099296569824 0.10684817284345627
4.8066205978393555 8.009679794311523 0.10675367712974548
4.777470588684082 7.9997878074646 0.10624241828918457
4.757895469665527 8.00469970703125 0.106124147772789
4.7386627197265625 8.010141372680664 0.10586179792881012
4.718667984008789 8.015366554260254 0.10573069006204605
4.689840793609619 8.004348754882812 0.10530667006969452
4.666774749755859 8.003602027893066 0.10504090785980225
4.646563529968262 8.007611274719238 0.10478147119283676
4.626825332641602 8.011848449707031 0.10463551431894302
4.5991010665893555 8.002737998962402 0.1041543036699295
4.576297283172607 8.001980781555176 0.10371601581573486
4.551921844482422 7.997827529907227 0.10384812951087952
4.533585548400879 8.005342483520508 0.10382421314716339
4.510711669921875 8.003641128540039 0.10342633724212646
4.486157417297363 7.999439716339111 0.10299132019281387
4.464615821838379 8.000435829162598 0.10287076979875565
4.44755744934082 8.008880615234375 0.10256084054708481
4.42342472076416 8.005668640136719 0.10237209498882294
4.400969505310059 8.004223823547363 0.10200941562652588
4.380282402038574 8.005904197692871 0.10188546776771545
4.354019641876221 7.998435020446777 0.10138446092605591
4.336681365966797 8.006104469299316 0.10139735788106918
4.310359954833984 7.997093200683594 0.10085520148277283
5.879856109619141 -10.12170124053955 0.15408796072006226
5.9138641357421875 -10.131011962890625 0.15466338396072388
5.944861888885498 -10.13574504852295 0.15499725937843323
5.965293884277344 -10.120973587036133 0.15564653277397156
5.996044158935547 -10.125055313110352 0.1558550000190735
6.028446197509766 -10.131107330322266 0.15650597214698792
6.052645206451416 -10.123149871826172 0.15697363018989563
6.077727317810059 -10.117372512817383 0.1570061445236206
6.103940486907959 -10.112009048461914 0.15754902362823486
6.13558292388916 -10.11691665649414 0.1577860414981842
6.162288665771484 -10.11355972290039 0.15821102261543274
6.1912736892700195 -10.112447738647461 0.15840017795562744
6.219173431396484 -10.110841751098633 0.15897561609745026
6.244152545928955 -10.103767395019531 0.15904971957206726
6.267437934875488 -10.093802452087402 0.15942730009555817
6.293747425079346 -10.089393615722656 0.1592007428407669
6.329541206359863 -10.099405288696289 0.15999165177345276
6.3596673011779785 -10.100095748901367 0.16014578938484192
6.384792327880859 -10.093482971191406 0.16064772009849548
6.4143524169921875 -10.092427253723145 0.16078419983386993
6.445922374725342 -10.095758438110352 0.1614212542772293
6.469456672668457 -10.085787773132324 0.1614229381084442
6.502685546875 -10.090719223022461 0.16209134459495544
6.529733657836914 -10.086660385131836 0.16224834322929382
6.561558723449707 -10.089238166809082 0.16289418935775757
6.58969783782959 -10.085920333862305 0.16300764679908752
6.615636825561523 -10.079877853393555 0.16351956129074097
6.676473617553711 -10.079774856567383 0.16469819843769073
6.7022504806518555 -10.073221206665039 0.16479633748531342
6.732799530029297 -10.07241439819336 0.16534888744354248
6.760211944580078 -10.068138122558594 0.16549517214298248
6.819672584533691 -10.06484603881836 0.16622433066368103
6.885069370269775 -10.06977653503418 0.16712670028209686
6.911612033843994 -10.063709259033203 0.16761432588100433
6.970162391662598 -10.057930946350098 0.16841153800487518
7.00083065032959 -10.057538986206055 0.16824758052825928
7.055022239685059 -10.044906616210938 0.1689377725124359
7.089460849761963 -10.049535751342773 0.16958336532115936
7.117622375488281 -10.044535636901855 0.169731006026268
7.145378112792969 -10.038776397705078 0.17027683556079865
7.178308486938477 -10.040871620178223 0.17055237293243408
7.203348159790039 -10.030534744262695 0.17095783352851868
7.233287811279297 -10.028236389160156 0.1711740791797638
7.265969276428223 -10.02901840209961 0.1718103587627411
7.2931599617004395 -10.022012710571289 0.17195746302604675
7.329465389251709 -10.028095245361328 0.17260728776454926
7.359991073608398 -10.025529861450195 0.17286062240600586
7.388361930847168 -10.01982593536377 0.1734246462583542
7.420276641845703 -10.019512176513672 0.17360720038414001
7.455811023712158 -10.023344039916992 0.17434343695640564
7.478422164916992 -10.009607315063477 0.17436696588993073
7.510993957519531 -10.009815216064453 0.17509806156158447
7.5429840087890625 -10.007842063903809 0.17520242929458618
7.5785980224609375 -10.011800765991211 0.17596277594566345
7.606327056884766 -10.005218505859375 0.1761137992143631
7.6402268409729 -10.00537395477295 0.17636997997760773
7.6738972663879395 -10.006349563598633 0.17700615525245667
7.707524299621582 -10.005861282348633 0.17735257744789124
7.728987693786621 -9.99077033996582 0.1773567646741867
7.765028953552246 -9.99443531036377 0.17808130383491516
7.79854679107666 -9.993437767028809 0.17832671105861664
7.835131645202637 -9.997474670410156 0.17904755473136902
7.8652849197387695 -9.99258804321289 0.17929425835609436
7.8930253982543945 -9.984451293945312 0.1798008233308792
7.91914176940918 -9.974870681762695 0.17988958954811096
7.959127426147461 -9.982049942016602 0.18027326464653015
7.99583625793457 -9.984831809997559 0.18101400136947632
8.024847030639648 -9.978548049926758 0.18114903569221497
8.05105209350586 -9.96745777130127 0.18165913224220276
8.09543514251709 -9.979965209960938 0.18220551311969757
8.129716873168945 -9.979825973510742 0.18286174535751343
8.157440185546875 -9.970287322998047 0.18258091807365417
8.196521759033203 -9.975740432739258 0.1833254098892212
8.219457626342773 -9.96143913269043 0.18345700204372406
8.264418601989746 -9.972455978393555 0.1843516230583191
8.292560577392578 -9.964254379272461 0.18494166433811188
8.363069534301758 -9.963336944580078 0.18594449758529663
8.384699821472168 -9.947114944458008 0.18589776754379272
8.421416282653809 -9.94747257232666 0.18661954998970032
8.458213806152344 -9.948997497558594 0.18704643845558167
8.492652893066406 -9.947601318359375 0.1877080202102661
8.526421546936035 -9.944058418273926 0.18789511919021606
8.55224323272705 -9.932388305664062 0.18812233209609985
8.630796432495117 -9.93865966796875 0.18923254311084747
8.660533905029297 -9.931197166442871 0.18973687291145325
8.69249153137207 -9.924962997436523 0.19008222222328186
8.73757266998291 -9.934762954711914 0.19092130661010742
8.764047622680664 -9.923264503479004 0.19111043214797974
8.796886444091797 -9.917665481567383 0.19132229685783386
8.837167739868164 -9.921527862548828 0.19216637313365936
8.873376846313477 -9.920652389526367 0.1924363076686859
8.906505584716797 -9.914985656738281 0.1931064873933792
8.935128211975098 -9.90542221069336 0.19321592152118683
8.979389190673828 -9.911833763122559 0.19334152340888977
9.008350372314453 -9.902425765991211 0.1938343346118927
9.047386169433594 -9.903968811035156 0.1943279504776001
9.080533981323242 -9.897710800170898 0.19493183493614197
9.124021530151367 -9.903775215148926 0.1954176127910614
9.14882755279541 -9.88943862915039 0.1958562433719635
9.189071655273438 -9.890472412109375 0.19629663228988647
9.225613594055176 -9.888571739196777 0.19664186239242554
9.263071060180664 -9.887504577636719 0.1973201036453247
9.29519271850586 -9.87940788269043 0.19758263230323792
9.335441589355469 -9.881019592285156 0.19842004776000977
9.364748001098633 -9.869717597961426 0.19859574735164642
9.412203788757324 -9.878595352172852 0.1995798796415329
9.43593978881836 -9.862443923950195 0.19960837066173553
9.485956192016602 -9.872414588928223 0.20065239071846008
9.514029502868652 -9.860591888427734 0.20073524117469788
9.55942153930664 -9.86592960357666 0.2013252079486847
9.589105606079102 -9.855003356933594 0.20183542370796204
9.632893562316895 -9.858987808227539 0.20239010453224182
9.661832809448242 -9.846992492675781 0.20288029313087463
9.703402519226074 -9.84783935546875 0.2033560872077942
9.731412887573242 -9.835358619689941 0.20351068675518036
9.817659378051758 -9.839299201965332 0.20441551506519318
9.853480339050293 -9.834298133850098 0.2051311582326889
9.895169258117676 -9.83380126953125 0.20559634268283844
9.936346054077148 -9.833820343017578 0.2059849053621292
9.981146812438965 -9.83659553527832 0.2068846970796585
10.010174751281738 -9.823785781860352 0.20706698298454285
10.054956436157227 -9.82685375213623 0.20756441354751587
10.090071678161621 -9.81911849975586 0.20821702480316162
10.126620292663574 -9.813852310180664 0.20855271816253662
10.167121887207031 -9.812271118164062 0.20946064591407776
10.200578689575195 -9.802558898925781 0.20962309837341309
10.242300033569336 -9.801849365234375 0.21009260416030884
10.282045364379883 -9.799087524414062 0.2108531892299652
10.324854850769043 -9.797883987426758 0.21174435317516327
10.36101245880127 -9.791413307189941 0.21199721097946167
10.438104629516602 -9.781379699707031 0.21312537789344788
10.485815048217773 -9.785297393798828 0.21378377079963684
10.561891555786133 -9.77340030670166 0.2148389369249344
10.64424991607666 -9.766721725463867 0.21614615619182587
10.693345069885254 -9.770973205566406 0.21665294468402863
10.77060604095459 -9.758657455444336 0.21736814081668854
10.817283630371094 -9.760150909423828 0.21782530844211578
10.901178359985352 -9.752876281738281 0.2191014587879181
10.94913101196289 -9.754945755004883 0.2196929156780243
10.98369026184082 -9.744278907775879 0.22041937708854675
11.025716781616211 -9.740196228027344 0.22074809670448303
11.071310043334961 -9.738998413085938 0.22180184721946716
11.105903625488281 -9.728070259094238 0.22198781371116638
11.154712677001953 -9.729988098144531 0.22260382771492004
11.195100784301758 -9.723737716674805 0.22339728474617004
11.233623504638672 -9.715819358825684 0.22381623089313507
11.28714656829834 -9.721240043640137 0.22483962774276733
11.322938919067383 -9.710565567016602 0.22558867931365967
11.368425369262695 -9.708152770996094 0.22609452903270721
11.411873817443848 -9.704375267028809 0.22657853364944458
11.463373184204102 -9.706048965454102 0.22752542793750763
11.496618270874023 -9.693307876586914 0.22781836986541748
11.546600341796875 -9.693878173828125 0.22843928635120392
11.591978073120117 -9.690481185913086 0.22937631607055664
11.626638412475586 -9.678539276123047 0.22960057854652405
11.675088882446289 -9.677274703979492 0.23016655445098877
11.72543716430664 -9.677474021911621 0.23128503561019897
11.760807037353516 -9.665057182312012 0.23147998750209808
11.814895629882812 -9.668499946594238 0.23257213830947876
11.866756439208984 -9.669336318969727 0.23322781920433044
11.905427932739258 -9.659158706665039 0.23358473181724548
11.958659172058105 -9.660707473754883 0.23462168872356415
12.00489616394043 -9.656957626342773 0.23514871299266815
12.056146621704102 -9.656393051147461 0.23577797412872314
12.103815078735352 -9.652854919433594 0.23668646812438965
12.1414213180542 -9.641693115234375 0.23709969222545624
12.198617935180664 -9.64525032043457 0.23781491816043854
12.240680694580078 -9.636735916137695 0.23872406780719757
12.331844329833984 -9.625219345092773 0.2396773099899292
12.387809753417969 -9.627039909362793 0.24125275015830994
12.475257873535156 -9.611003875732422 0.24253252148628235
12.522245407104492 -9.60586166381836 0.2431248277425766
12.631134033203125 -9.605164527893066 0.2448599487543106
12.673938751220703 -9.596268653869629 0.24526876211166382
12.771089553833008 -9.585477828979492 0.24680955708026886
12.871255874633789 -9.576181411743164 0.24746930599212646
12.927509307861328 -9.576423645019531 0.24871188402175903
13.015291213989258 -9.5568208694458 0.25060760974884033
13.182707786560059 -9.552778244018555 0.2525525689125061
13.229007720947266 -9.543861389160156 0.2541996240615845
13.33352279663086 -9.534805297851562 0.25488781929016113
13.384267807006836 -9.528511047363281 0.2553305923938751
13.436186790466309 -9.522953987121582 0.25651270151138306
13.49722671508789 -9.524198532104492 0.2572764754295349
13.555780410766602 -9.522773742675781 0.2580033540725708
13.600006103515625 -9.511183738708496 0.2594253420829773
13.65321159362793 -9.505595207214355 0.2600327432155609
13.756394386291504 -9.492337226867676 0.26179587841033936
13.81245231628418 -9.48809814453125 0.2624208629131317
13.866791725158691 -9.483131408691406 0.2630438804626465
13.92081069946289 -9.477161407470703 0.2640434503555298
13.974161148071289 -9.470430374145508 0.26482105255126953
14.028453826904297 -9.464227676391602 0.26546087861061096
14.151874542236328 -9.461587905883789 0.2674749195575714
14.207581520080566 -9.45565414428711 0.26824110746383667
14.262313842773438 -9.448755264282227 0.26988300681114197
14.379085540771484 -9.439901351928711 0.27135735750198364
14.437498092651367 -9.434755325317383 0.27206993103027344
14.498635292053223 -9.43125057220459 0.27325764298439026
14.54878044128418 -9.420280456542969 0.2739619016647339
14.611711502075195 -9.418050765991211 0.2746672034263611
14.663261413574219 -9.407682418823242 0.27581483125686646
14.731329917907715 -9.407575607299805 0.27671879529953003
14.791847229003906 -9.403063774108887 0.2774192988872528
14.84444808959961 -9.392720222473145 0.27806147933006287
14.907873153686523 -9.388900756835938 0.27941954135894775
14.966094970703125 -9.381662368774414 0.28064319491386414
15.025917053222656 -9.375783920288086 0.2813880741596222
15.078721046447754 -9.364625930786133 0.28198474645614624
15.144671440124512 -9.361501693725586 0.2833726704120636
15.272178649902344 -9.35224723815918 0.28443413972854614
15.320738792419434 -9.337732315063477 0.28497734665870667
15.450668334960938 -9.328502655029297 0.287049800157547
15.515901565551758 -9.323413848876953 0.28802743554115295
15.64626693725586 -9.312885284423828 0.2901380956172943
15.71401309967041 -9.308504104614258 0.2922559380531311
15.838191032409668 -9.292179107666016 0.2932250499725342
16.03569221496582 -9.273038864135742 0.29629001021385193
16.185087203979492 -9.268694877624512 0.2989044487476349
16.23766326904297 -9.253400802612305 0.2994256317615509
16.381103515625 -9.244682312011719 0.30136698484420776
16.455259323120117 -9.24084758758545 0.3029804229736328
16.58584976196289 -9.223236083984375 0.3046315908432007
16.794677734375 -9.201611518859863 0.30795523524284363
16.880334854125977 -9.202327728271484 0.309150755405426
16.935550689697266 -9.186275482177734 0.3103068470954895
17.00429916381836 -9.177225112915039 0.31128987669944763
17.082727432250977 -9.173826217651367 0.312244176864624
17.159791946411133 -9.168764114379883 0.3134026825428009
17.22806167602539 -9.158607482910156 0.3149297833442688
17.302215576171875 -9.15202522277832 0.31581711769104004
17.377883911132812 -9.14532470703125 0.31756478548049927
17.448379516601562 -9.135504722595215 0.31842026114463806
17.527969360351562 -9.130882263183594 0.31950944662094116
17.606216430664062 -9.124613761901855 0.3211735188961029
17.685626983642578 -9.118522644042969 0.3223504424095154
17.767017364501953 -9.113235473632812 0.32277825474739075
17.83160400390625 -9.098934173583984 0.3242185115814209
17.921100616455078 -9.097777366638184 0.32545945048332214
17.996536254882812 -9.088516235351562 0.32645702362060547
18.078426361083984 -9.082091331481934 0.3275882601737976
18.15203857421875 -9.071308135986328 0.3285221457481384
18.226348876953125 -9.060474395751953 0.32955193519592285
18.322154998779297 -9.060731887817383 0.3309183418750763
18.393312454223633 -9.047822952270508 0.3324911594390869
18.474159240722656 -9.03927230834961 0.333609402179718
18.55319595336914 -9.030274391174316 0.33479464054107666
18.63689422607422 -9.022577285766602 0.3358875513076782
18.71607208251953 -9.012253761291504 0.3368854820728302
18.804515838623047 -9.006820678710938 0.3388304114341736
18.87171173095703 -8.990253448486328 0.33971986174583435
18.958621978759766 -8.982669830322266 0.340913325548172
19.047809600830078 -8.97591781616211 0.34211814403533936
19.30603790283203 -8.949718475341797 0.34634968638420105
19.56276512145996 -8.919748306274414 0.35058632493019104
19.822261810302734 -8.88797378540039 0.35413429141044617
20.01495361328125 -8.873326301574707 0.3569060266017914
20.283100128173828 -8.84005355834961 0.3600378632545471
20.565078735351562 -8.808721542358398 0.36463987827301025
20.747570037841797 -8.784473419189453 0.3671652674674988
20.84408187866211 -8.773563385009766 0.36859598755836487
20.932575225830078 -8.759719848632812 0.3698902130126953
21.036514282226562 -8.751266479492188 0.37145695090293884
21.138315200805664 -8.741388320922852 0.3735528588294983
21.34083366394043 -8.720893859863281 0.3765219449996948
21.430150985717773 -8.704717636108398 0.37776461243629456
21.53072738647461 -8.69285774230957 0.3783632516860962
21.635971069335938 -8.682348251342773 0.37991684675216675
21.734336853027344 -8.669498443603516 0.3820297122001648
21.838802337646484 -8.657971382141113 0.3836233615875244
21.941207885742188 -8.645089149475098 0.3848912715911865
22.045392990112305 -8.633332252502441 0.3865203559398651
22.145648956298828 -8.618915557861328 0.38784894347190857
22.241836547851562 -8.60240364074707 0.389313668012619
22.35493278503418 -8.592857360839844 0.3915144205093384
22.45901870727539 -8.578693389892578 0.39305901527404785
22.573055267333984 -8.567766189575195 0.39484256505966187
22.683094024658203 -8.55499267578125 0.3958050310611725
22.741147994995117 -8.522171974182129 0.39673587679862976
22.79342269897461 -8.487862586975098 0.39789167046546936
22.85057830810547 -8.454459190368652 0.3989741802215576
22.900047302246094 -8.417926788330078 0.3998521864414215
22.95487403869629 -8.384050369262695 0.4015747606754303
23.034996032714844 -8.357587814331055 0.40236949920654297
23.09185791015625 -8.3240327835083 0.40342235565185547
23.138992309570312 -8.286059379577637 0.4044163227081299
23.246583938598633 -8.215051651000977 0.40671291947364807
23.31203842163086 -8.183050155639648 0.4079362452030182
23.408519744873047 -8.107109069824219 0.4090794026851654
23.468021392822266 -8.072452545166016 0.4103945195674896
23.58922004699707 -8.003973007202148 0.4127275347709656
23.793588638305664 -7.906095027923584 0.4165330231189728
24.035140991210938 -7.81892204284668 0.421803742647171
24.225540161132812 -7.712788105010986 0.42476630210876465
24.37104034423828 -7.646222114562988 0.42758530378341675
24.4394588470459 -7.611181735992432 0.42899227142333984
24.57329559326172 -7.54032039642334 0.43162843585014343
24.64371109008789 -7.505176544189453 0.43299299478530884
24.861045837402344 -7.400906562805176 0.43749281764030457
24.984609603881836 -7.323291778564453 0.4401979148387909
25.06871223449707 -7.291487693786621 0.4410981237888336
25.130327224731445 -7.252048492431641 0.4424658417701721
25.2020320892334 -7.215293884277344 0.4439244866371155
25.283248901367188 -7.181812286376953 0.4454706013202667
25.34439468383789 -7.141534805297852 0.44681715965270996
25.42062759399414 -7.105282306671143 0.448520302772522
25.492191314697266 -7.068285942077637 0.44999396800994873
25.567171096801758 -7.030296325683594 0.45157164335250854
25.639930725097656 -6.993107318878174 0.45314252376556396
25.7156982421875 -6.955609321594238 0.4548228085041046
25.783353805541992 -6.915699005126953 0.4562225341796875
25.86578369140625 -6.88030481338501 0.4579935073852539
25.95374298095703 -6.8451924324035645 0.4589574635028839
26.024578094482422 -6.805324554443359 0.46063554286956787
26.107017517089844 -6.7690324783325195 0.4622707962989807
26.1824951171875 -6.729764938354492 0.4639531373977661
26.25888442993164 -6.690519332885742 0.46561136841773987
26.33313751220703 -6.650384902954102 0.46726900339126587
26.416015625 -6.6122145652771 0.4689537286758423
22.812271118164062 -5.659766674041748 0.3759337067604065
22.215335845947266 -5.462109088897705 0.3701861500740051
22.2083740234375 -5.410772323608398 0.3706102669239044
22.191654205322266 -5.357937335968018 0.37012147903442383
22.19192123413086 -5.308631896972656 0.37006714940071106
22.191913604736328 -5.259193420410156 0.36828744411468506
22.374515533447266 -5.1541314125061035 0.3714127540588379
22.453853607177734 -5.122694492340088 0.3719004988670349
26.784337997436523 -5.993053436279297 0.48385122418403625
27.086864471435547 -6.000790596008301 0.4877917766571045
22.924240112304688 -4.826713562011719 0.3726913034915924
22.302875518798828 -4.549651622772217 0.36677730083465576
22.32276725769043 -4.407719612121582 0.3667696416378021
22.511371612548828 -4.346540451049805 0.3696613907814026
22.242233276367188 -4.245967864990234 0.3680776357650757
22.537879943847656 -4.2048659324646 0.3716987371444702
22.019824981689453 -3.965130090713501 0.35884344577789307
21.998056411743164 -3.9133481979370117 0.3586011230945587
21.98631477355957 -3.8635716438293457 0.3582213222980499
21.993955612182617 -3.8171327114105225 0.3582625985145569
21.982349395751953 -3.768144130706787 0.3579826354980469
21.971660614013672 -3.7187588214874268 0.35767096281051636
21.978981018066406 -3.672351837158203 0.35833749175071716
22.228851318359375 -3.618692398071289 0.3628042936325073
22.947162628173828 -3.6859748363494873 0.3706488609313965
23.338603973388672 -3.6992011070251465 0.38082391023635864
23.385009765625 -3.6561496257781982 0.3817024230957031
23.42977523803711 -3.6125693321228027 0.38272419571876526
23.500160217285156 -3.57283091545105 0.3835552930831909
23.588314056396484 -3.5353822708129883 0.38561156392097473
28.51605224609375 -4.213622093200684 0.5109624862670898
28.413028717041016 -4.137176990509033 0.5083969831466675
28.426654815673828 -4.078155517578125 0.5085904002189636
23.994003295898438 -3.3398289680480957 0.395981103181839
23.986278533935547 -3.287248134613037 0.3957252502441406
23.99935531616211 -3.2376039028167725 0.39575642347335815
23.991146087646484 -3.1850390434265137 0.39548513293266296
24.027055740356445 -3.139082431793213 0.3956487476825714
24.180980682373047 -3.1074516773223877 0.3993769884109497
24.18899154663086 -3.056692600250244 0.3997584283351898
28.42210578918457 -3.5318470001220703 0.5069442391395569
28.429054260253906 -3.4718337059020996 0.5069710612297058
28.429500579833984 -3.4112517833709717 0.506952702999115
28.440702438354492 -3.3517556190490723 0.5073229670524597
28.428878784179688 -3.2300169467926025 0.5066621899604797
28.448102951049805 -3.171433925628662 0.5070602893829346
28.431007385253906 -2.9886956214904785 0.5074413418769836
28.456207275390625 -2.810591220855713 0.5067946314811707
28.456693649291992 -2.6896767616271973 0.5068298578262329
28.38326644897461 -2.502812385559082 0.5051161050796509
28.344375610351562 -2.31990385055542 0.5048972368240356
28.34497833251953 -2.199821710586548 0.5046136379241943
28.349334716796875 -2.1402196884155273 0.5047627091407776
28.328527450561523 -2.079536199569702 0.5044344067573547
28.322158813476562 -2.019012689590454 0.5041686296463013
28.298114776611328 -1.9575221538543701 0.5036206841468811
28.30496597290039 -1.8989850282669067 0.5029405951499939
28.29294776916504 -1.8382370471954346 0.5025799870491028
28.298234939575195 -1.7788538932800293 0.5025749802589417
28.267417907714844 -1.7170615196228027 0.501958966255188
28.27484703063965 -1.6578668355941772 0.5030288696289062
28.278610229492188 -1.5992088317871094 0.5029935836791992
28.289264678955078 -1.539954423904419 0.5033054351806641
28.283199310302734 -1.4800032377243042 0.5031414031982422
28.26439094543457 -1.4202101230621338 0.5025802254676819
28.25959014892578 -1.3602139949798584 0.5016139149665833
28.25876235961914 -1.300642490386963 0.5016570091247559
28.269882202148438 -1.2423701286315918 0.5018776655197144
28.24988555908203 -1.1817905902862549 0.501357913017273
28.229969024658203 -1.121518611907959 0.5008054971694946
28.230087280273438 -1.0618854761123657 0.5000778436660767
28.22325325012207 -1.0022234916687012 0.49991822242736816
28.202573776245117 -0.9428937435150146 0.49951672554016113
28.205408096313477 -0.8834292888641357 0.5011293888092041
28.174190521240234 -0.8231751322746277 0.5005805492401123
28.16895294189453 -0.7645198702812195 0.5005409717559814
28.177753448486328 -0.7052789926528931 0.5007953643798828
28.158504486083984 -0.6455749273300171 0.5004552006721497
28.16602897644043 -0.5863038897514343 0.5000239610671997
28.17241668701172 -0.5271964073181152 0.49995362758636475
28.13714599609375 -0.4681287407875061 0.49950921535491943
28.14240264892578 -0.40883558988571167 0.49953311681747437
28.122007369995117 -0.29105138778686523 0.49910542368888855
28.088808059692383 -0.23144987225532532 0.49970340728759766
28.057178497314453 -0.11302392184734344 0.4991985559463501
26.35266876220703 0.009650636464357376 0.4123273491859436
26.305744171142578 0.12041899561882019 0.4115504026412964
26.28622817993164 0.17488044500350952 0.41052332520484924
26.2774658203125 0.2300560176372528 0.41033169627189636
26.23877716064453 0.33953437209129333 0.40891581773757935
26.23638916015625 0.39556148648262024 0.41104263067245483
26.245037078857422 0.4501696228981018 0.411240816116333
26.265487670898438 0.5057424306869507 0.41187289357185364
26.30003547668457 0.56191486120224 0.41235023736953735
26.13882827758789 0.8873761892318726 0.40774938464164734
26.083179473876953 0.9403777718544006 0.40669429302215576
26.078113555908203 0.9952839612960815 0.40754395723342896
26.06066131591797 1.0487818717956543 0.4074345529079437
26.052541732788086 1.1042044162750244 0.4073633849620819
26.022911071777344 1.1570531129837036 0.40684860944747925
26.01174545288086 1.2106478214263916 0.40674686431884766
25.997241973876953 1.319717526435852 0.40583696961402893
25.964786529541016 1.4277245998382568 0.4047328531742096
25.960033416748047 1.5371487140655518 0.4048837721347809
25.941843032836914 1.5901014804840088 0.40453964471817017
25.944564819335938 1.644317388534546 0.4045983552932739
25.94247055053711 1.6998339891433716 0.405989408493042
25.92349624633789 1.752625584602356 0.4057277739048004
25.916404724121094 1.8061813116073608 0.40406954288482666
25.906246185302734 1.8610920906066895 0.40393415093421936
25.899904251098633 1.9146692752838135 0.4037669897079468
25.878450393676758 1.9686765670776367 0.40346401929855347
25.86165428161621 2.02138614654541 0.40328899025917053
25.855541229248047 2.0749001502990723 0.403148353099823
25.841447830200195 2.1293375492095947 0.4029351472854614
25.840900421142578 2.183290958404541 0.40211066603660583
25.82525062561035 2.2375411987304688 0.40189212560653687
25.809057235717773 2.2901089191436768 0.4024953842163086
25.801979064941406 2.343456268310547 0.4015468955039978
25.795534133911133 2.398441791534424 0.40082672238349915
25.769603729248047 2.4499807357788086 0.4004456698894501
25.76700210571289 2.5036988258361816 0.4004952907562256
25.75767707824707 2.5583481788635254 0.4004182517528534
25.730022430419922 2.60953426361084 0.40011802315711975
25.739206314086914 2.664440631866455 0.40035054087638855
25.719083786010742 2.717900276184082 0.3992461562156677
25.715045928955078 2.7714452743530273 0.399286687374115
25.68755340576172 2.824007034301758 0.3987966477870941
25.648527145385742 2.983023166656494 0.3984478712081909
25.648027420043945 3.0369226932525635 0.3975598216056824
25.644725799560547 3.146101951599121 0.39715778827667236
25.6146240234375 3.196378231048584 0.3966919779777527
25.61902618408203 3.251826286315918 0.3968917727470398
25.589542388916016 3.302753210067749 0.3965894281864166
25.592178344726562 3.3571014404296875 0.3957083523273468
25.57586097717285 3.410552740097046 0.39551931619644165
25.580421447753906 3.4652047157287598 0.39580225944519043
25.568424224853516 3.518519878387451 0.3956639766693115
25.545753479003906 3.570129871368408 0.3946763277053833
25.547924041748047 3.6245012283325195 0.39420071244239807
25.516494750976562 3.674968719482422 0.3938417136669159
25.50110626220703 3.727482795715332 0.39377689361572266
25.462738037109375 3.775859832763672 0.39329588413238525
25.46990966796875 3.832547187805176 0.3935220241546631
