VERSION .7
FIELDS x y z
SIZE 4 4 4
TYPE F F F
COUNT 1 1 1
WIDTH 855
HEIGHT 1
VIEWPOINT 0 0 0 1 0 0 0
POINTS 855
DATA ascii
4.971271514892578 7.120492935180664 0.20776914060115814
4.9486799240112305 7.119565963745117 0.20728376507759094
4.9171648025512695 7.105644226074219 0.20620954036712646
4.892910003662109 7.102972984313965 0.20530031621456146
4.8760857582092285 7.110088348388672 0.2046874761581421
4.846914291381836 7.09909200668335 0.20355580747127533
4.8242058753967285 7.098346710205078 0.20271503925323486
4.796454906463623 7.089114189147949 0.20201465487480164
4.756489276885986 7.094234466552734 0.2006944864988327
4.736626148223877 7.096404075622559 0.1999593824148178
4.693068981170654 7.095682144165039 0.19870951771736145
4.667219161987305 7.08852481842041 0.1977156400680542
4.646942138671875 7.09066104888916 0.19698122143745422
4.615585803985596 7.074795246124268 0.19576102495193481
4.610759735107422 7.099547386169434 0.195810928940773
4.581836700439453 7.088116645812988 0.19470882415771484
4.5654706954956055 7.095048427581787 0.19537150859832764
4.536487579345703 7.0822625160217285 0.19424614310264587
4.5183024406433105 7.087161064147949 0.19360238313674927
4.496915340423584 7.086010932922363 0.19295012950897217
4.471879482269287 7.078989028930664 0.1919952630996704
4.450081825256348 7.077924728393555 0.1915593147277832
4.434383392333984 7.085546016693115 0.19100502133369446
4.388123035430908 7.077735900878906 0.189278706908226
4.363061428070068 7.070032596588135 0.1883208453655243
4.319530963897705 7.065906524658203 0.1872211992740631
4.304791450500488 7.074745178222656 0.18671253323554993
4.278310298919678 7.0651679039001465 0.18571195006370544
4.258906364440918 7.066178321838379 0.1849999725818634
4.237745761871338 7.064186096191406 0.18421722948551178
4.215426921844482 7.061130523681641 0.18339981138706207
4.19019889831543 7.052082061767578 0.1824384331703186
4.176308631896973 7.062034606933594 0.182326078414917
4.155052185058594 7.0604729652404785 0.1816990077495575
4.129878044128418 7.051130294799805 0.18073880672454834
4.116480350494385 7.061819076538086 0.18029353022575378
4.100224494934082 7.068594932556152 0.1797439455986023
4.064783573150635 7.041121006011963 0.17833666503429413
4.049691200256348 7.049715995788574 0.1786838322877884
4.027536869049072 7.044958114624023 0.1778574138879776
4.0151143074035645 7.057178497314453 0.1774602085351944
3.990097999572754 7.048195838928223 0.17652440071105957
3.972296714782715 7.050840854644775 0.17588922381401062
3.945103168487549 7.036678314208984 0.17483948171138763
3.9336471557617188 7.051515579223633 0.17499762773513794
3.9094772338867188 7.0425004959106445 0.17407992482185364
3.889608144760132 7.041396141052246 0.17336112260818481
3.8688440322875977 7.038998126983643 0.17260821163654327
3.8491616249084473 7.037747859954834 0.17189131677150726
3.8276474475860596 7.033336639404297 0.17109882831573486
3.8056936264038086 7.028419494628906 0.17029651999473572
3.791996955871582 7.037965774536133 0.16984577476978302
6.649289608001709 -11.662763595581055 0.29948025941848755
6.67905330657959 -11.658673286437988 0.3003140687942505
6.741511344909668 -11.653636932373047 0.3019716441631317
6.780122756958008 -11.664466857910156 0.3034402132034302
6.8774189949035645 -11.662483215332031 0.3067508935928345
7.365065574645996 -11.635751724243164 0.32232844829559326
7.460623741149902 -11.62436294555664 0.3258366882801056
7.532617568969727 -11.628508567810059 0.32768478989601135
7.561061859130859 -11.619504928588867 0.3287194073200226
7.63059139251709 -11.619022369384766 0.3313094973564148
7.698402404785156 -11.615367889404297 0.332977831363678
7.731701850891113 -11.613204956054688 0.33422768115997314
7.7685136795043945 -11.616167068481445 0.33562952280044556
7.799975395202637 -11.609464645385742 0.3359166383743286
7.841501235961914 -11.619110107421875 0.3375221788883209
7.8651018142700195 -11.60208511352539 0.3383561372756958
7.911787986755371 -11.617441177368164 0.34015512466430664
7.935477256774902 -11.600409507751465 0.3409961462020874
7.974886894226074 -11.60626220703125 0.3416536748409271
8.005614280700684 -11.597822189331055 0.34276849031448364
8.043219566345215 -11.60073471069336 0.3442092835903168
8.078664779663086 -11.599940299987793 0.3461652100086212
8.110143661499023 -11.592687606811523 0.347324937582016
8.1472749710083 -11.594463348388672 0.3481326103210449
8.1847562789917 -11.595069885253906 0.3495418429374695
8.210725784301758 -11.580774307250977 0.350241094827652
8.253883361816406 -11.590591430664062 0.3519247770309448
8.287298202514648 -11.58505630493164 0.35254400968551636
8.326683044433594 -11.589215278625488 0.3540668785572052
8.388945579528809 -11.572709083557129 0.3561326265335083
8.498319625854492 -11.569826126098633 0.3594352900981903
8.539485931396484 -11.575447082519531 0.36103910207748413
8.605057716369629 -11.56208610534668 0.3628818392753601
8.637994766235352 -11.556194305419922 0.36388611793518066
8.71329402923584 -11.555132865905762 0.3661434054374695
8.763256072998047 -11.570938110351562 0.368111252784729
8.82966423034668 -11.557589530944824 0.3703819811344147
9.274874687194824 -11.527138710021973 0.38618865609169006
9.388971328735352 -11.518884658813477 0.389972448348999
9.510746002197266 -11.519643783569336 0.3938398063182831
9.621768951416016 -11.506014823913574 0.3972656726837158
9.667936325073242 -11.512591361999512 0.39910295605659485
9.700567245483398 -11.50146770477295 0.40008875727653503
9.746005058288574 -11.506803512573242 0.40189915895462036
9.785128593444824 -11.504502296447754 0.40279218554496765
9.819381713867188 -11.494928359985352 0.40384769439697266
9.863481521606445 -11.498149871826172 0.40653055906295776
9.89699935913086 -11.4888916015625 0.40758761763572693
9.937013626098633 -11.485633850097656 0.4091518223285675
9.980536460876465 -11.487671852111816 0.4102294445037842
10.022076606750488 -11.48684310913086 0.4116104245185852
10.063850402832031 -11.485508918762207 0.41325777769088745
10.101102828979492 -11.479872703552246 0.41474318504333496
10.144596099853516 -11.479761123657227 0.41552266478538513
10.18443489074707 -11.476757049560547 0.41711437702178955
10.232314109802246 -11.482624053955078 0.419037789106369
10.264863967895508 -11.469727516174316 0.41936641931533813
10.312342643737793 -11.474772453308105 0.42127394676208496
10.352996826171875 -11.472034454345703 0.4229077994823456
10.4015474319458 -11.476446151733398 0.4238886833190918
10.433021545410156 -11.463275909423828 0.42514768242836
10.48375129699707 -11.47070026397705 0.4271830916404724
10.52628231048584 -11.46834659576416 0.4286057949066162
10.562800407409668 -11.460302352905273 0.42939481139183044
10.599489212036133 -11.450925827026367 0.43084487318992615
10.638744354248047 -11.445594787597656 0.4321517050266266
10.688100814819336 -11.450950622558594 0.43346714973449707
10.722249984741211 -11.438453674316406 0.43481767177581787
10.89862060546875 -11.433477401733398 0.4409711956977844
11.015340805053711 -11.411415100097656 0.44471830129623413
11.152741432189941 -11.409334182739258 0.4493125081062317
11.556475639343262 -11.383309364318848 0.4624769687652588
11.696062088012695 -11.376822471618652 0.467185378074646
11.783018112182617 -11.365225791931152 0.4697427749633789
11.832655906677246 -11.365798950195312 0.47178250551223755
11.917207717895508 -11.350907325744629 0.47353166341781616
11.979698181152344 -11.36310863494873 0.4760863482952118
12.055788040161133 -11.339212417602539 0.4782181978225708
12.107958793640137 -11.341018676757812 0.4803682863712311
12.200729370117188 -11.331830024719238 0.4831671118736267
12.304997444152832 -11.33252239227295 0.48642492294311523
12.353494644165039 -11.3298978805542 0.4884353578090668
12.388428688049316 -11.31469440460205 0.48991134762763977
12.449213027954102 -11.321527481079102 0.491356760263443
12.502026557922363 -11.322243690490723 0.49354493618011475
12.533535957336426 -11.302538871765137 0.49457696080207825
12.584695816040039 -11.301011085510254 0.49595731496810913
12.646000862121582 -11.308744430541992 0.4984854459762573
12.699592590332031 -11.307938575744629 0.4996439218521118
12.734742164611816 -11.291943550109863 0.5011425018310547
12.783374786376953 -11.287768363952637 0.5028758645057678
12.847726821899414 -11.295838356018066 0.5047581195831299
12.893060684204102 -11.288345336914062 0.5066639184951782
12.982744216918945 -11.270631790161133 0.5093685984611511
13.049549102783203 -11.281222343444824 0.5118210315704346
13.148868560791016 -11.270673751831055 0.5134000182151794
13.188779830932617 -11.257489204406738 0.5151053071022034
13.295736312866211 -11.252340316772461 0.518491268157959
13.459836959838867 -11.246764183044434 0.5242674946784973
13.615179061889648 -11.23196792602539 0.5289439558982849
13.776945114135742 -11.22061538696289 0.5343366861343384
14.107954025268555 -11.196730613708496 0.5452609658241272
14.26114273071289 -11.172906875610352 0.5503513813018799
14.447677612304688 -11.173187255859375 0.5546749234199524
14.609241485595703 -11.152070045471191 0.5604206919670105
14.730575561523438 -11.146819114685059 0.5643975138664246
14.795096397399902 -11.147436141967773 0.5671142935752869
14.84391975402832 -11.134995460510254 0.5680805444717407
14.904705047607422 -11.131924629211426 0.5706503987312317
14.964414596557617 -11.128219604492188 0.5720511674880981
15.03111457824707 -11.128440856933594 0.5748412013053894
15.146017074584961 -11.116080284118652 0.5786060690879822
15.19876480102539 -11.105323791503906 0.5797207951545715
15.274115562438965 -11.11142635345459 0.582861065864563
15.328075408935547 -11.101093292236328 0.5840210914611816
15.384378433227539 -11.092863082885742 0.5864386558532715
15.45598030090332 -11.095813751220703 0.5882899165153503
15.518050193786621 -11.090625762939453 0.5909216403961182
15.571558952331543 -11.079710006713867 0.5920750498771667
15.643007278442383 -11.0817232131958 0.5950869917869568
15.699739456176758 -11.071619033813477 0.5963445901870728
15.76722526550293 -11.070290565490723 0.5992105603218079
15.896211624145508 -11.061199188232422 0.6021731495857239
15.955674171447754 -11.053503036499023 0.6035553216934204
16.076976776123047 -11.037625312805176 0.6075717210769653
16.285383224487305 -11.030715942382812 0.6148729920387268
16.466115951538086 -11.002763748168945 0.6206302046775818
17.29015350341797 -10.933259963989258 0.6485946178436279
17.51580810546875 -10.922412872314453 0.6542953252792358
17.708858489990234 -10.888778686523438 0.6605722904205322
17.79071807861328 -10.887235641479492 0.6636724472045898
17.941890716552734 -10.877222061157227 0.6679826974868774
18.00330924987793 -10.862361907958984 0.6703273057937622
18.088258743286133 -10.86204719543457 0.673012375831604
18.154733657836914 -10.85076904296875 0.675567090511322
18.234085083007812 -10.845829010009766 0.6780363321304321
18.301084518432617 -10.83389663696289 0.6806094646453857
18.394304275512695 -10.837594985961914 0.6836119890213013
18.468475341796875 -10.828648567199707 0.6855136156082153
18.54828453063965 -10.823346138000488 0.6885694861412048
18.603960037231445 -10.803062438964844 0.6901642680168152
18.6977596282959 -10.805706977844238 0.6937503814697266
18.78148651123047 -10.801724433898926 0.6963950991630554
18.92707633972168 -10.779638290405273 0.7014350891113281
19.008007049560547 -10.773551940917969 0.7036056518554688
19.091327667236328 -10.7673978805542 0.7067980170249939
19.163772583007812 -10.75545883178711 0.7090315222740173
19.327775955200195 -10.740718841552734 0.7136185765266418
19.408321380615234 -10.73282527923584 0.7167361974716187
19.57955551147461 -10.7200927734375 0.7217760682106018
19.828187942504883 -10.694756507873535 0.7308080792427063
21.407033920288086 -10.522650718688965 0.7852461338043213
21.689556121826172 -10.492745399475098 0.7946448922157288
21.791353225708008 -10.485074043273926 0.7975598573684692
21.99219512939453 -10.469053268432617 0.8047930002212524
22.269447326660156 -10.429821014404297 0.8140244483947754
22.36943817138672 -10.41891860961914 0.8168699145317078
22.473337173461914 -10.410133361816406 0.8198689222335815
22.574981689453125 -10.399179458618164 0.8242855668067932
22.665857315063477 -10.384078979492188 0.8268176913261414
22.785133361816406 -10.381088256835938 0.830371618270874
22.866832733154297 -10.35986328125 0.8340885639190674
22.973529815673828 -10.350797653198242 0.8371919393539429
23.081310272216797 -10.341303825378418 0.8403283357620239
23.187223434448242 -10.329824447631836 0.8449376225471497
23.284164428710938 -10.314668655395508 0.847679615020752
23.501651763916016 -10.293323516845703 0.8555870056152344
23.617555618286133 -10.285237312316895 0.8590219020843506
23.832515716552734 -10.259662628173828 0.8693411350250244
24.166339874267578 -10.223775863647461 0.8807563781738281
26.660507202148438 -9.918307304382324 0.9699392318725586
26.798234939575195 -9.904958724975586 0.9759283661842346
27.093334197998047 -9.885879516601562 0.9851624965667725
27.22298812866211 -9.867881774902344 0.9891151189804077
27.49184226989746 -9.835892677307129 0.999169111251831
27.614505767822266 -9.81383228302002 1.0028740167617798
27.747943878173828 -9.795899391174316 1.0087703466415405
27.8680362701416 -9.771942138671875 1.0123810768127441
28.013011932373047 -9.757546424865723 1.0169126987457275
28.154491424560547 -9.74080753326416 1.0213086605072021
28.296234130859375 -9.722768783569336 1.0262287855148315
28.427894592285156 -9.702096939086914 1.0315788984298706
28.56949806213379 -9.683719635009766 1.035975694656372
28.703426361083984 -9.661361694335938 1.0400851964950562
28.834659576416016 -9.638962745666504 1.0446480512619019
29.11932945251465 -9.597975730895996 1.054823398590088
29.273239135742188 -9.58083724975586 1.0596667528152466
29.56747817993164 -9.540040016174316 1.070762038230896
30.028575897216797 -9.480224609375 1.0918645858764648
30.476848602294922 -9.411468505859375 1.1065521240234375
33.481224060058594 -8.969001770019531 1.210936427116394
24.065635681152344 -6.392482757568359 0.8718224763870239
20.393470764160156 -5.325857162475586 0.7398513555526733
20.51602554321289 -5.311456680297852 0.743887722492218
30.60582733154297 -7.787486553192139 1.1071420907974243
34.94025802612305 -8.734060287475586 1.2664004564285278
35.15140914916992 -8.707754135131836 1.2733831405639648
31.90729331970215 -7.4093804359436035 1.1517536640167236
20.344406127929688 -4.4996418952941895 0.7352803349494934
20.57268524169922 -4.414649963378906 0.7424308061599731
21.74191665649414 -4.522768020629883 0.7872841358184814
41.244503021240234 -6.965951442718506 1.488044023513794
41.24381637573242 -6.875999450683594 1.4874924421310425
41.30889129638672 -6.7100043296813965 1.4895596504211426
41.32093048095703 -6.622142791748047 1.489489197731018
41.345577239990234 -6.4476165771484375 1.4919416904449463
41.374298095703125 -6.364175796508789 1.4924980401992798
41.40975570678711 -6.280940532684326 1.493301510810852
41.41108703613281 -6.191422462463379 1.4928679466247559
41.426483154296875 -6.105863571166992 1.4929697513580322
41.40643310546875 -6.014392852783203 1.4917924404144287
41.45268630981445 -5.931468486785889 1.4930061101913452
41.44984817504883 -5.843310356140137 1.49246346950531
41.498443603515625 -5.672023773193359 1.4933359622955322
41.51782989501953 -5.586182117462158 1.4936083555221558
41.56023025512695 -5.4145402908325195 1.4961235523223877
41.614990234375 -5.155081748962402 1.4976433515548706
41.66533660888672 -4.89556884765625 1.4983220100402832
41.67052459716797 -3.3064024448394775 1.491910696029663
41.633689880371094 -3.0402235984802246 1.4898734092712402
41.622802734375 -2.7746777534484863 1.488831877708435
41.61682891845703 -2.6875455379486084 1.4884207248687744
41.623687744140625 -2.600517511367798 1.4884710311889648
41.633880615234375 -2.512624740600586 1.4886423349380493
41.64133071899414 -2.4263553619384766 1.488718032836914
41.61330795288086 -2.3373401165008545 1.4857385158538818
41.57225036621094 -2.246701717376709 1.484855055809021
41.60982131958008 -2.162139892578125 1.4860255718231201
41.593563079833984 -2.072211980819702 1.4845426082611084
41.594139099121094 -1.9857187271118164 1.4844093322753906
41.58854675292969 -1.898216724395752 1.484076738357544
41.58070755004883 -1.7231547832489014 1.4835152626037598
41.58645248413086 -1.4608283042907715 1.4833694696426392
41.57843780517578 -1.1988905668258667 1.4827830791473389
9.745342254638672 7.294426918029785 0.3199392259120941
9.614686012268066 7.291385650634766 0.31568044424057007
9.520513534545898 7.283325672149658 0.3121245205402374
9.466358184814453 7.273087024688721 0.3108445107936859
9.371603012084961 7.263254165649414 0.30727896094322205
9.244158744812012 7.257961273193359 0.30316412448883057
7.780365467071533 7.150688171386719 0.2513706088066101
7.671961784362793 7.140547752380371 0.2480388581752777
7.599766731262207 7.13331937789917 0.24557888507843018
7.576555252075195 7.141166687011719 0.24467986822128296
7.50123405456543 7.130066871643066 0.24239873886108398
7.473040580749512 7.132846355438232 0.24133439362049103
7.409343242645264 7.13192081451416 0.23916727304458618
7.371279239654541 7.124810695648193 0.23778845369815826
7.340388298034668 7.124727249145508 0.23709826171398163
7.299139976501465 7.114785194396973 0.23562175035476685
7.2687249183654785 7.1146135330200195 0.23467910289764404
7.201015949249268 7.107967853546143 0.2322225272655487
7.174962997436523 7.111708641052246 0.2312413454055786
7.110569000244141 7.107497215270996 0.22951607406139374
7.070860862731934 7.097451210021973 0.2280985414981842
7.009490966796875 7.0951151847839355 0.2258611023426056
6.9823737144470215 7.097314834594727 0.22485874593257904
6.88748836517334 7.089468955993652 0.22159773111343384
6.339872360229492 7.039312362670898 0.2037053108215332
6.247732162475586 7.025322914123535 0.2014136016368866
6.179453372955322 7.037141799926758 0.19892647862434387
6.119482517242432 7.028326988220215 0.19697308540344238
6.097271919250488 7.032232284545898 0.19616061449050903
6.0406599044799805 7.026508331298828 0.19456246495246887
6.011412143707275 7.02191162109375 0.19352363049983978
5.949833869934082 7.009522438049316 0.19136352837085724
5.928554534912109 7.013904094696045 0.19074739515781403
5.867555141448975 7.001331329345703 0.18861110508441925
5.845400333404541 7.00437068939209 0.1878139227628708
5.820162773132324 7.004490852355957 0.18732166290283203
5.788646697998047 6.996047496795654 0.18621870875358582
5.765392780303955 6.998076438903809 0.18555592000484467
5.7397613525390625 6.996750831604004 0.1846504807472229
5.714104175567627 6.995029449462891 0.18374419212341309
5.687810897827148 6.993279457092285 0.1828247606754303
5.658207893371582 6.9864501953125 0.18179088830947876
5.6345930099487305 6.986886501312256 0.1809476613998413
5.612865447998047 6.990452766418457 0.18096581101417542
5.582942008972168 6.982817649841309 0.1799154430627823
5.532498359680176 6.979791641235352 0.17830602824687958
5.510536193847656 6.98179817199707 0.1775241196155548
5.456367015838623 6.973355293273926 0.17564189434051514
5.4321794509887695 6.972207069396973 0.17479208111763
5.382543563842773 6.968836784362793 0.17306090891361237
5.361316204071045 6.971209526062012 0.17284245789051056
5.306608200073242 6.960537910461426 0.17095176875591278
5.288921356201172 6.967279434204102 0.17031745612621307
5.229717254638672 6.949869155883789 0.16828332841396332
5.206784248352051 6.949362754821777 0.1674755960702896
4.945010662078857 6.927699565887451 0.1593359112739563
4.87399435043335 6.919795036315918 0.15689505636692047
4.809446334838867 6.9207963943481445 0.15483006834983826
4.762746334075928 6.914919853210449 0.15322528779506683
4.742231845855713 6.916457653045654 0.15252739191055298
4.717660427093506 6.911328315734863 0.1520458161830902
4.699710845947266 6.916072845458984 0.1514245867729187
4.67661190032959 6.913543701171875 0.15064528584480286
4.660517692565918 6.920654296875 0.15008097887039185
4.625858783721924 6.9003119468688965 0.14891590178012848
4.610770225524902 6.9094085693359375 0.148396834731102
4.580495357513428 6.894988536834717 0.1475273221731186
4.5613884925842285 6.898152828216553 0.1468767523765564
4.535333633422852 6.88978385925293 0.14599160850048065
4.5216593742370605 6.900147914886475 0.1455140858888626
4.499673843383789 6.898699760437012 0.14477765560150146
4.476705074310303 6.894710063934326 0.14420700073242188
4.449131965637207 6.8837432861328125 0.1432855725288391
4.436025619506836 6.8954668045043945 0.14283114671707153
4.408211708068848 6.883584976196289 0.1418955773115158
4.389374256134033 6.885858535766602 0.1412516087293625
4.364254951477051 6.878559589385986 0.14056208729743958
4.3507866859436035 6.889161109924316 0.14009471237659454
4.327766418457031 6.884312152862549 0.1393132358789444
4.307883262634277 6.885013580322266 0.13864701986312866
4.283390522003174 6.877838134765625 0.13783195614814758
4.264612197875977 6.879460334777832 0.13718658685684204
4.243954181671143 6.878634929656982 0.13649696111679077
4.220150947570801 6.87219762802124 0.1357020139694214
4.20266056060791 6.876343250274658 0.13546782732009888
4.174017429351807 6.861436367034912 0.13450613617897034
4.1528191566467285 6.858877658843994 0.1337967962026596
4.136628150939941 6.864922046661377 0.1332600861787796
4.116835594177246 6.864531993865967 0.13259392976760864
4.091943740844727 6.855238437652588 0.131760835647583
4.066547870635986 6.845605850219727 0.13092419505119324
4.051245212554932 6.852465629577637 0.13054928183555603
4.033453941345215 6.854804515838623 0.1299504041671753
4.009661674499512 6.847518444061279 0.12916299700737
3.998960018157959 6.862138271331787 0.12879866361618042
3.9686336517333984 6.842700481414795 0.12765741348266602
3.942107915878296 6.830266952514648 0.1267840564250946
9.522847175598145 7.704896926879883 0.4125039875507355
9.397293090820312 7.701564788818359 0.4071388840675354
9.303086280822754 7.690077304840088 0.4037187695503235
9.262860298156738 7.689239501953125 0.40193164348602295
9.158185005187988 7.667720317840576 0.39783504605293274
7.661931991577148 7.530681610107422 0.33515477180480957
7.5858964920043945 7.51901912689209 0.33236777782440186
7.555570125579834 7.520107269287109 0.331257700920105
7.47712516784668 7.504978179931641 0.32790547609329224
7.4370527267456055 7.495802879333496 0.32618361711502075
7.408487319946289 7.498332977294922 0.32497838139533997
7.3676042556762695 7.488621711730957 0.32387682795524597
7.337892055511475 7.489446640014648 0.322614848613739
7.302576065063477 7.484671592712402 0.3211132287979126
7.278362274169922 7.491541862487793 0.3201099932193756
7.237934112548828 7.48092794418335 0.3183737099170685
7.171533107757568 7.475038051605225 0.31620141863822937
7.1350908279418945 7.468013286590576 0.31464359164237976
7.0766754150390625 7.469601631164551 0.31219783425331116
7.0401411056518555 7.4622578620910645 0.31065189838409424
6.977059364318848 7.457806587219238 0.308177649974823
6.881292343139648 7.44875431060791 0.30414441227912903
6.788712501525879 7.442126750946045 0.3008969724178314
6.113900184631348 7.357087135314941 0.2750457227230072
6.044471740722656 7.367275238037109 0.27242982387542725
5.9907121658325195 7.364784240722656 0.27024218440055847
5.9566569328308105 7.354040622711182 0.2688140869140625
5.906018257141113 7.354635715484619 0.266770601272583
5.870486259460449 7.341543197631836 0.26527613401412964
5.8391947746276855 7.334478855133057 0.26457250118255615
5.816631317138672 7.337333679199219 0.2636648416519165
5.789167404174805 7.3345561027526855 0.2625545859336853
5.766417980194092 7.337255477905273 0.2616470754146576
5.729551315307617 7.321569442749023 0.26009535789489746
5.706598281860352 7.324157238006592 0.2591904401779175
5.677934169769287 7.318909645080566 0.25801506638526917
5.657464981079102 7.323856353759766 0.2572164237499237
5.6186628341674805 7.305564880371094 0.25575071573257446
5.603370666503906 7.317319869995117 0.2551881968975067
5.569981575012207 7.305072784423828 0.2537987232208252
5.547823905944824 7.308341026306152 0.25333917140960693
5.517011642456055 7.299154281616211 0.25246164202690125
5.4984564781188965 7.306074142456055 0.2517458200454712
5.4672322273254395 7.296976089477539 0.2504720091819763
5.442370414733887 7.295294761657715 0.24947306513786316
5.393127918243408 7.293170928955078 0.24767012894153595
5.375370979309082 7.300801753997803 0.24700045585632324
5.315396785736084 7.28339147567749 0.24454694986343384
5.290148735046387 7.280475616455078 0.24352851510047913
5.238456726074219 7.273553848266602 0.241855189204216
5.206942081451416 7.261524200439453 0.24054446816444397
5.162299156188965 7.263668537139893 0.23880937695503235
5.146406650543213 7.273495674133301 0.23839060962200165
5.100325584411621 7.272867679595947 0.23658350110054016
5.064327716827393 7.253780841827393 0.23507171869277954
5.012814044952393 7.244536399841309 0.23301464319229126
4.875509738922119 7.239229202270508 0.2284083515405655
4.8084716796875 7.238160133361816 0.22597500681877136
4.731419086456299 7.220245361328125 0.2228987216949463
4.671632766723633 7.227720260620117 0.220646470785141
4.592794895172119 7.204695701599121 0.2174878716468811
4.573319435119629 7.20709753036499 0.21675217151641846
4.547815322875977 7.200168609619141 0.2157357633113861
4.52490234375 7.197620391845703 0.2148512601852417
4.508628845214844 7.2048749923706055 0.21426929533481598
4.482351303100586 7.196331024169922 0.2133656144142151
4.455945014953613 7.187824726104736 0.2123173475265503
4.4441914558410645 7.202481746673584 0.21196115016937256
4.4148359298706055 7.188243865966797 0.21075557172298431
4.3936004638671875 7.187771797180176 0.20995663106441498
4.372374057769775 7.186801433563232 0.209361270070076
4.345317840576172 7.176526069641113 0.20828068256378174
4.323836803436279 7.174612045288086 0.20745238661766052
4.307636737823486 7.181685924530029 0.20688694715499878
4.279875755310059 7.169794082641602 0.20576943457126617
4.2647552490234375 7.178269386291504 0.2056114375591278
4.236400604248047 7.164648056030273 0.20446181297302246
4.22363805770874 7.177730560302734 0.20385624468326569
4.196718215942383 7.165962219238281 0.2031252384185791
4.179012775421143 7.170097351074219 0.20248758792877197
4.149459362030029 7.154189109802246 0.2012869119644165
4.133831024169922 7.161735534667969 0.20074599981307983
4.110813140869141 7.156117916107178 0.1994883120059967
4.096283435821533 7.165931701660156 0.19937428832054138
4.07169246673584 7.1576385498046875 0.19840404391288757
4.050944805145264 7.155677795410156 0.1976110190153122
4.028390884399414 7.1511335372924805 0.19675080478191376
4.011476993560791 7.156089782714844 0.19579638540744781
3.9854507446289062 7.145109176635742 0.19512391090393066
3.9603352546691895 7.134844779968262 0.1937604695558548
3.941145181655884 7.135424613952637 0.19341124594211578
3.9183764457702637 7.129852294921875 0.19218625128269196
3.8983144760131836 7.1286516189575195 0.19143497943878174
3.879732608795166 7.12977933883667 0.1907506287097931
3.8589606285095215 7.127532482147217 0.19033098220825195
3.8444247245788574 7.13631534576416 0.1898575723171234
39.870452880859375 0.025046776980161667 1.3374354839324951
39.8142204284668 0.10935329645872116 1.3355542421340942
39.7822151184082 0.19182246923446655 1.3344902992248535
39.765968322753906 0.2749784290790558 1.33395254611969
39.74462127685547 0.35903099179267883 1.3332645893096924
39.71509552001953 0.44189852476119995 1.3323088884353638
39.717430114746094 0.5243569016456604 1.332402229309082
39.71757507324219 0.6085138320922852 1.330438256263733
39.79726791381836 0.7773892283439636 1.3331694602966309
39.66339111328125 1.4410462379455566 1.3286809921264648
39.62969970703125 1.606966257095337 1.3277314901351929
39.614585876464844 1.6887036561965942 1.3273406028747559
39.5997314453125 1.8551757335662842 1.327092170715332
39.608375549316406 1.9386731386184692 1.3275127410888672
39.59203338623047 2.02023983001709 1.3271045684814453
39.596256256103516 2.104562759399414 1.327394962310791
39.59101867675781 2.187394142150879 1.3273757696151733
39.592430114746094 2.2716095447540283 1.3258624076843262
39.571800231933594 2.352825403213501 1.3253400325775146
39.574615478515625 2.6034693717956543 1.3266617059707642
39.56596374511719 2.6870903968811035 1.3265652656555176
39.58145523071289 2.77067232131958 1.3272678852081299
39.56044387817383 2.852421760559082 1.3267680406570435
39.54595947265625 2.935598373413086 1.3264899253845215
39.55029296875 3.0184597969055176 1.3268522024154663
39.55878448486328 3.102403402328491 1.3256340026855469
39.53784942626953 3.1850457191467285 1.3251562118530273
39.53435516357422 3.3523988723754883 1.324790596961975
39.513214111328125 3.4332077503204346 1.3243181705474854
39.51361083984375 3.5165867805480957 1.3245707750320435
39.50888442993164 3.600538969039917 1.32466459274292
39.52784729003906 3.6857047080993652 1.3255524635314941
39.53679275512695 3.7693142890930176 1.3261069059371948
39.51908874511719 3.852120876312256 1.3257856369018555
39.522430419921875 3.9359726905822754 1.3244690895080566
39.551116943359375 4.021737098693848 1.3256916999816895
39.530799865722656 4.10429573059082 1.3253164291381836
39.476104736328125 4.182153224945068 1.323081374168396
39.45359802246094 4.264301776885986 1.3226224184036255
39.37909698486328 4.506876468658447 1.3210382461547852
39.326839447021484 4.668768882751465 1.323073387145996
39.31123352050781 4.749665260314941 1.3221592903137207
39.28364562988281 4.914273262023926 1.320206642150879
39.21356201171875 5.15608549118042 1.318924903869629
39.18986892700195 5.320963382720947 1.3181501626968384
39.15736770629883 5.400044918060303 1.3157317638397217
39.130882263183594 5.563706874847412 1.3156167268753052
39.09609603881836 5.642272472381592 1.3148407936096191
39.048004150390625 5.802592754364014 1.3133294582366943
39.030113220214844 5.883459091186523 1.3114360570907593
39.012245178222656 5.965310096740723 1.3112516403198242
38.98213195800781 6.044234752655029 1.3106772899627686
38.947906494140625 6.12172269821167 1.3099424839019775
38.942474365234375 6.205427169799805 1.3102002143859863
38.914573669433594 6.284530162811279 1.308996319770813
38.90972137451172 6.368348121643066 1.3075816631317139
38.86663055419922 6.44413948059082 1.3065869808197021
38.873268127441406 6.528872966766357 1.3137812614440918
38.83705139160156 6.607410430908203 1.313039779663086
38.80881118774414 6.68621826171875 1.3108534812927246
38.76766586303711 6.761997222900391 1.3099324703216553
38.77185821533203 6.847389221191406 1.3098512887954712
38.725982666015625 6.922905921936035 1.3087897300720215
38.72193145751953 7.006859302520752 1.3091470003128052
38.69685745239258 7.086003303527832 1.307105541229248
38.67109680175781 7.16425895690918 1.3067301511764526
38.64533996582031 7.244192600250244 1.3056814670562744
38.6257209777832 7.324236869812012 1.3055274486541748
38.601627349853516 7.402688026428223 1.3052358627319336
38.58349609375 7.483982086181641 1.3034582138061523
38.53461837768555 7.558228969573975 1.3016330003738403
38.526363372802734 7.64139461517334 1.3018990755081177
38.453887939453125 7.793752193450928 1.2988396883010864
38.42744827270508 7.873174667358398 1.298506498336792
38.294097900390625 8.014041900634766 1.2944618463516235
37.79875183105469 7.992288589477539 1.27827787399292
36.97417068481445 7.980757713317871 1.2492060661315918
35.8756103515625 7.98000431060791 1.2198312282562256
35.16498947143555 7.977506637573242 1.1945946216583252
34.759559631347656 7.962070465087891 1.1813948154449463
34.11039733886719 7.96406364440918 1.1598269939422607
33.76642990112305 7.958322048187256 1.1471920013427734
33.12755584716797 7.954529762268066 1.1266058683395386
32.79450988769531 7.947196960449219 1.115235447883606
32.21636962890625 7.950273513793945 1.095263957977295
31.925212860107422 7.949352264404297 1.0853387117385864
31.63263702392578 7.947700023651123 1.07455313205719
31.333871841430664 7.942399024963379 1.0649704933166504
31.04439353942871 7.937621116638184 1.055681824684143
30.7864990234375 7.941196918487549 1.046912670135498
30.518760681152344 7.940302848815918 1.0370126962661743
30.24936866760254 7.938664436340332 1.028422474861145
29.9929141998291 7.937925338745117 1.0197091102600098
29.717620849609375 7.931663513183594 1.0095839500427246
29.496246337890625 7.939549446105957 1.0026283264160156
29.247421264648438 7.938263893127441 0.99527907371521
29.011016845703125 7.9387736320495605 0.9929816722869873
28.735498428344727 7.928845405578613 0.9835915565490723
28.504697799682617 7.929405212402344 0.9749745726585388
28.246362686157227 7.92204475402832 0.9667129516601562
28.003875732421875 7.917299270629883 0.9584591388702393
27.775188446044922 7.914927959442139 0.9499423503875732
27.565702438354492 7.918403625488281 0.943345844745636
27.31659698486328 7.908779144287109 0.9348751306533813
27.0869140625 7.903240203857422 0.9263555407524109
26.873661041259766 7.902829647064209 0.9196299910545349
26.637523651123047 7.894002914428711 0.9116150736808777
26.406360626220703 7.886385917663574 0.9030840396881104
25.994199752807617 7.881455898284912 0.8896139860153198
25.789857864379883 7.879190444946289 0.8820332884788513
25.384815216064453 7.8724799156188965 0.8688215017318726
25.180015563964844 7.8662824630737305 0.8612323999404907
24.78461265563965 7.857474327087402 0.8483647704124451
24.22164535522461 7.8469109535217285 0.8281170129776001
23.858118057250977 7.840315341949463 0.821590781211853
23.67644691467285 7.835562705993652 0.8148217797279358
23.32540512084961 7.828066825866699 0.8034175634384155
23.13521957397461 7.8181562423706055 0.7963743805885315
22.799907684326172 7.811525344848633 0.7844840288162231
22.63396453857422 7.807645797729492 0.7789027690887451
22.458219528198242 7.800295829772949 0.7734243273735046
22.283952713012695 7.791628837585449 0.7669557332992554
22.1237850189209 7.787631988525391 0.761582612991333
21.959863662719727 7.782253265380859 0.7554969191551208
21.814048767089844 7.782009124755859 0.7506244778633118
21.640827178955078 7.771929740905762 0.7452324032783508
21.488378524780273 7.767561912536621 0.7391374111175537
21.330821990966797 7.7611284255981445 0.7342761158943176
21.195053100585938 7.76261043548584 0.7291929721832275
21.03813934326172 7.754693031311035 0.7239454388618469
20.9003849029541 7.753645896911621 0.7197606563568115
20.754173278808594 7.749458312988281 0.713935911655426
20.630645751953125 7.752574920654297 0.7102383971214294
20.492311477661133 7.749159812927246 0.705080509185791
20.348472595214844 7.744075775146484 0.7003122568130493
20.215299606323242 7.741873741149902 0.6966680288314819
20.090740203857422 7.743011474609375 0.6938693523406982
19.953054428100586 7.73795223236084 0.6892873048782349
19.83696937561035 7.740328311920166 0.6849095821380615
19.709060668945312 7.7385663986206055 0.6806775331497192
19.58013153076172 7.735283374786377 0.6758695244789124
19.43674087524414 7.725303649902344 0.6711052656173706
19.296672821044922 7.717006683349609 0.6668287515640259
19.19116973876953 7.721446990966797 0.6624748706817627
19.051025390625 7.7119903564453125 0.6581964492797852
18.924346923828125 7.706456184387207 0.6534870266914368
18.799678802490234 7.701601505279541 0.6493792533874512
18.67891502380371 7.69837760925293 0.6448919773101807
18.43267250061035 7.687863349914551 0.6362833976745605
18.31938934326172 7.685283184051514 0.6325719356536865
18.089824676513672 7.6787285804748535 0.6245527863502502
17.961139678955078 7.6681318283081055 0.6198114156723022
17.741378784179688 7.66280460357666 0.6129928827285767
17.414474487304688 7.651865482330322 0.6010205149650574
17.199390411376953 7.643937110900879 0.5955177545547485
17.0916748046875 7.638946533203125 0.5915336012840271
16.88495445251465 7.631667137145996 0.5843467712402344
16.782608032226562 7.627750873565674 0.5810248851776123
16.58420753479004 7.621651649475098 0.5741428136825562
16.47968292236328 7.615433692932129 0.5702893733978271
16.380550384521484 7.611774444580078 0.5670938491821289
16.28656768798828 7.609238147735596 0.5636064410209656
16.18691062927246 7.603992938995361 0.5603923201560974
16.087316513061523 7.598848342895508 0.556727409362793
16.00322723388672 7.6001386642456055 0.5540512800216675
15.910709381103516 7.5975494384765625 0.5506361722946167
15.815210342407227 7.59229040145874 0.5475636720657349
15.717556953430176 7.585930347442627 0.5439772605895996
15.627894401550293 7.583515167236328 0.5411237478256226
15.538028717041016 7.579784393310547 0.537803053855896
15.437424659729004 7.570749282836914 0.5345664620399475
15.346942901611328 7.566747188568115 0.5309404134750366
15.27824878692627 7.572331428527832 0.5290991067886353
15.17749309539795 7.562005996704102 0.5251253843307495
15.09061050415039 7.558663368225098 0.5226736068725586
15.002815246582031 7.554008483886719 0.5194532871246338
14.920530319213867 7.552240371704102 0.517155110836029
14.83393669128418 7.547120094299316 0.5143983960151672
14.759061813354492 7.547955513000488 0.5113356113433838
14.666507720947266 7.539859294891357 0.5079661011695862
14.590250015258789 7.539306640625 0.5055774450302124
14.506856918334961 7.534398078918457 0.5025160908699036
14.420158386230469 7.528201103210449 0.49978047609329224
14.3421630859375 7.525723457336426 0.49691784381866455
14.262046813964844 7.52147102355957 0.4943942427635193
14.183868408203125 7.518688201904297 0.49125543236732483
14.112848281860352 7.518922805786133 0.4893379807472229
14.009167671203613 7.501828193664551 0.48532408475875854
13.800033569335938 7.501850128173828 0.4780634045600891
13.641851425170898 7.490461349487305 0.4724426567554474
13.57544994354248 7.49070930480957 0.47068217396736145
13.417695045471191 7.477546215057373 0.4646981954574585
13.350336074829102 7.4763593673706055 0.46262723207473755
13.214059829711914 7.473319053649902 0.4580596089363098
12.979692459106445 7.448853492736816 0.4490813612937927
12.853394508361816 7.448506832122803 0.44488325715065
12.787662506103516 7.445906639099121 0.4425012171268463
12.66024398803711 7.443284511566162 0.4380100965499878
12.588787078857422 7.436773300170898 0.43544504046440125
12.517327308654785 7.429643630981445 0.43325039744377136
12.45362377166748 7.427553176879883 0.43069934844970703
12.388151168823242 7.423699855804443 0.4289700388908386
12.326833724975586 7.421764373779297 0.42650237679481506
12.263310432434082 7.418959617614746 0.4242272973060608
12.1832857131958 7.405424118041992 0.42174404859542847
12.139931678771973 7.414336204528809 0.41991323232650757
12.078787803649902 7.411452293395996 0.4183270037174225
12.023035049438477 7.411925792694092 0.4160679280757904
11.945306777954102 7.3989763259887695 0.413062185049057
11.89360237121582 7.401439189910889 0.4118097126483917
11.817461013793945 7.388830661773682 0.40886497497558594
11.774053573608398 7.395719528198242 0.4070419669151306
11.706533432006836 7.387523651123047 0.4052410423755646
11.65780258178711 7.3913469314575195 0.40325117111206055
11.594383239746094 7.384915828704834 0.40158864855766296
11.541853904724121 7.385461330413818 0.39828357100486755
11.467248916625977 7.372006416320801 0.3956543505191803
11.418310165405273 7.3743672370910645 0.3942565321922302
11.355496406555176 7.3672380447387695 0.39178717136383057
11.305466651916504 7.368856430053711 0.39001449942588806
11.24352741241455 7.362062454223633 0.3881712853908539
11.192811012268066 7.3627777099609375 0.38613808155059814
11.13608169555664 7.358614921569824 0.3841277062892914
11.082878112792969 7.35683012008667 0.3825863003730774
11.019378662109375 7.348356246948242 0.38012534379959106
10.919743537902832 7.347853660583496 0.37692949175834656
10.867457389831543 7.346164226531982 0.3748648166656494
10.762447357177734 7.340723991394043 0.37149614095687866
10.7048978805542 7.334746837615967 0.3692522644996643
10.60658073425293 7.332533836364746 0.36612531542778015
10.550175666809082 7.326620101928711 0.36393117904663086
10.44586181640625 7.319578170776367 0.36061370372772217
10.298891067504883 7.3135576248168945 0.3558015525341034
10.196392059326172 7.305560111999512 0.3512444496154785
10.142807960510254 7.299067497253418 0.34969621896743774
10.056255340576172 7.301260948181152 0.34647196531295776
10.002216339111328 7.2937726974487305 0.34490787982940674
9.91016960144043 7.290777206420898 0.34150993824005127
9.868629455566406 7.292099952697754 0.339847594499588
9.767021179199219 7.280540466308594 0.3366578221321106
9.722247123718262 7.278870105743408 0.3348937928676605
9.638483047485352 7.27943229675293 0.33210045099258423
9.592041015625 7.275935649871826 0.3305061161518097
9.544902801513672 7.272086143493652 0.3286799490451813
9.503255844116211 7.2718400955200195 0.3275565207004547
9.453255653381348 7.26473331451416 0.32562196254730225
9.412813186645508 7.26542329788208 0.3242458999156952
9.362580299377441 7.25797176361084 0.322828471660614
9.317983627319336 7.254406929016113 0.3210896849632263
9.283317565917969 7.259055137634277 0.3197002112865448
9.244298934936523 7.259774208068848 0.31836551427841187
9.197086334228516 7.253604888916016 0.3172556161880493
9.14601993560791 7.244810104370117 0.31531625986099243
9.099661827087402 7.239134788513184 0.3137364983558655
9.070002555847168 7.2469682693481445 0.3125312924385071
9.02306079864502 7.240454196929932 0.3112298250198364
8.972026824951172 7.230162620544434 0.30928826332092285
8.945446014404297 7.240052223205566 0.30839803814888
8.907711029052734 7.240419864654541 0.30691617727279663
8.858633041381836 7.231107711791992 0.305534303188324
8.81529426574707 7.226903915405273 0.3038770258426666
8.77714729309082 7.2263994216918945 0.3025910258293152
8.74437141418457 7.230550765991211 0.30129268765449524
8.691232681274414 7.217032432556152 0.29978206753730774
8.66021728515625 7.221954345703125 0.29853808879852295
8.625264167785645 7.22383975982666 0.2971693277359009
8.569992065429688 7.207860469818115 0.29530060291290283
8.541339874267578 7.214338302612305 0.2946315109729767
8.50809097290039 7.217192649841309 0.2933316230773926
8.468814849853516 7.214409828186035 0.2918102443218231
8.42588996887207 7.208071231842041 0.29017534852027893
8.389598846435547 7.207860946655273 0.2894502282142639
8.345104217529297 7.200046062469482 0.28776466846466064
8.30638313293457 7.197389602661133 0.28627896308898926
8.268684387207031 7.194821357727051 0.28482675552368164
8.234899520874023 7.195764064788818 0.284374475479126
8.201955795288086 7.197676658630371 0.2835691571235657
8.085488319396973 7.185945510864258 0.279306560754776
7.976659774780273 7.179485321044922 0.27560174465179443
7.865400314331055 7.16935920715332 0.27154797315597534
7.7992095947265625 7.169393539428711 0.26946642994880676
7.686517715454102 7.1554765701293945 0.2653849720954895
7.5902276039123535 7.15543270111084 0.26214444637298584
7.525787830352783 7.15478515625 0.25968652963638306
7.490394592285156 7.150788307189941 0.2587953507900238
7.454906463623047 7.146791458129883 0.2576412260532379
7.426061630249023 7.14939022064209 0.25653326511383057
7.391157150268555 7.1454010009765625 0.25583958625793457
7.36629581451416 7.151252269744873 0.25531578063964844
7.318233013153076 7.134770393371582 0.25373396277427673
7.286486625671387 7.133625507354736 0.25252556800842285
7.250221252441406 7.127647399902344 0.25116315484046936
7.229320526123047 7.137279510498047 0.2503369450569153
7.182997703552246 7.121294975280762 0.24862979352474213
7.16431188583374 7.132311820983887 0.24831347167491913
7.1225996017456055 7.120891571044922 0.24677881598472595
7.104574203491211 7.132664680480957 0.24622401595115662
7.056550979614258 7.114533424377441 0.24447837471961975
7.033580303192139 7.121121883392334 0.2435915470123291
7.0007171630859375 7.117331027984619 0.24235007166862488
6.983866214752197 7.130352020263672 0.24210849404335022
6.943109512329102 7.11848258972168 0.24060457944869995
6.909330368041992 7.113323211669922 0.23934191465377808
6.875580787658691 7.108646392822266 0.23809179663658142
6.855822563171387 7.1179704666137695 0.23749366402626038
6.815250873565674 7.105299472808838 0.23599807918071747
6.78495979309082 7.103782653808594 0.2348681390285492
6.753369331359863 7.100400924682617 0.2341163009405136
6.728957653045654 7.104199409484863 0.2331789880990982
6.6959614753723145 7.099427223205566 0.23196347057819366
6.6649885177612305 7.096283912658691 0.23081043362617493
6.635673999786377 7.0951337814331055 0.23132851719856262
6.6149091720581055 7.1026716232299805 0.23053047060966492
6.5743513107299805 7.088560104370117 0.22903680801391602
6.552441596984863 7.095024108886719 0.22820648550987244
6.5285964012146 7.098956108093262 0.227298766374588
6.4916672706604 7.088883876800537 0.22595295310020447
6.458581924438477 7.0822062492370605 0.22472462058067322
6.437714576721191 7.089067459106445 0.22451914846897125
6.402657508850098 7.080544471740723 0.2232343554496765
6.3734965324401855 7.077765464782715 0.22214536368846893
6.341981410980225 7.072480201721191 0.2209843397140503
6.324592113494873 7.083219528198242 0.22032256424427032
6.286246299743652 7.069750785827637 0.2189185619354248
6.266366004943848 7.077165603637695 0.21816501021385193
6.227367877960205 7.063214302062988 0.21675345301628113
6.203357696533203 7.065484523773193 0.21584972739219666
6.174042224884033 7.061850547790527 0.21517843008041382
6.151599407196045 7.066335678100586 0.21434393525123596
6.064740180969238 7.055640697479248 0.21115481853485107
6.004713535308838 7.045615196228027 0.20913122594356537
5.976822376251221 7.042439937591553 0.20810717344284058
5.929198741912842 7.046262264251709 0.20771393179893494
5.84066915512085 7.030296325683594 0.20488107204437256
5.775134563446045 7.0410003662109375 0.20261837542057037
5.692244052886963 7.029606819152832 0.19959940016269684
5.643027305603027 7.029150485992432 0.19780941307544708
5.620948314666748 7.031487464904785 0.19699937105178833
5.589788436889648 7.0225934982299805 0.19587163627147675
5.571224212646484 7.029784202575684 0.1951947808265686
5.540269374847412 7.020605087280273 0.19407545030117035
5.5213942527771 7.02687931060791 0.19338358938694
5.489270210266113 7.016542434692383 0.19223222136497498
5.474874496459961 7.028145790100098 0.19169187545776367
5.438229560852051 7.01194953918457 0.19039341807365417
5.416468620300293 7.013899803161621 0.18998196721076965
5.38862943649292 7.008122444152832 0.18898428976535797
5.361489295959473 7.00347900390625 0.18801219761371613
5.339613914489746 7.004973888397217 0.18813516199588776
5.312302589416504 6.999480247497559 0.1871502846479416
5.280285835266113 6.987987518310547 0.18601369857788086
5.2736663818359375 7.0094218254089355 0.1857534795999527
5.240030765533447 6.995141983032227 0.18455228209495544
5.211755752563477 6.988199234008789 0.18354663252830505
5.198434829711914 7.000605583190918 0.1830543875694275
5.176558494567871 7.001713275909424 0.1822635531425476
5.149003028869629 6.995396614074707 0.181662917137146
5.132944583892822 7.0039777755737305 0.1810774952173233
5.100924968719482 6.990926265716553 0.17993444204330444
5.07643461227417 6.988407611846924 0.1790701299905777
5.05303430557251 6.986639022827148 0.17822715640068054
5.021252155303955 6.974021911621094 0.17710985243320465
5.000915050506592 6.976260185241699 0.17637436091899872
4.980654716491699 6.97879695892334 0.17565076053142548
4.952071666717529 6.969926834106445 0.17464278638362885
4.9314727783203125 6.971530914306641 0.17390407621860504
4.913301467895508 6.976767539978027 0.1732548177242279
4.892023086547852 6.977908134460449 0.17250260710716248
4.864500045776367 6.969374179840088 0.17152579128742218
4.843040943145752 6.969663619995117 0.17076285183429718
4.815601348876953 6.961602210998535 0.1698005050420761
4.802131652832031 6.973014831542969 0.16931965947151184
4.771032333374023 6.95898962020874 0.16873699426651
4.756537914276123 6.969461441040039 0.16822905838489532
4.7297844886779785 6.961508750915527 0.1672845035791397
4.702824592590332 6.952824115753174 0.1663297414779663
