VERSION .7
FIELDS x y z
SIZE 4 4 4
TYPE F F F
COUNT 1 1 1
WIDTH 824
HEIGHT 1
VIEWPOINT 0 0 0 1 0 0 0
POINTS 824
DATA ascii
11.848058700561523 4.9653520584106445 -0.05113021284341812
11.730913162231445 4.974442005157471 -0.050714850425720215
11.692423820495605 4.986772537231445 -0.05059286206960678
11.630802154541016 4.989884376525879 -0.05037219449877739
11.591004371643066 5.001317024230957 -0.050244711339473724
11.476176261901855 5.009204387664795 -0.04983801767230034
11.421218872070312 5.013458728790283 -0.049644455313682556
11.368256568908691 5.019201755523682 -0.04946073144674301
11.31629467010498 5.02434778213501 -0.05138852819800377
11.21324634552002 5.035233974456787 -0.051016420125961304
11.158283233642578 5.038403511047363 -0.050813812762498856
11.061197280883789 5.050753593444824 -0.05046810954809189
11.009242057800293 5.054666042327881 -0.050278812646865845
10.97331714630127 5.065827369689941 -0.050162747502326965
10.923690795898438 5.071197509765625 -0.04998519644141197
10.871262550354004 5.074306011199951 -0.04979337006807327
10.814962387084961 5.076193332672119 -0.04958505928516388
10.783044815063477 5.088545322418213 -0.049487024545669556
10.726899147033691 5.089349746704102 -0.04927781596779823
10.673872947692871 5.092099189758301 -0.04908398538827896
10.624603271484375 5.095687389373779 -0.04890593886375427
10.584451675415039 5.103530406951904 -0.04876986891031265
10.533964157104492 5.106894016265869 -0.048587288707494736
10.484627723693848 5.109874248504639 -0.04840853065252304
10.455524444580078 5.122623920440674 -0.048323240131139755
10.414074897766113 5.129876613616943 -0.04818210005760193
10.370391845703125 5.135128021240234 -0.04802919924259186
10.317230224609375 5.13627815246582 -0.047833699733018875
10.27308464050293 5.140930652618408 -0.0476783886551857
10.236844062805176 5.149440288543701 -0.047510743141174316
10.197443008422852 5.156891822814941 -0.04932480305433273
10.158924102783203 5.163914203643799 -0.049190036952495575
10.095467567443848 5.1581034660339355 -0.04893450811505318
10.056863784790039 5.1654462814331055 -0.04880044236779213
10.01861572265625 5.172104835510254 -0.04866713285446167
9.975863456726074 5.177054405212402 -0.04851274564862251
9.923259735107422 5.17592191696167 -0.048309244215488434
9.883041381835938 5.18111515045166 -0.048165470361709595
9.84352970123291 5.187185764312744 -0.048026956617832184
9.809759140014648 5.195427894592285 -0.047914769500494
9.763650894165039 5.19703483581543 -0.0471142940223217
9.714272499084473 5.197360515594482 -0.04692932963371277
9.676578521728516 5.2030510902404785 -0.04679921641945839
9.641691207885742 5.210167407989502 -0.04668286442756653
9.59790325164795 5.212973117828369 -0.046524520963430405
9.546875953674316 5.210943698883057 -0.04632943496108055
9.528095245361328 5.227141857147217 -0.04629252478480339
9.47380256652832 5.222962856292725 -0.046081218868494034
9.401076316833496 5.23461389541626 -0.04583415389060974
9.35689640045166 5.2354817390441895 -0.04567175731062889
9.277424812316895 5.242438793182373 -0.04539124295115471
9.25079345703125 5.252747058868408 -0.04526884853839874
9.160726547241211 5.252747058868408 -0.04793126508593559
9.123424530029297 5.256546974182129 -0.04779352620244026
9.094147682189941 5.265585899353027 -0.04769912734627724
9.041749000549316 5.260330677032471 -0.047481000423431396
8.985288619995117 5.278256416320801 -0.047301508486270905
8.941805839538574 5.277702331542969 -0.04712897911667824
8.929313659667969 5.296082973480225 -0.047123998403549194
8.884622573852539 5.294528961181641 -0.04694584012031555
8.852394104003906 5.3002495765686035 -0.04683297872543335
8.80599308013916 5.298055648803711 -0.0466475784778595
8.775121688842773 5.304314613342285 -0.046542007476091385
8.737163543701172 5.306208610534668 -0.04639934375882149
8.700282096862793 5.309232711791992 -0.04568527638912201
8.669533729553223 5.31519079208374 -0.04558093473315239
8.623221397399902 5.311500549316406 -0.04539557173848152
8.592010498046875 5.3175764083862305 -0.04529092088341713
8.560989379882812 5.322979927062988 -0.04514253884553909
8.530044555664062 5.329040050506592 -0.04503921791911125
8.484635353088379 5.325182914733887 -0.04485670104622841
8.467674255371094 5.3390631675720215 -0.04482657462358475
8.41816520690918 5.33301305770874 -0.04462413489818573
8.390545845031738 5.339947700500488 -0.04453640058636665
8.346528053283691 5.336353302001953 -0.04660924896597862
8.329451560974121 5.350485801696777 -0.04657796025276184
8.285898208618164 5.346831798553467 -0.04639725759625435
8.247734069824219 5.346529960632324 -0.04624388739466667
8.232827186584473 5.3618292808532715 -0.046226829290390015
8.184279441833496 5.354431629180908 -0.04597190022468567
8.162848472595215 5.365347385406494 -0.045918095856904984
8.123773574829102 5.363838195800781 -0.0457596480846405
8.088788986206055 5.3648762702941895 -0.04507485032081604
8.059576034545898 5.370326995849609 -0.04497647285461426
8.014104843139648 5.364075660705566 -0.04478258639574051
7.998892784118652 5.378671646118164 -0.044764649122953415
7.961714267730713 5.37769889831543 -0.04461704567074776
7.931320667266846 5.381171226501465 -0.0445093996822834
7.891807556152344 5.379016876220703 -0.04435072839260101
7.865178108215332 5.384805202484131 -0.044265154749155045
7.828476905822754 5.383572578430176 -0.04411935806274414
7.814117908477783 5.398321628570557 -0.044105153530836105
7.768610954284668 5.39073371887207 -0.04391059651970863
7.749151706695557 5.4011383056640625 -0.043864909559488297
7.709101676940918 5.397679328918457 -0.04370243847370148
7.679701805114746 5.40087890625 -0.04359939694404602
7.638906955718994 5.395965576171875 -0.04343051835894585
7.62322998046875 5.409289836883545 -0.043367717415094376
7.587123394012451 5.407376289367676 -0.04375341534614563
7.555932521820068 5.409524440765381 -0.0436408668756485
7.528778076171875 5.413750648498535 -0.04354887455701828
7.500722408294678 5.417225360870361 -0.0434517003595829
7.465945243835449 5.416414260864258 -0.04331659525632858
7.438710689544678 5.420252799987793 -0.043223943561315536
7.396838665008545 5.437580585479736 -0.04311278834939003
7.342596054077148 5.421213150024414 -0.04286138340830803
7.297854900360107 5.435815811157227 -0.042695652693510056
7.2692036628723145 5.4379658699035645 -0.04259256646037102
7.228979110717773 5.431998252868652 -0.04242485761642456
7.215962886810303 5.445683479309082 -0.04190374165773392
7.183450698852539 5.444581508636475 -0.041778985410928726
7.157721519470215 5.449194431304932 -0.04169704392552376
7.120009899139404 5.443860054016113 -0.04154244810342789
7.099859714508057 5.452526569366455 -0.041494179517030716
7.074214458465576 5.456207752227783 -0.04141059145331383
7.028883934020996 5.444544792175293 -0.041209422051906586
7.017996788024902 5.460139274597168 -0.041214726865291595
6.97965669631958 5.453598976135254 -0.04105556756258011
6.972315788269043 5.471203804016113 -0.04107975959777832
6.93002986907959 5.461982250213623 -0.04085979983210564
6.918059349060059 5.475859642028809 -0.04085729271173477
6.887643337249756 5.475119590759277 -0.040744904428720474
6.85360050201416 5.47194242477417 -0.04061134532094002
6.83650541305542 5.481562614440918 -0.04057826101779938
6.798083305358887 5.474655628204346 -0.04041760414838791
6.785029888153076 5.487394332885742 -0.040410012006759644
6.753130912780762 5.48481559753418 -0.039754968136548996
6.720477104187012 5.482162952423096 -0.039632804691791534
6.703155040740967 5.491238117218018 -0.039596524089574814
6.6709136962890625 5.487998962402344 -0.03947334364056587
6.649421215057373 5.494178295135498 -0.039416588842868805
6.625461578369141 5.497556686401367 -0.03934159874916077
6.599562644958496 5.499279499053955 -0.039256516844034195
6.577305793762207 5.5045342445373535 -0.039193425327539444
6.545730113983154 5.501246929168701 -0.03907358646392822
6.515678882598877 5.499783515930176 -0.03896268084645271
6.493349552154541 5.50405216217041 -0.03889770433306694
6.473246097564697 5.510137557983398 -0.03884515166282654
6.451042175292969 5.515046119689941 -0.03830244019627571
6.43100643157959 5.521058559417725 -0.03825127333402634
6.394723892211914 5.513001918792725 -0.03810303285717964
6.3755364418029785 5.520246505737305 -0.038058891892433167
6.337361812591553 5.510244369506836 -0.03789748251438141
6.329711437225342 5.527381420135498 -0.037887994199991226
6.292032718658447 5.517535209655762 -0.03677952662110329
6.2747392654418945 5.52544641494751 -0.03674767166376114
6.245490550994873 5.523421764373779 -0.036608461290597916
6.213720321655273 5.518347263336182 -0.036488257348537445
6.197123050689697 5.526653289794922 -0.03645850718021393
6.176783561706543 5.5322489738464355 -0.036409083753824234
6.146110534667969 5.527805805206299 -0.03582611307501793
6.107235908508301 5.539544105529785 -0.035736311227083206
6.079975605010986 5.5378594398498535 -0.035642847418785095
6.059062957763672 5.542539119720459 -0.035589054226875305
6.048598766326904 5.556065559387207 -0.03559701144695282
6.013490200042725 5.546869277954102 -0.03545713052153587
5.998552322387695 5.556854248046875 -0.0354393869638443
5.967175483703613 5.550841808319092 -0.035321760922670364
5.941000938415527 5.549534797668457 -0.03523492440581322
5.912390232086182 5.546508312225342 -0.03513580933213234
5.884361743927002 5.543216228485107 -0.034542515873909
5.836759567260742 5.544953346252441 -0.03440074622631073
5.839533805847168 5.5706892013549805 -0.034486353397369385
5.795753002166748 5.5526204109191895 -0.034295953810214996
5.782097339630127 5.562596321105957 -0.034283582121133804
5.768343925476074 5.572460651397705 -0.03423634171485901
5.736138820648193 5.565087795257568 -0.03230245038866997
5.709020614624023 5.561822891235352 -0.032213881611824036
5.689729690551758 5.566721439361572 -0.032172754406929016
5.6705427169799805 5.571075439453125 -0.03212979435920715
5.648139476776123 5.572147369384766 -0.03206757828593254
5.620165824890137 5.568290710449219 -0.031976595520973206
5.602584362030029 5.573958396911621 -0.031942568719387054
5.573049068450928 5.567633628845215 -0.031839195638895035
5.55817174911499 5.5765461921691895 -0.031822528690099716
5.549840927124023 5.59134578704834 -0.03180810064077377
5.50933313369751 5.57362174987793 -0.031196175143122673
5.500917434692383 5.588937282562256 -0.031216749921441078
5.4733428955078125 5.584053993225098 -0.031125560402870178
5.445980548858643 5.57993221282959 -0.03103756532073021
5.440805435180664 5.597823619842529 -0.031074723228812218
5.413098335266113 5.592489719390869 -0.03098278120160103
5.390136241912842 5.592625141143799 -0.030919035896658897
5.374948978424072 5.600078105926514 -0.030898677185177803
5.347964763641357 5.595160484313965 -0.030810225754976273
5.322903633117676 5.592811107635498 -0.030734410509467125
5.303394317626953 5.595518589019775 -0.030251597985625267
5.294094562530518 5.608973503112793 -0.030265875160694122
5.264134407043457 5.60115385055542 -0.030128998681902885
5.2434539794921875 5.602400779724121 -0.030043242499232292
5.218826770782471 5.599382400512695 -0.028666917234659195
5.208265781402588 5.6119914054870605 -0.028675388544797897
5.180898666381836 5.605787754058838 -0.028587287291884422
5.158048152923584 5.605039596557617 -0.02852766029536724
5.135635852813721 5.603978633880615 -0.028467489406466484
5.112145900726318 5.601640701293945 -0.02797205001115799
5.099984169006348 5.6123456954956055 -0.027971167117357254
5.072532653808594 5.605464458465576 -0.027884047478437424
5.063526630401611 5.6195454597473145 -0.02790076844394207
5.044373989105225 5.621754169464111 -0.02785988710820675
5.017609119415283 5.615325450897217 -0.027776548638939857
5.0029730796813965 5.623076438903809 -0.027729038149118423
4.9760050773620605 5.616191387176514 -0.027643272653222084
4.966340065002441 5.628772735595703 -0.027654990553855896
4.941799640655518 5.6251349449157715 -0.02758537419140339
4.930094242095947 5.6353535652160645 -0.027160707861185074
4.897833824157715 5.6462860107421875 -0.027113964781165123
4.867671966552734 5.635097503662109 -0.027011599391698837
4.834821701049805 5.621298313140869 -0.026895059272646904
4.83221960067749 5.641912460327148 -0.026946308091282845
4.806885719299316 5.635964393615723 -0.026869406923651695
4.788802623748779 5.6391167640686035 -0.02683616802096367
4.776183605194092 5.647970676422119 -0.026799213141202927
4.7528228759765625 5.644059181213379 -0.025060318410396576
4.733766555786133 5.645864486694336 -0.025023203343153
4.716813087463379 5.649415493011475 -0.024963950738310814
4.696111679077148 5.6484055519104 -0.024915987625718117
4.668493747711182 5.639651298522949 -0.02483288012444973
4.658056259155273 5.650874137878418 -0.02442452684044838
4.638072490692139 5.651185512542725 -0.02438340149819851
4.611126899719238 5.642189025878906 -0.024303197860717773
4.600910663604736 5.653591632843018 -0.024311015382409096
4.589081764221191 5.663727760314941 -0.024312755092978477
4.571882247924805 5.666500568389893 -0.024283770471811295
4.557998180389404 5.673342704772949 -0.024272356182336807
4.522167682647705 5.65343713760376 -0.024145616218447685
4.518486976623535 5.672929763793945 -0.02418898046016693
4.499382972717285 5.673723220825195 -0.024120008572936058
4.4867939949035645 5.682078838348389 -0.023705461993813515
4.447902202606201 5.656923294067383 -0.023561634123325348
4.442690372467041 5.675204277038574 -0.02359849028289318
4.415274620056152 5.664361476898193 -0.023514840751886368
4.402734279632568 5.672511577606201 -0.023510774597525597
4.384065628051758 5.673439025878906 -0.02347656339406967
4.367658615112305 5.676515579223633 -0.023451322689652443
4.344089031219482 5.670241355895996 -0.023387692868709564
4.327356338500977 5.673413276672363 -0.02333163097500801
4.316104888916016 5.683081150054932 -0.022525768727064133
4.300178050994873 5.687293529510498 -0.022505979984998703
4.279521465301514 5.684455871582031 -0.0224591251462698
4.266682147979736 5.691944599151611 -0.022454073652625084
4.240771293640137 5.6826324462890625 -0.022381437942385674
4.234792709350586 5.699257850646973 -0.02241242676973343
4.2007951736450195 5.678079128265381 -0.022294670343399048
4.197893142700195 5.699581623077393 -0.021942351013422012
4.172613620758057 5.689949989318848 -0.021841157227754593
4.154666900634766 5.6902008056640625 -0.02180895209312439
4.141874313354492 5.69819974899292 -0.021805614233016968
4.124579429626465 5.6992363929748535 -0.021777117624878883
4.1103010177612305 5.705127239227295 -0.021766116842627525
4.090341567993164 5.702338218688965 -0.02172287553548813
4.0674262046813965 5.695309638977051 -0.021663784980773926
4.0580363273620605 5.707902908325195 -0.021678796038031578
4.032852649688721 5.697479724884033 -0.021211564540863037
4.018237590789795 5.701887130737305 -0.021196873858571053
4.005840301513672 5.7101616859436035 -0.021165382117033005
3.9881060123443604 5.710050582885742 -0.021134356036782265
3.947014331817627 5.702221870422363 -0.02104351855814457
3.9375221729278564 5.713809490203857 -0.021056529134511948
3.91310453414917 5.7044196128845215 -0.020990697667002678
3.8951916694641113 5.703644752502441 -0.020957887172698975
3.893608570098877 5.726808071136475 -0.021013565361499786
3.8602211475372314 5.703869819641113 -0.020868899300694466
3.8537938594818115 5.719908714294434 -0.02089850977063179
3.8201541900634766 5.7218337059021 -0.020846376195549965
3.8096389770507812 5.73180627822876 -0.020463798195123672
3.7843875885009766 5.720283508300781 -0.020393384620547295
3.763639211654663 5.714657306671143 -0.02034549042582512
3.7454335689544678 5.712788105010986 -0.020311135798692703
3.7413063049316406 5.7331647872924805 -0.02035536989569664
3.7069926261901855 5.706421852111816 -0.02023235894739628
3.7062315940856934 5.731250762939453 -0.020264191552996635
3.688288927078247 5.730312824249268 -0.020232973620295525
3.671405553817749 5.7301764488220215 -0.020205600187182426
3.6555819511413574 5.731628894805908 -0.019798384979367256
3.6379191875457764 5.730902194976807 -0.019769001752138138
3.627455949783325 5.740713596343994 -0.01977689191699028
3.609351396560669 5.739175319671631 -0.01974475383758545
3.5925800800323486 5.738899230957031 -0.019718192517757416
3.5784382820129395 5.742772579193115 -0.019706452265381813
3.5624146461486816 5.74436092376709 -0.019656075164675713
3.5372118949890137 5.730236530303955 -0.01920037530362606
3.529815196990967 5.745622634887695 -0.01922701857984066
3.5122904777526855 5.7438435554504395 -0.01995968073606491
3.4948792457580566 5.7421088218688965 -0.019928419962525368
3.4834282398223877 5.7508649826049805 -0.019934210926294327
3.4681224822998047 5.75255823135376 -0.01991424523293972
3.449692964553833 5.748935699462891 -0.01987667754292488
3.4336228370666504 5.749960899353027 -0.01944606564939022
3.41870379447937 5.752060890197754 -0.01942928321659565
3.402482509613037 5.751911640167236 -0.019404670223593712
3.3825204372406006 5.746143341064453 -0.019360607489943504
3.373823404312134 5.758671760559082 -0.019380005076527596
3.3597795963287354 5.762890338897705 -0.019369596615433693
3.340715169906616 5.757617473602295 -0.019328517839312553
3.324064016342163 5.756405353546143 -0.01892448030412197
6.544905662536621 -12.238709449768066 -0.013891337439417839
6.626685619354248 -12.206476211547852 -0.013959789648652077
6.749184608459473 -12.247858047485352 -0.01484663411974907
6.812248229980469 -12.240066528320312 -0.0148735661059618
6.84950590133667 -12.247130393981934 -0.014958496205508709
6.917551517486572 -12.24743938446045 -0.01499510183930397
6.941925048828125 -12.23124885559082 -0.014992152340710163
7.006775856018066 -12.225288391113281 -0.015023329295217991
7.037204265594482 -12.219529151916504 -0.015092398971319199
7.106516361236572 -12.220586776733398 -0.01593371108174324
7.149266242980957 -12.235603332519531 -0.015971237793564796
7.2143402099609375 -12.2284517288208 -0.015194607898592949
7.242983818054199 -12.218992233276367 -0.015204356983304024
7.30834436416626 -12.211716651916504 -0.015293655917048454
7.412050724029541 -12.210143089294434 -0.015349031426012516
8.284785270690918 -12.161601066589355 -0.017797289416193962
8.380775451660156 -12.137807846069336 -0.0178403090685606
8.497037887573242 -12.140750885009766 -0.017985466867685318
8.606622695922852 -12.134222984313965 -0.018900813534855843
8.676054954528809 -12.125042915344238 -0.01894192397594452
8.713951110839844 -12.123306274414062 -0.01902870461344719
8.754558563232422 -12.12662124633789 -0.019063230603933334
8.786762237548828 -12.11660385131836 -0.01907922700047493
8.82554817199707 -12.117100715637207 -0.019108077511191368
8.865791320800781 -12.119425773620605 -0.019140303134918213
8.896885871887207 -12.10756778717041 -0.020003575831651688
8.938009262084961 -12.110780715942383 -0.020042192190885544
8.972757339477539 -12.105098724365234 -0.020062517374753952
9.01242733001709 -12.10458755493164 -0.02015635184943676
9.047430992126465 -12.099102973937988 -0.020180590450763702
9.085626602172852 -12.097646713256836 -0.02021002769470215
9.171080589294434 -12.105035781860352 -0.020285138860344887
9.19768238067627 -12.08784294128418 -0.02029050700366497
9.282742500305176 -12.093708038330078 -0.020429445430636406
9.380921363830566 -12.063727378845215 -0.02134745568037033
9.505699157714844 -12.066874504089355 -0.021520845592021942
9.62548828125 -12.062162399291992 -0.02162139117717743
9.724607467651367 -12.030461311340332 -0.022555718198418617
10.512458801269531 -11.994213104248047 -0.026239829137921333
10.594338417053223 -11.985424995422363 -0.026319371536374092
10.633560180664062 -11.978236198425293 -0.02635350078344345
10.717876434326172 -11.97265338897705 -0.026439640671014786
10.776595115661621 -11.986721992492676 -0.028348760679364204
10.852205276489258 -11.970418930053711 -0.02841838262975216
10.900300979614258 -11.972077369689941 -0.028544051572680473
10.98653507232666 -11.96653938293457 -0.029564863070845604
11.016983985900879 -11.948470115661621 -0.02957853488624096
11.071344375610352 -11.957437515258789 -0.02965625375509262
11.112600326538086 -11.952146530151367 -0.029700640588998795
11.1543607711792 -11.94588851928711 -0.0298163965344429
11.207469940185547 -11.952840805053711 -0.02988826483488083
11.249975204467773 -11.947025299072266 -0.02993357926607132
11.294809341430664 -11.944873809814453 -0.029987093061208725
11.332229614257812 -11.934637069702148 -0.030957339331507683
11.382503509521484 -11.936513900756836 -0.031022388488054276
11.42530632019043 -11.931624412536621 -0.031140530481934547
11.463468551635742 -11.921852111816406 -0.03118092566728592
11.512482643127441 -11.921847343444824 -0.031242523342370987
11.645318984985352 -11.908669471740723 -0.03139829635620117
11.693496704101562 -11.908296585083008 -0.031533271074295044
11.826579093933105 -11.893329620361328 -0.034475237131118774
11.961845397949219 -11.879057884216309 -0.03472394868731499
12.113807678222656 -11.879645347595215 -0.03494749590754509
12.67889404296875 -11.8218355178833 -0.03782276809215546
12.841142654418945 -11.823084831237793 -0.03815334290266037
12.980834007263184 -11.801782608032227 -0.04019157961010933
13.123602867126465 -11.781740188598633 -0.04047920182347298
13.234525680541992 -11.781041145324707 -0.0406685397028923
13.294089317321777 -11.784706115722656 -0.04178358241915703
13.39462661743164 -11.77346420288086 -0.04201872646808624
13.44235897064209 -11.766060829162598 -0.04209401458501816
13.495781898498535 -11.762101173400879 -0.042181774973869324
13.562390327453613 -11.770618438720703 -0.0423094816505909
13.59434986114502 -11.748983383178711 -0.04233715683221817
13.655449867248535 -11.751025199890137 -0.042447417974472046
13.715850830078125 -11.753448486328125 -0.04263569414615631
13.770451545715332 -11.750764846801758 -0.04375770315527916
13.819062232971191 -11.741421699523926 -0.04383343085646629
13.874381065368652 -11.7388334274292 -0.043929778039455414
13.919546127319336 -11.726217269897461 -0.04399322345852852
13.969396591186523 -11.718637466430664 -0.044076330959796906
14.022089004516602 -11.713349342346191 -0.044166624546051025
14.089567184448242 -11.7188081741333 -0.04437434673309326
14.145181655883789 -11.715386390686035 -0.04447181150317192
14.195652961730957 -11.70760726928711 -0.04544460028409958
14.261689186096191 -11.710969924926758 -0.046622149646282196
14.295975685119629 -11.689538955688477 -0.0466567799448967
14.362115859985352 -11.693971633911133 -0.04679206758737564
14.424224853515625 -11.693391799926758 -0.04691182076931
14.476288795471191 -11.685897827148438 -0.04700232297182083
14.5262451171875 -11.676519393920898 -0.04822255298495293
14.582855224609375 -11.670830726623535 -0.04833019897341728
14.75712776184082 -11.658869743347168 -0.04866287484765053
14.810796737670898 -11.6514310836792 -0.04876023903489113
14.940549850463867 -11.651982307434082 -0.04910306632518768
14.98585319519043 -11.637380599975586 -0.05025077611207962
16.014368057250977 -11.543819427490234 -0.054524194449186325
16.078083038330078 -11.539121627807617 -0.054659653455019
16.20530891418457 -11.52734088897705 -0.055011603981256485
16.25702667236328 -11.513398170471191 -0.05510535463690758
16.391109466552734 -11.505012512207031 -0.055395979434251785
16.457319259643555 -11.500580787658691 -0.0555381141602993
16.588851928710938 -11.488822937011719 -0.05704904720187187
16.660676956176758 -11.487481117248535 -0.057213421911001205
16.721969604492188 -11.477116584777832 -0.0573405958712101
16.77212905883789 -11.460413932800293 -0.05743353068828583
16.853376388549805 -11.464699745178223 -0.057626716792583466
16.925748825073242 -11.461118698120117 -0.05778984725475311
16.997316360473633 -11.458205223083496 -0.05795112997293472
17.045324325561523 -11.439193725585938 -0.05812450498342514
17.128232955932617 -11.441841125488281 -0.05922957882285118
17.19525718688965 -11.435078620910645 -0.05712047964334488
17.253755569458008 -11.421003341674805 -0.05723559483885765
17.313053131103516 -11.408550262451172 -0.05735444277524948
17.396854400634766 -11.412065505981445 -0.05755160376429558
17.462242126464844 -11.4016752243042 -0.058871395885944366
17.52228355407715 -11.38908576965332 -0.05899425595998764
17.59615135192871 -11.385226249694824 -0.05916362628340721
17.671009063720703 -11.380182266235352 -0.05942298471927643
17.743667602539062 -11.374950408935547 -0.05958673357963562
17.805055618286133 -11.362238883972168 -0.059713803231716156
17.882274627685547 -11.357831954956055 -0.05989080294966698
17.959365844726562 -11.354561805725098 -0.06006934121251106
18.01968765258789 -11.34031867980957 -0.060194723308086395
18.102872848510742 -11.338861465454102 -0.06160346418619156
18.17706298828125 -11.332880020141602 -0.061865758150815964
18.326766967773438 -11.31931209564209 -0.062212470918893814
18.387340545654297 -11.304079055786133 -0.06234007328748703
18.53451156616211 -11.287275314331055 -0.06267745047807693
18.613786697387695 -11.282665252685547 -0.06286563724279404
18.76148796081543 -11.264425277709961 -0.0645374283194542
18.83311653137207 -11.254220008850098 -0.06451807171106339
18.988204956054688 -11.238752365112305 -0.06112571060657501
19.05790138244629 -11.226556777954102 -0.061275776475667953
19.681724548339844 -11.15188980102539 -0.06404933333396912
19.93025016784668 -11.12777328491211 -0.06472654640674591
20.090396881103516 -11.107954025268555 -0.0650956928730011
20.183591842651367 -11.103360176086426 -0.06662848591804504
20.418716430664062 -11.066067695617676 -0.06727220118045807
20.596296310424805 -11.051855087280273 -0.06770450621843338
20.675048828125 -11.037405967712402 -0.06788721680641174
20.75621223449707 -11.025446891784668 -0.0678786188364029
20.841894149780273 -11.01393985748291 -0.06416258215904236
20.925216674804688 -11.002482414245605 -0.06568707525730133
21.008289337158203 -10.990571975708008 -0.06586754322052002
21.078027725219727 -10.969768524169922 -0.0660058856010437
21.1658935546875 -10.959735870361328 -0.06619986891746521
21.2503719329834 -10.947505950927734 -0.06638236343860626
21.345121383666992 -10.938793182373047 -0.06659696251153946
21.419414520263672 -10.92080020904541 -0.06674933433532715
21.50189208984375 -10.906580924987793 -0.0670296847820282
21.58905029296875 -10.892979621887207 -0.06721870601177216
21.682342529296875 -10.883659362792969 -0.06742791831493378
21.76180648803711 -10.866957664489746 -0.06898106634616852
21.842668533325195 -10.849211692810059 -0.06915812194347382
21.93935203552246 -10.840530395507812 -0.06938108056783676
22.024633407592773 -10.824193000793457 -0.0695701614022255
22.09853744506836 -10.80363655090332 -0.06972434371709824
22.184789657592773 -10.788711547851562 -0.07001212239265442
22.2519474029541 -10.762763023376465 -0.07014356553554535
22.252010345458984 -10.70587158203125 -0.07007467746734619
22.234975814819336 -10.640800476074219 -0.0699530690908432
22.229257583618164 -10.579870223999023 -0.06986671686172485
22.23628807067871 -10.526566505432129 -0.07122192531824112
22.188379287719727 -10.446030616760254 -0.0710015520453453
22.199174880981445 -10.394891738891602 -0.07086730003356934
22.1982364654541 -10.33823013305664 -0.06660487502813339
22.17414093017578 -10.269529342651367 -0.06656765937805176
22.158946990966797 -10.206700325012207 -0.06645997613668442
22.170961380004883 -10.156410217285156 -0.06643097847700119
22.141843795776367 -10.030576705932617 -0.0662195235490799
22.12282371520996 -9.966575622558594 -0.06610232591629028
22.09149932861328 -9.8407564163208 -0.0658862516283989
22.063167572021484 -9.662371635437012 -0.06709900498390198
22.04755401611328 -9.49079704284668 -0.06686004251241684
22.021883010864258 -9.316089630126953 -0.06660415977239609
22.037261962890625 -9.213371276855469 -0.06798835843801498
22.023235321044922 -9.153862953186035 -0.06788892298936844
21.932035446166992 -9.007822036743164 -0.06749910861253738
21.90970802307129 -8.94410514831543 -0.06727883219718933
21.90338706970215 -8.835541725158691 -0.06454899162054062
21.899646759033203 -8.726978302001953 -0.06442853063344955
21.873092651367188 -8.557449340820312 -0.06419096887111664
21.849109649658203 -8.494394302368164 -0.06407207995653152
21.85597801208496 -8.44489574432373 -0.06413179636001587
21.861257553100586 -8.394736289978027 -0.0640963613986969
21.814666748046875 -8.323516845703125 -0.06391387432813644
21.815824508666992 -8.272136688232422 -0.06386463344097137
21.796152114868164 -8.212882995605469 -0.0650874525308609
21.779918670654297 -8.153776168823242 -0.06498691439628601
21.765777587890625 -8.096923828125 -0.06489238142967224
21.775278091430664 -8.049056053161621 -0.06486522406339645
21.762619018554688 -7.991674900054932 -0.06486804038286209
21.763328552246094 -7.940622806549072 -0.06481675058603287
21.722909927368164 -7.822469234466553 -0.06459349393844604
21.712841033935547 -7.767881393432617 -0.06451117247343063
21.693918228149414 -7.60761833190918 -0.06561999768018723
21.623628616333008 -7.53123140335083 -0.0627528578042984
21.580120086669922 -7.465802192687988 -0.0625828355550766
21.54714012145996 -7.404361724853516 -0.062441401183605194
21.510366439819336 -7.340481758117676 -0.0622900053858757
21.492700576782227 -7.2845964431762695 -0.06219450384378433
21.463655471801758 -7.2251296043396 -0.06335950642824173
21.44674301147461 -7.168561935424805 -0.06326548010110855
21.4210205078125 -7.1104841232299805 -0.06323711574077606
21.402727127075195 -7.053782939910889 -0.06313986331224442
21.36339569091797 -6.991611003875732 -0.06298460811376572
21.338443756103516 -6.934453010559082 -0.06287309527397156
21.29629898071289 -6.870588302612305 -0.06270566582679749
18.761728286743164 -6.009847164154053 -0.05534056946635246
18.769256591796875 -5.969340801239014 -0.0553220734000206
18.740432739257812 -5.873382568359375 -0.05516492575407028
18.719850540161133 -5.780551910400391 -0.05622949078679085
18.73621368408203 -5.742955207824707 -0.056240152567625046
18.680265426635742 -5.639854907989502 -0.05601276457309723
18.788925170898438 -5.630142688751221 -0.0563013069331646
18.870548248291016 -5.525559902191162 -0.057688772678375244
19.063854217529297 -5.495099067687988 -0.05817953124642372
19.178447723388672 -5.485049724578857 -0.05847704038023949
19.481342315673828 -5.483028888702393 -0.059288136661052704
18.849720001220703 -5.219686985015869 -0.057375818490982056
18.7797908782959 -5.15838623046875 -0.058172475546598434
18.800579071044922 -5.079044342041016 -0.0582444854080677
18.713037490844727 -5.013750076293945 -0.05793662741780281
18.766986846923828 -4.985260963439941 -0.05806518346071243
18.862638473510742 -4.96878719329834 -0.05832367390394211
18.913057327270508 -4.94011926651001 -0.05842631310224533
18.98272132873535 -4.915021896362305 -0.05861794203519821
19.073272705078125 -4.8962554931640625 -0.0588628314435482
18.58071517944336 -4.728734493255615 -0.05729789659380913
18.711320877075195 -4.719435691833496 -0.05770013481378555
18.843711853027344 -4.711256980895996 -0.05931999161839485
18.59075927734375 -4.605929851531982 -0.058541439473629
18.735445022583008 -4.6004414558410645 -0.058943651616573334
18.755390167236328 -4.56409215927124 -0.058973703533411026
18.61187744140625 -4.446228981018066 -0.06043216213583946
18.586210250854492 -4.399346351623535 -0.06032121926546097
18.609603881835938 -4.362922668457031 -0.06036469712853432
18.572607040405273 -4.313608646392822 -0.060216374695301056
18.574007034301758 -4.272218704223633 -0.0601927675306797
18.570058822631836 -4.2306718826293945 -0.06014934554696083
18.565351486206055 -4.189091682434082 -0.0611879825592041
18.76459312438965 -4.151078701019287 -0.06186335161328316
20.55613899230957 -4.41203498840332 -0.06757793575525284
20.511842727661133 -4.358020305633545 -0.0674067810177803
20.511009216308594 -4.312069892883301 -0.06737208366394043
20.49797248840332 -4.264931678771973 -0.06730105727910995
20.494173049926758 -4.21857213973999 -0.06725788116455078
20.471479415893555 -4.16955041885376 -0.06715556979179382
20.467313766479492 -4.124485492706299 -0.0671987310051918
20.44135856628418 -4.073833465576172 -0.06827203929424286
20.438404083251953 -4.0291643142700195 -0.06823528558015823
20.416038513183594 -3.980759382247925 -0.06813478469848633
20.412330627441406 -3.9347925186157227 -0.0680956244468689
20.38957405090332 -3.88653826713562 -0.06799327582120895
20.39533042907715 -3.8437912464141846 -0.06789899617433548
20.380313873291016 -3.7521519660949707 -0.07134021818637848
20.37195587158203 -3.706921339035034 -0.07128031551837921
20.36438751220703 -3.6606175899505615 -0.07122790813446045
20.341657638549805 -3.5681629180908203 -0.07109247893095016
20.351808547973633 -3.526425838470459 -0.07227659225463867
20.34694480895996 -3.482106924057007 -0.07223360240459442
20.321374893188477 -3.4330644607543945 -0.07211650907993317
20.31829261779785 -3.3891913890838623 -0.07216285914182663
20.294261932373047 -3.341911554336548 -0.07205527275800705
20.267269134521484 -3.293012857437134 -0.07193431258201599
20.219512939453125 -3.2422006130218506 -0.07174336910247803
20.177902221679688 -3.148423671722412 -0.07155178487300873
20.150390625 -3.101310968399048 -0.07143084704875946
20.146556854248047 -3.056678295135498 -0.07139474153518677
20.13088607788086 -3.0115766525268555 -0.07131681591272354
20.13401222229004 -2.9693405628204346 -0.07246346771717072
20.117942810058594 -2.9230730533599854 -0.07238385826349258
20.100967407226562 -2.8780252933502197 -0.07238613814115524
20.08496856689453 -2.8332128524780273 -0.07230488210916519
20.06230926513672 -2.743894577026367 -0.07201570272445679
20.05850601196289 -2.700899124145508 -0.07544166594743729
20.029691696166992 -2.6535511016845703 -0.07531337440013885
20.013113021850586 -2.6091060638427734 -0.07522954791784286
20.017131805419922 -2.5661540031433105 -0.07522404193878174
20.008220672607422 -2.522819757461548 -0.0751701071858406
19.98089599609375 -2.4772613048553467 -0.07619660347700119
19.955074310302734 -2.4307878017425537 -0.07607782632112503
19.96120262145996 -2.3895070552825928 -0.07608205825090408
19.952831268310547 -2.346515655517578 -0.07611288875341415
19.934223175048828 -2.3011651039123535 -0.07602286338806152
19.89901351928711 -2.2133684158325195 -0.07585432380437851
19.8731632232666 -2.1676065921783447 -0.07573995739221573
19.864681243896484 -2.1249775886535645 -0.075689896941185
19.85917091369629 -2.0814883708953857 -0.07565171271562576
19.8398380279541 -2.0378470420837402 -0.07556168735027313
19.84233856201172 -1.9965018033981323 -0.07555460929870605
19.824655532836914 -1.9519530534744263 -0.07547201216220856
19.795162200927734 -1.9075802564620972 -0.07647664844989777
19.787809371948242 -1.865435004234314 -0.07643384486436844
19.759157180786133 -1.8201571702957153 -0.07630850374698639
19.760910034179688 -1.7789708375930786 -0.07638143748044968
19.730255126953125 -1.7337292432785034 -0.07624979317188263
19.711273193359375 -1.6908482313156128 -0.07591946423053741
19.714468002319336 -1.6499168872833252 -0.07929667830467224
19.684158325195312 -1.6050434112548828 -0.07916171103715897
19.656034469604492 -1.56169593334198 -0.07903619855642319
19.64614486694336 -1.5198088884353638 -0.0789831355214119
19.648038864135742 -1.4778192043304443 -0.07897742837667465
19.639774322509766 -1.4362170696258545 -0.07893254607915878
19.651884078979492 -1.3960283994674683 -0.07896754145622253
19.60972023010254 -1.3510178327560425 -0.07878819853067398
19.604536056518555 -1.3097901344299316 -0.07883718609809875
19.574541091918945 -1.2250041961669922 -0.0798117145895958
19.56462860107422 -1.1836296319961548 -0.0797610953450203
19.567617416381836 -1.1418620347976685 -0.07976316660642624
19.525060653686523 -1.0987272262573242 -0.07958012819290161
19.50465965270996 -1.0569796562194824 -0.07948881387710571
19.495187759399414 -1.0147026777267456 -0.07944118976593018
19.47478485107422 -0.9731215834617615 -0.07934959977865219
19.45590591430664 -0.8900533318519592 -0.07925714552402496
19.445724487304688 -0.8491532802581787 -0.07920828461647034
19.416423797607422 -0.7659614682197571 -0.07915636897087097
19.40325927734375 -0.6029930114746094 -0.08104892820119858
19.37019920349121 -0.5605491995811462 -0.08090589195489883
19.359798431396484 -0.5200415253639221 -0.08196016401052475
19.36860466003418 -0.47997790575027466 -0.08199295401573181
19.34479522705078 -0.4381192922592163 -0.08188818395137787
19.328571319580078 -0.3976224958896637 -0.08181636035442352
19.315134048461914 -0.35606878995895386 -0.08175604045391083
19.31360626220703 -0.3159489631652832 -0.08174675703048706
19.301013946533203 -0.2756006717681885 -0.08169140666723251
19.262371063232422 -0.23397217690944672 -0.08160529285669327
19.280794143676758 -0.19417959451675415 -0.08168035745620728
19.26074981689453 -0.15392526984214783 -0.08159450441598892
19.253509521484375 -0.11281482130289078 -0.08156247437000275
19.237957000732422 -0.07280022650957108 -0.08149629831314087
19.205888748168945 -0.03274333477020264 -0.08136031776666641
23.277896881103516 0.008524621836841106 0.09187249839305878
23.218992233276367 0.1062888577580452 0.09154510498046875
23.186750411987305 0.1542598307132721 0.09141923487186432
23.17559814453125 0.20237773656845093 0.09137608110904694
23.158613204956055 0.25161105394363403 0.0913112610578537
23.161577224731445 0.299809992313385 0.09132599830627441
23.151086807250977 0.34904491901397705 0.09128738194704056
22.983776092529297 0.683373749256134 0.08934686332941055
22.946374893188477 0.7300196290016174 0.08920708298683167
22.909378051757812 0.7777408361434937 0.08907035738229752
22.8981876373291 0.8250316381454468 0.08903299272060394
22.875120162963867 0.8730401992797852 0.08885648101568222
22.854198455810547 0.9197413921356201 0.08878187835216522
22.83901023864746 0.9667004346847534 0.08873160928487778
22.7838134765625 1.0130335092544556 0.08880608528852463
22.719945907592773 1.0574398040771484 0.08727078884840012
22.686752319335938 1.1031744480133057 0.08715186268091202
22.67270278930664 1.150951623916626 0.08581507205963135
22.644254684448242 1.1967183351516724 0.08571658283472061
22.606895446777344 1.24308443069458 0.08549179881811142
22.573314666748047 1.2882291078567505 0.08537457883358002
22.547382354736328 1.33379065990448 0.0852866917848587
22.523984909057617 1.3806043863296509 0.08520906418561935
22.473398208618164 1.4243214130401611 0.08502858132123947
22.459548950195312 1.470338225364685 0.0849875807762146
22.412158966064453 1.5152324438095093 0.08482015877962112
22.379669189453125 1.559696912765503 0.08470889180898666
22.362916946411133 1.605262041091919 0.08465814590454102
22.336448669433594 1.6512384414672852 0.08457086980342865
22.27515411376953 1.739784836769104 0.08436508476734161
22.260208129882812 1.7863757610321045 0.08432284742593765
22.206361770629883 1.8762097358703613 0.08414803445339203
22.170923233032227 1.9195610284805298 0.08402848243713379
22.117490768432617 2.0088140964508057 0.08259376138448715
22.102109909057617 2.053670644760132 0.0825519859790802
22.04587745666504 2.1421291828155518 0.08381886780261993
21.96843719482422 2.2741026878356934 0.08357714116573334
21.91474723815918 2.3618669509887695 0.08340997248888016
21.875980377197266 2.4036238193511963 0.08328124135732651
21.832828521728516 2.491983652114868 0.08315618336200714
21.805932998657227 2.534857749938965 0.08298199623823166
21.778366088867188 2.5787250995635986 0.08289782702922821
21.767009735107422 2.6231963634490967 0.08287523686885834
21.72092056274414 2.6634747982025146 0.08272048085927963
21.693891525268555 2.7071211338043213 0.08263926208019257
21.664907455444336 2.7491748332977295 0.08255048096179962
21.647695541381836 2.7927417755126953 0.08250682801008224
21.620769500732422 2.83614444732666 0.0824270099401474
21.602861404418945 2.8794095516204834 0.08114226162433624
21.564844131469727 2.9199929237365723 0.08102209866046906
21.557533264160156 2.9658212661743164 0.08101820200681686
21.508434295654297 3.004650354385376 0.08085697889328003
21.492019653320312 3.0490870475769043 0.0808195248246193
21.45223045349121 3.088869094848633 0.08069383352994919
21.455093383789062 3.134833335876465 0.08091072738170624
21.393136978149414 3.1723804473876953 0.08193191885948181
21.39873504638672 3.2186079025268555 0.08197876065969467
21.36882781982422 3.2595627307891846 0.08188996464014053
21.327966690063477 3.299875020980835 0.08176024258136749
21.3106632232666 3.3424954414367676 0.08172029256820679
21.28179931640625 3.38332462310791 0.08163648843765259
21.26119041442871 3.426539421081543 0.08158519119024277
21.244247436523438 3.469146490097046 0.08154775947332382
21.204097747802734 3.509019613265991 0.08142226189374924
21.19664764404297 3.5529944896698 0.08142170310020447
21.176956176757812 3.5949819087982178 0.08137468993663788
21.134918212890625 3.6342215538024902 0.08124275505542755
21.12851905822754 3.678278923034668 0.08115706592798233
21.078510284423828 3.7147488594055176 0.08099447190761566
21.060260772705078 3.757845640182495 0.08095494657754898
21.042776107788086 3.7998921871185303 0.08091792464256287
21.02194595336914 3.8424296379089355 0.0808691531419754
21.001855850219727 3.8838133811950684 0.08082269132137299
20.97030258178711 3.92309308052063 0.08073248714208603
20.963987350463867 3.9681897163391113 0.08074057102203369
20.92226791381836 4.005284309387207 0.08061172813177109
20.91456413269043 4.048911094665527 0.08061430603265762
20.873062133789062 4.08706521987915 0.08048773556947708
20.863948822021484 4.130256652832031 0.08066529035568237
20.832239151000977 4.169013500213623 0.08298987150192261
20.805089950561523 4.209733486175537 0.08291728794574738
20.781875610351562 4.2962188720703125 0.0828961506485939
20.731761932373047 4.330739498138428 0.08273192495107651
20.691015243530273 4.413249969482422 0.08264276385307312
20.643550872802734 4.447933673858643 0.08248987048864365
20.57952117919922 4.524913311004639 0.08222007751464844
20.584270477294922 4.570760250091553 0.08227673918008804
20.525379180908203 4.648471832275391 0.08211872726678848
20.435653686523438 4.718715190887451 0.08183875679969788
20.318387985229492 4.736072063446045 0.08140840381383896
20.022567749023438 4.7561116218566895 0.08030273020267487
19.879446029663086 4.765806674957275 0.07976817339658737
19.747087478637695 4.778619289398193 0.07927772402763367
19.612594604492188 4.789177417755127 0.07877756655216217
19.49060821533203 4.8023576736450195 0.07832752913236618
19.346343994140625 4.8105854988098145 0.07778876274824142
19.204164505004883 4.817570686340332 0.07734107971191406
19.08133888244629 4.828956127166748 0.07912234216928482
18.97089195251465 4.844064235687256 0.0787070170044899
18.83766746520996 4.851709365844727 0.07819570600986481
18.719701766967773 4.862856864929199 0.07774780690670013
18.596839904785156 4.873287677764893 0.0772802084684372
18.492074966430664 4.886951923370361 0.07688724249601364
18.374269485473633 4.897752285003662 0.0764404684305191
18.271282196044922 4.910932540893555 0.07605445384979248
18.13995361328125 4.916104316711426 0.07554981112480164
18.057636260986328 4.935144901275635 0.07525097578763962
17.9395694732666 4.94290828704834 0.07480151206254959
17.829757690429688 4.952566146850586 0.07438647747039795
17.689899444580078 4.954365253448486 0.07384654879570007
17.579233169555664 4.9627366065979 0.07342730462551117
17.47951316833496 4.973852157592773 0.07305391877889633
17.399600982666016 4.991236686706543 0.07276422530412674
17.27493667602539 4.994297504425049 0.07228603959083557
17.15813636779785 4.999215126037598 0.07184059172868729
17.058216094970703 5.009581089019775 0.07146663963794708
16.978723526000977 5.024611473083496 0.07117753475904465
16.85418128967285 5.026859283447266 0.07069998979568481
16.755767822265625 5.035395622253418 0.0703306570649147
16.64584732055664 5.040126323699951 0.06991299241781235
16.57539176940918 5.057396411895752 0.07170405983924866
16.384517669677734 5.074681282043457 0.07097014784812927
16.28203582763672 5.079993724822998 0.07057157158851624
16.096521377563477 5.096599578857422 0.06985960155725479
16.02629852294922 5.110981464385986 0.06960126012563705
15.827397346496582 5.121083736419678 0.06883033365011215
15.720525741577148 5.122567176818848 0.06841154396533966
15.56571102142334 5.144735336303711 0.06783156841993332
15.401840209960938 5.162622928619385 0.06721173226833344
15.318734169006348 5.170151233673096 0.06689539551734924
15.159493446350098 5.187623977661133 0.06629488617181778
15.055731773376465 5.1870436668396 0.06588812172412872
14.900139808654785 5.203740119934082 0.06530256569385529
14.80880069732666 5.206345558166504 0.06494936347007751
14.666589736938477 5.225852966308594 0.06442195177078247
14.576669692993164 5.227929592132568 0.06414029747247696
14.518473625183105 5.242088317871094 0.06568624079227448
14.425657272338867 5.2424397468566895 0.06531494855880737
14.361861228942871 5.253090858459473 0.06507544964551926
14.2703218460083 5.254129409790039 0.06471119076013565
14.220870971679688 5.269460201263428 0.0645366907119751
14.127781867980957 5.268404483795166 0.06416387856006622
14.068540573120117 5.280503749847412 0.06394585222005844
13.996158599853516 5.286566257476807 0.06366650015115738
13.931729316711426 5.296197414398193 0.06342479586601257
13.842158317565918 5.295048713684082 0.06306692957878113
13.772010803222656 5.301070213317871 0.0627974346280098
13.706964492797852 5.3096137046813965 0.0625523254275322
13.631749153137207 5.313036918640137 0.06225880980491638
13.565194129943848 5.319616317749023 0.06200556829571724
13.495699882507324 5.325589656829834 0.061739277094602585
13.43352222442627 5.333298206329346 0.06150578707456589
13.352559089660645 5.333323955535889 0.061185576021671295
13.297086715698242 5.344066619873047 0.0609833188354969
13.24283504486084 5.354274749755859 0.06078552082180977
13.163572311401367 5.3549089431762695 0.06047406792640686
13.102882385253906 5.361937046051025 0.06024603545665741
13.024145126342773 5.361362934112549 0.05993488430976868
12.978007316589355 5.374755382537842 0.059775806963443756
12.897270202636719 5.3727006912231445 0.059454645961523056
12.839920043945312 5.3801703453063965 0.0584518164396286
12.776062965393066 5.385462284088135 0.058213070034980774
12.71903133392334 5.392533779144287 0.05800415575504303
12.63546085357666 5.38812780380249 0.05767360329627991
12.584884643554688 5.398298740386963 0.0574951171875
12.511079788208008 5.397470951080322 0.05720941722393036
12.476901054382324 5.414306163787842 0.05710599198937416
12.402109146118164 5.412461280822754 0.056814711540937424
12.356157302856445 5.423022747039795 0.05665569379925728
12.281355857849121 5.421449184417725 0.056365542113780975
12.221160888671875 5.42520809173584 0.05614067241549492
12.15845775604248 5.428493976593018 0.05590573325753212
12.103434562683105 5.434079170227051 0.05570448189973831
11.993766784667969 5.44564962387085 0.05530526116490364
11.942137718200684 5.452127456665039 0.05511889234185219
11.820505142211914 5.4568705558776855 0.05466302111744881
11.769064903259277 5.462779521942139 0.05447736382484436
11.673694610595703 5.478384494781494 0.05414259061217308
11.59888744354248 5.472677707672119 0.0538477823138237
11.55171012878418 5.480618476867676 0.053682900965213776
11.501760482788086 5.4861907958984375 0.05350382253527641
11.385403633117676 5.4896674156188965 0.050917334854602814
11.350854873657227 5.502068996429443 0.05152975767850876
11.239900588989258 5.506865501403809 0.05113089457154274
11.177618980407715 5.505144119262695 0.05095270276069641
11.08527946472168 5.517795085906982 0.050637248903512955
11.040891647338867 5.524319648742676 0.05048675462603569
10.989668846130371 5.528075218200684 0.05030640959739685
10.936176300048828 5.52963399887085 0.05011395737528801
10.902542114257812 5.5411248207092285 0.05001252144575119
10.827853202819824 5.5322442054748535 0.04972390457987785
10.798456192016602 5.545513153076172 0.049641646444797516
10.744369506835938 5.546002388000488 0.04944591596722603
10.69549560546875 5.549684524536133 0.04927533492445946
10.652308464050293 5.555362701416016 0.049129366874694824
