VERSION .7
FIELDS x y z
SIZE 4 4 4
TYPE F F F
COUNT 1 1 1
WIDTH 846
HEIGHT 1
VIEWPOINT 0 0 0 1 0 0 0
POINTS 846
DATA ascii
36.59841537475586 3.7862937450408936 0.8026052713394165
36.45354461669922 3.8499348163604736 0.7996072173118591
36.333839416503906 3.9135496616363525 0.7971577048301697
36.110679626464844 4.043425559997559 0.7904097437858582
35.970672607421875 4.103348255157471 0.7875313758850098
35.7574577331543 4.231649875640869 0.7832460403442383
35.37989807128906 4.412673473358154 0.7733923196792603
35.029178619384766 4.5928425788879395 0.7663426399230957
34.37553405761719 4.949582576751709 0.7448686361312866
34.173851013183594 5.06549596786499 0.7388383746147156
34.02043151855469 5.116960048675537 0.7357571125030518
33.832664489746094 5.234519004821777 0.7321665287017822
33.73085403442383 5.290463924407959 0.7301108837127686
33.570247650146484 5.410227298736572 0.7251326441764832
33.46798324584961 5.46502685546875 0.7231673002243042
33.36126708984375 5.520793914794922 0.7211146950721741
33.264198303222656 5.575675010681152 0.7192637920379639
33.174835205078125 5.631499290466309 0.7174955606460571
33.076515197753906 5.687530994415283 0.7136679887771606
32.94758605957031 5.735780715942383 0.7111438512802124
32.85652160644531 5.7902913093566895 0.7094358801841736
32.74897766113281 5.843411445617676 0.7073761224746704
32.37174606323242 5.845444202423096 0.6994044184684753
32.04999542236328 5.858070373535156 0.6908166408538818
31.73878288269043 5.8692779541015625 0.6843694448471069
31.417701721191406 5.877355575561523 0.6777082085609436
31.128475189208984 5.892101287841797 0.6716570258140564
30.836612701416016 5.903167724609375 0.6653789281845093
30.5444393157959 5.913052558898926 0.6557003855705261
30.247365951538086 5.9225263595581055 0.649512767791748
29.916488647460938 5.9222283363342285 0.6426706910133362
29.62530517578125 5.930380344390869 0.6366867423057556
29.375 5.943702697753906 0.6298184990882874
29.069339752197266 5.944676399230957 0.6235287189483643
28.56877326965332 5.967766761779785 0.6132491827011108
28.28944969177246 5.970789432525635 0.6058285236358643
27.7908992767334 5.987851619720459 0.595612108707428
27.040700912475586 6.004417896270752 0.5787127614021301
26.351335525512695 6.025417327880859 0.5646881461143494
25.26645851135254 6.057150840759277 0.5396676063537598
25.071208953857422 6.066939830780029 0.5357722640037537
24.64459991455078 6.07215690612793 0.5284099578857422
24.453615188598633 6.080471515655518 0.5245919823646545
24.035940170288086 6.084212303161621 0.5146629810333252
23.833209991455078 6.085551738739014 0.510591447353363
23.654870986938477 6.092397212982178 0.5070408582687378
23.44886016845703 6.092717170715332 0.5029025077819824
23.254289627075195 6.093705654144287 0.497531920671463
23.08651351928711 6.102475166320801 0.49422013759613037
22.943605422973633 6.115667343139648 0.49143144488334656
22.751619338989258 6.115152359008789 0.4875902533531189
22.573959350585938 6.119074821472168 0.48263341188430786
22.4054012298584 6.123323917388916 0.47930026054382324
22.202850341796875 6.117574214935303 0.47523823380470276
22.0449275970459 6.124699115753174 0.4707396328449249
21.86741065979004 6.124289035797119 0.46721938252449036
21.685522079467773 6.123337745666504 0.46361157298088074
21.540708541870117 6.130740642547607 0.4607866406440735
21.381103515625 6.133367538452148 0.45628589391708374
21.243574142456055 6.143001556396484 0.45362964272499084
21.078542709350586 6.142707347869873 0.45037683844566345
20.907167434692383 6.139925003051758 0.4469867944717407
20.755590438842773 6.143544673919678 0.44270363450050354
20.621353149414062 6.1503825187683105 0.44005557894706726
20.44316864013672 6.144824981689453 0.43902766704559326
20.28733253479004 6.143916606903076 0.4358985722064972
20.141931533813477 6.145543098449707 0.4330475628376007
19.87267303466797 6.154990196228027 0.42659610509872437
19.448486328125 6.157867908477783 0.41706743836402893
19.04645538330078 6.1626362800598145 0.4092167913913727
18.66758918762207 6.169958591461182 0.4007016718387604
18.053577423095703 6.177989482879639 0.386562705039978
17.931846618652344 6.179104804992676 0.3842375576496124
17.678415298461914 6.174028396606445 0.37820965051651
17.567096710205078 6.1772356033325195 0.37610924243927
17.334209442138672 6.177494525909424 0.37382784485816956
17.213193893432617 6.174654960632324 0.37149345874786377
17.102008819580078 6.174908638000488 0.36932265758514404
17.024234771728516 6.187917709350586 0.36686915159225464
16.913484573364258 6.187427520751953 0.3647584319114685
16.801721572875977 6.18726921081543 0.3626321256160736
16.680492401123047 6.1819658279418945 0.3592054545879364
16.560529708862305 6.176671981811523 0.3568972945213318
16.470773696899414 6.183258533477783 0.35524672269821167
16.376434326171875 6.186647415161133 0.3524189889431
16.27512550354004 6.187048435211182 0.35051506757736206
16.176557540893555 6.189111709594727 0.3486754596233368
16.06578254699707 6.1849799156188965 0.34551265835762024
15.976812362670898 6.1899495124816895 0.34388306736946106
15.869372367858887 6.186229228973389 0.3418457508087158
15.796958923339844 6.195842266082764 0.3395267426967621
15.682828903198242 6.1897196769714355 0.3373565375804901
15.57893180847168 6.1861090660095215 0.3353971242904663
15.493528366088867 6.1894965171813965 0.33281558752059937
15.405096054077148 6.192315578460693 0.3311990201473236
15.320765495300293 6.195379257202148 0.3296620547771454
15.20604133605957 6.1857805252075195 0.32646653056144714
15.148296356201172 6.199991226196289 0.32551050186157227
15.023835182189941 6.18552827835083 0.323153555393219
14.84285831451416 6.184205055236816 0.3216971755027771
14.780393600463867 6.194252014160156 0.3205796778202057
14.584752082824707 6.184600830078125 0.31597262620925903
14.342997550964355 6.188754081726074 0.3105771541595459
14.109039306640625 6.193304061889648 0.3054071068763733
13.721592903137207 6.1958394050598145 0.29661285877227783
13.481314659118652 6.189667701721191 0.2913481295108795
13.409889221191406 6.1915507316589355 0.29005107283592224
13.265159606933594 6.192634105682373 0.28658831119537354
13.187158584594727 6.189582824707031 0.28432828187942505
13.115408897399902 6.189193248748779 0.28482872247695923
13.040514945983887 6.1879048347473145 0.2834888696670532
12.982992172241211 6.193650245666504 0.2816387116909027
12.901330947875977 6.188560485839844 0.2801532745361328
12.848215103149414 6.1959123611450195 0.2792789340019226
12.773197174072266 6.192480564117432 0.27706006169319153
12.70595932006836 6.193399429321289 0.2758875787258148
12.635087966918945 6.191336631774902 0.2737680971622467
12.574358940124512 6.19401216506958 0.27273029088974
12.499185562133789 6.190157890319824 0.27057063579559326
12.449018478393555 6.197515964508057 0.2697261571884155
12.36646842956543 6.188516616821289 0.2682154178619385
12.31498908996582 6.195645332336426 0.26657959818840027
12.250155448913574 6.1949567794799805 0.26541829109191895
12.187640190124512 6.1960320472717285 0.26434966921806335
12.123903274536133 6.195324897766113 0.26241394877433777
12.064116477966309 6.196419715881348 0.2613980770111084
11.992396354675293 6.191955089569092 0.25930577516555786
11.945646286010742 6.199249267578125 0.25857245922088623
11.886972427368164 6.200183868408203 0.2575807273387909
11.80705738067627 6.190582275390625 0.25532057881355286
11.743426322937012 6.188363075256348 0.25422194600105286
11.636876106262207 6.194931507110596 0.25167304277420044
11.58692455291748 6.199273109436035 0.2509740889072418
11.471240043640137 6.199658393859863 0.24823559820652008
11.290369033813477 6.193929672241211 0.24437303841114044
11.11348819732666 6.188101768493652 0.23986177146434784
11.025115966796875 6.199865818023682 0.23848271369934082
10.961240768432617 6.193921089172363 0.2366430163383484
10.846234321594238 6.189341068267822 0.23395821452140808
10.690359115600586 6.189805507659912 0.23064404726028442
10.643903732299805 6.193268775939941 0.22992636263370514
10.527559280395508 6.184237957000732 0.22722038626670837
10.49185848236084 6.193413734436035 0.22602280974388123
10.432748794555664 6.187788009643555 0.2249939739704132
10.403980255126953 6.200769901275635 0.22395087778568268
10.33476734161377 6.188619136810303 0.22270521521568298
10.29750919342041 6.195413589477539 0.22086964547634125
10.245654106140137 6.194025993347168 0.22000886499881744
10.184547424316406 6.1860175132751465 0.21827606856822968
10.137581825256348 6.186325550079346 0.21751302480697632
10.104333877563477 6.195662498474121 0.21639025211334229
10.042513847351074 6.18650484085083 0.2153412252664566
10.001707077026367 6.190843105316162 0.21471798419952393
9.940383911132812 6.181454181671143 0.2129926085472107
9.911548614501953 6.192116737365723 0.21261905133724213
9.866436958312988 6.193241119384766 0.21125368773937225
9.824130058288574 6.195178031921387 0.21059250831604004
9.78017520904541 6.195863723754883 0.20924904942512512
9.728199005126953 6.192061901092529 0.20838890969753265
9.675472259521484 6.1867876052856445 0.20686335861682892
9.631209373474121 6.187474250793457 0.2061687409877777
9.57544231414795 6.179757118225098 0.20524901151657104
9.551525115966797 6.192472457885742 0.20434656739234924
9.48948860168457 6.181049346923828 0.20327134430408478
9.455585479736328 6.186986923217773 0.20215976238250732
9.413410186767578 6.1873273849487305 0.20150257647037506
9.371956825256348 6.188754558563232 0.20024122297763824
9.327831268310547 6.187488555908203 0.19954326748847961
9.287497520446777 6.188526153564453 0.19830265641212463
9.227306365966797 6.1769232749938965 0.19726963341236115
9.186344146728516 6.1771464347839355 0.19540324807167053
9.121269226074219 6.189328670501709 0.19389864802360535
9.066828727722168 6.179906368255615 0.19237284362316132
8.998088836669922 6.188713073730469 0.1907983422279358
8.85092830657959 6.169819355010986 0.187810018658638
8.782342910766602 6.177131175994873 0.18624937534332275
8.727721214294434 6.165823936462402 0.18473778665065765
8.66830062866211 6.17873477935791 0.18337929248809814
8.620343208312988 6.171568870544434 0.1826353818178177
8.550681114196777 6.176328659057617 0.181064635515213
8.501213073730469 6.168241500854492 0.17965425550937653
8.462407112121582 6.166965484619141 0.17910455167293549
8.421211242675781 6.163741111755371 0.1784757673740387
8.397543907165527 6.173977375030518 0.17764393985271454
8.353976249694824 6.168726444244385 0.17696548998355865
8.318596839904785 6.169319152832031 0.17588193714618683
8.292149543762207 6.1772050857543945 0.17557404935359955
8.248400688171387 6.171272277832031 0.17251135408878326
8.211726188659668 6.170454025268555 0.17201171815395355
8.168536186218262 6.165347099304199 0.17075781524181366
8.135197639465332 6.166723728179932 0.1703280806541443
8.09781551361084 6.165637016296387 0.1691993623971939
8.050679206848145 6.156215667724609 0.16848152875900269
8.028125762939453 6.1654133796691895 0.16765864193439484
7.987415790557861 6.161285877227783 0.1670825481414795
7.94816780090332 6.157394886016846 0.16591554880142212
7.917864799499512 6.160996437072754 0.16555646061897278
7.893498420715332 6.1684112548828125 0.1647028774023056
7.856272220611572 6.165623188018799 0.16416673362255096
7.828267574310303 6.170679569244385 0.1632736325263977
7.77168607711792 6.152303218841553 0.16236016154289246
7.753282070159912 6.163949966430664 0.16163748502731323
7.708583831787109 6.15530252456665 0.1609533727169037
7.684699058532715 6.162422180175781 0.16014620661735535
7.649627208709717 6.16042423248291 0.1596554070711136
7.625637054443359 6.168005466461182 0.15885649621486664
7.5873284339904785 6.163109302520752 0.1582985371351242
7.539781093597412 6.151235580444336 0.15701238811016083
7.519232749938965 6.160538196563721 0.15682458877563477
7.4789886474609375 6.153548717498779 0.15568508207798004
7.440629959106445 6.1486897468566895 0.1551346629858017
7.416468143463135 6.154668807983398 0.15318232774734497
7.395734786987305 6.163424015045166 0.15299227833747864
7.352336406707764 6.153919219970703 0.15180623531341553
7.322190284729004 6.154572486877441 0.15086349844932556
7.2928266525268555 6.155762195587158 0.15052126348018646
7.258339881896973 6.153253555297852 0.14949969947338104
7.240056991577148 6.1636223793029785 0.14938579499721527
7.170877933502197 6.157002925872803 0.147915318608284
7.122859477996826 6.14149808883667 0.14661340415477753
7.107718467712402 6.154963970184326 0.14657196402549744
7.06234884262085 6.1413679122924805 0.14532750844955444
6.993932247161865 6.133791923522949 0.14388246834278107
6.974120140075684 6.142066478729248 0.14373643696308136
6.919661521911621 6.146042823791504 0.14255689084529877
6.881060600280762 6.137349605560303 0.14148518443107605
6.867875099182129 6.151981353759766 0.1414593756198883
6.825449466705322 6.13955545425415 0.14031170308589935
6.799040794372559 6.141374588012695 0.14000606536865234
6.758795261383057 6.131289482116699 0.1389140486717224
6.751621246337891 6.15037202835083 0.13900381326675415
6.716983318328857 6.14509391784668 0.13802868127822876
6.6873908042907715 6.143594264984131 0.13655005395412445
6.654268741607666 6.138677597045898 0.13560505211353302
6.627607822418213 6.140340805053711 0.13530436158180237
6.606662750244141 6.146463871002197 0.13461004197597504
6.55526876449585 6.1240763664245605 0.13379862904548645
6.541617393493652 6.137546062469482 0.13323931396007538
6.507842063903809 6.131300449371338 0.13280999660491943
6.485429763793945 6.135639667510986 0.13206684589385986
6.447916507720947 6.126304626464844 0.13105010986328125
6.42852783203125 6.133316993713379 0.13089068233966827
6.383269309997559 6.116238117218018 0.12971912324428558
6.377193927764893 6.1358513832092285 0.12983013689517975
6.346230983734131 6.131472110748291 0.12894323468208313
6.327400207519531 6.139467239379883 0.12880338728427887
6.291887283325195 6.1304097175598145 0.12782636284828186
6.264714241027832 6.130043983459473 0.12751653790473938
6.2417216300964355 6.132984161376953 0.12677380442619324
6.219374179840088 6.136445045471191 0.12657801806926727
6.188037395477295 6.131637096405029 0.1256742626428604
6.161491870880127 6.130758285522461 0.12539361417293549
6.136809825897217 6.131595611572266 0.12462084740400314
6.103133678436279 6.124056816101074 0.12369698286056519
6.069991111755371 6.116132736206055 0.12325974553823471
6.051833629608154 6.123199462890625 0.12262290716171265
6.037743091583252 6.135101795196533 0.12205421924591064
6.000962257385254 6.1230926513671875 0.12104452401399612
5.975754261016846 6.123451232910156 0.1207989975810051
5.945744514465332 6.118081569671631 0.11992871016263962
5.9355597496032715 6.1330156326293945 0.11948046833276749
5.908496379852295 6.131206512451172 0.11917660385370255
5.873315334320068 6.120066165924072 0.11820551007986069
5.849579811096191 6.120707988739014 0.11798324435949326
5.8309173583984375 6.127333641052246 0.11735391616821289
5.799803256988525 6.12001895904541 0.11698328703641891
5.77579402923584 6.120071887969971 0.11624138057231903
5.744333267211914 6.1128435134887695 0.11587067693471909
5.731797695159912 6.124924182891846 0.1153615415096283
5.704646587371826 6.122072696685791 0.11456716805696487
5.682092666625977 6.123297214508057 0.1143694519996643
5.654239654541016 6.118698596954346 0.11355532705783844
5.617184162139893 6.104711055755615 0.11307307332754135
5.604672431945801 6.116539478302002 0.11256954818964005
5.553552150726318 6.11223030090332 0.11155515164136887
5.532487392425537 6.114493370056152 0.11136452853679657
5.485816955566406 6.114475727081299 0.10996153950691223
5.463080406188965 6.1146135330200195 0.10975950956344604
5.451389312744141 6.127825736999512 0.10926488041877747
5.425175189971924 6.123902797698975 0.10897284001111984
5.401594638824463 6.122837066650391 0.10827700048685074
5.368744373321533 6.111868858337402 0.1078588142991066
5.348517894744873 6.114386558532715 0.10723285377025604
5.333942413330078 6.1240739822387695 0.10670644789934158
5.3072190284729 6.118985176086426 0.10640455782413483
5.271712779998779 6.103591442108154 0.1054755374789238
5.258674621582031 6.114853858947754 0.10545419156551361
5.237316131591797 6.1156439781188965 0.10480964928865433
5.204268932342529 6.102643013000488 0.10438080877065659
5.184298038482666 6.105593204498291 0.10377348959445953
5.169873237609863 6.114277362823486 0.10324971377849579
5.1409831047058105 6.1057634353637695 0.10290467739105225
5.121704578399658 6.109307765960693 0.10231426358222961
5.101412296295166 6.110815048217773 0.10214093327522278
5.070416450500488 6.100129127502441 0.10131783783435822
5.053861618041992 6.105943202972412 0.10121912509202957
5.028481960296631 6.101012229919434 0.10048135370016098
5.0153679847717285 6.111655235290527 0.10001814365386963
4.979833126068115 6.09409761428833 0.0995410904288292
4.972602367401123 6.111086845397949 0.09918907284736633
4.949085712432861 6.1087965965271 0.09895943850278854
4.924028396606445 6.1037211418151855 0.09823296964168549
4.899961471557617 6.1004767417907715 0.0984484851360321
4.8804216384887695 6.102076053619385 0.09783352166414261
4.859757900238037 6.102156639099121 0.09765242040157318
4.845119953155518 6.110518932342529 0.09716466069221497
4.819021701812744 6.103579044342041 0.09687469154596329
4.793514728546143 6.097245693206787 0.09616315364837646
4.778076648712158 6.104403018951416 0.09564156085252762
4.758724212646484 6.105741500854492 0.09550759196281433
4.738936424255371 6.107215404510498 0.09490028023719788
4.706471920013428 6.091435432434082 0.09448278695344925
4.692690372467041 6.099719524383545 0.0940106064081192
4.671813011169434 6.099499702453613 0.09338411688804626
4.652016639709473 6.0998334884643555 0.09322091192007065
4.62090539932251 6.085186958312988 0.09240420162677765
4.614573955535889 6.103879451751709 0.09251785278320312
4.590898036956787 6.0988287925720215 0.09185080975294113
4.565061569213867 6.0907721519470215 0.09156665205955505
4.544739723205566 6.090726375579834 0.09095584601163864
4.527335166931152 6.093743324279785 0.09041699022054672
4.507075786590576 6.093624591827393 0.0902521088719368
4.480587005615234 6.084178924560547 0.08953309059143066
4.472955226898193 6.1002888679504395 0.08961334824562073
4.451276779174805 6.097998142242432 0.08897888660430908
4.423898696899414 6.086976051330566 0.08824450522661209
4.402470111846924 6.084000587463379 0.08892611414194107
4.394001483917236 6.099690914154053 0.08855915069580078
4.376669406890869 6.102293968200684 0.08802627772092819
4.350552558898926 6.093287944793701 0.08774252235889435
4.3296332359313965 6.090709686279297 0.08713927119970322
4.319247722625732 6.102879047393799 0.08716516941785812
4.292592525482178 6.092777252197266 0.08643476665019989
4.263033390045166 6.077569484710693 0.08565977960824966
4.254561901092529 6.092345714569092 0.08572378754615784
4.23462438583374 6.091475963592529 0.08515077829360962
4.21644401550293 6.092259407043457 0.0845869779586792
4.195493221282959 6.088986396789551 0.08440079540014267
4.163373947143555 6.070050239562988 0.08358512818813324
4.156551837921143 6.087146282196045 0.0836821123957634
4.138765335083008 6.088988780975342 0.08313628286123276
4.119709491729736 6.088090896606445 0.08257777243852615
4.099438667297363 6.08530330657959 0.08240503817796707
4.085694789886475 6.092950820922852 0.08196177333593369
4.0648417472839355 6.089132308959961 0.08177743852138519
4.041430950164795 6.081354141235352 0.08111444860696793
4.02046537399292 6.0779337882995605 0.08052847534418106
4.003012180328369 6.078925132751465 0.08041217178106308
3.988858938217163 6.084920883178711 0.07995669543743134
3.9767603874206543 6.094787120819092 0.07995550334453583
3.945122241973877 6.073802471160889 0.0795726329088211
3.9234859943389893 6.068833351135254 0.07937848567962646
3.9203031063079834 6.0915985107421875 0.07912749797105789
3.900780439376831 6.088992595672607 0.07856596261262894
3.8815207481384277 6.087520122528076 0.07842078059911728
3.8513569831848145 6.0679545402526855 0.07764581590890884
3.8444416522979736 6.085719108581543 0.07774899899959564
3.824939489364624 6.082801818847656 0.0771714374423027
3.800758123397827 6.072274208068848 0.07651923596858978
3.789252281188965 6.082746505737305 0.0765300840139389
3.7684710025787354 6.077452659606934 0.0759284496307373
3.7498273849487305 6.075500011444092 0.07538969069719315
3.7353625297546387 6.08109188079834 0.07534106820821762
3.7187671661376953 6.082339763641357 0.07484438270330429
3.6943438053131104 6.070664882659912 0.07458745688199997
3.6707451343536377 6.061004638671875 0.07393970340490341
3.6675541400909424 6.084194183349609 0.0737147107720375
3.6490209102630615 6.082800388336182 0.07358452677726746
3.6264545917510986 6.073719024658203 0.07295165210962296
3.604621410369873 6.0657148361206055 0.07235340774059296
3.593623399734497 6.0767292976379395 0.07237444072961807
3.5741395950317383 6.072509288787842 0.07182415574789047
3.556290864944458 6.070968151092529 0.07169991731643677
3.533780336380005 6.062197208404541 0.07107868790626526
3.5225930213928223 6.0719313621521 0.07112547010183334
6.358206272125244 -12.02490234375 0.1569553017616272
6.388298988342285 -12.021378517150879 0.15787699818611145
6.40915060043335 -11.99869155883789 0.15858887135982513
6.43565559387207 -11.988382339477539 0.1586647778749466
6.462388038635254 -11.978464126586914 0.15954159200191498
6.504449844360352 -11.995037078857422 0.16074378788471222
6.510753154754639 -11.947427749633789 0.1603226363658905
6.5546064376831055 -11.966984748840332 0.16160547733306885
6.593355178833008 -11.978665351867676 0.1626373529434204
6.636047840118408 -11.997225761413574 0.16391316056251526
6.666681289672852 -11.992051124572754 0.16403654217720032
6.703003883361816 -11.998687744140625 0.1651562750339508
6.759350776672363 -11.980766296386719 0.16613975167274475
6.796213150024414 -11.987906455993652 0.16727524995803833
6.857607364654541 -11.978337287902832 0.16842222213745117
6.894596099853516 -11.98519515991211 0.16952694952487946
6.925304889678955 -11.979296684265137 0.1704970747232437
6.962015151977539 -11.985328674316406 0.1716342568397522
6.981179237365723 -11.961099624633789 0.17149436473846436
7.030555725097656 -11.986807823181152 0.17292636632919312
7.0503339767456055 -11.963567733764648 0.17364920675754547
7.08638334274292 -11.967820167541504 0.17392435669898987
7.128502368927002 -11.980572700500488 0.1751815378665924
7.154098987579346 -11.967008590698242 0.17605091631412506
7.185291767120361 -11.962677955627441 0.17620640993118286
7.229428768157959 -11.978188514709473 0.177515909075737
7.259943962097168 -11.972517013549805 0.17850950360298157
7.2855377197265625 -11.957036972045898 0.1785101592540741
7.326852321624756 -11.968873977661133 0.17977029085159302
7.357841491699219 -11.96367073059082 0.18077853322029114
7.377744674682617 -11.938800811767578 0.18056616187095642
7.4269208908081055 -11.962796211242676 0.18366633355617523
7.457568645477295 -11.956647872924805 0.18466971814632416
7.484601020812988 -11.943163871765137 0.18470710515975952
7.521740436553955 -11.947256088256836 0.1858735978603363
7.557465553283691 -11.947319030761719 0.18698859214782715
7.5838942527771 -11.934208869934082 0.18702885508537292
7.6253662109375 -11.94456958770752 0.18830488622188568
7.658237934112549 -11.939818382263184 0.1893153041601181
7.682878017425537 -11.923713684082031 0.18934929370880127
7.726422309875488 -11.936745643615723 0.1906794160604477
7.751885414123535 -11.920251846313477 0.19150975346565247
7.776823997497559 -11.904474258422852 0.1915525496006012
7.827438831329346 -11.927749633789062 0.19305987656116486
7.853213310241699 -11.911544799804688 0.19390101730823517
7.8835954666137695 -11.90379810333252 0.19407866895198822
7.921745300292969 -11.906074523925781 0.19526413083076477
7.958675861358643 -11.907925605773926 0.1964017003774643
8.003116607666016 -11.92072868347168 0.19692498445510864
8.030370712280273 -11.906352043151855 0.19784608483314514
8.061067581176758 -11.898526191711426 0.19883295893669128
8.091949462890625 -11.890828132629395 0.19902309775352478
8.1356782913208 -11.900415420532227 0.20035365223884583
8.16264820098877 -11.886844635009766 0.20125187933444977
8.20557975769043 -11.896318435668945 0.2016625702381134
8.237781524658203 -11.888652801513672 0.20524707436561584
8.268001556396484 -11.879528999328613 0.20542381703853607
8.306829452514648 -11.881104469299316 0.20660389959812164
8.34012222290039 -11.876166343688965 0.20770469307899475
8.415461540222168 -11.87678050994873 0.20922201871871948
8.440415382385254 -11.859748840332031 0.21011801064014435
8.51687240600586 -11.861123085021973 0.21166810393333435
8.593685150146484 -11.86233139038086 0.21322786808013916
8.627758979797363 -11.857494354248047 0.214357390999794
8.699186325073242 -11.850433349609375 0.21578748524188995
8.733428001403809 -11.845468521118164 0.21692529320716858
8.811929702758789 -11.847159385681152 0.21853533387184143
8.842063903808594 -11.836302757263184 0.21957498788833618
8.917949676513672 -11.83361530303955 0.22112523019313812
8.946268081665039 -11.820077896118164 0.22208315134048462
8.980828285217285 -11.813213348388672 0.22235387563705444
9.032137870788574 -11.829670906066895 0.223924919962883
9.06441879272461 -11.820945739746094 0.22763486206531525
9.13570785522461 -11.810637474060059 0.22908636927604675
9.170720100402832 -11.805133819580078 0.22938768565654755
9.19966983795166 -11.790390968322754 0.2303551882505417
9.25351333618164 -11.808786392211914 0.23200707137584686
9.28067398071289 -11.792893409729004 0.23211170732975006
9.332928657531738 -11.807371139526367 0.23366829752922058
9.366323471069336 -11.799203872680664 0.23480930924415588
9.405898094177246 -11.797216415405273 0.23517003655433655
9.43047046661377 -11.777811050415039 0.2360929250717163
9.470833778381348 -11.777976989746094 0.2374127209186554
9.516568183898926 -11.783285140991211 0.23792876303195953
9.548766136169434 -11.77308464050293 0.23904751241207123
9.593219757080078 -11.777787208557129 0.23954790830612183
9.626775741577148 -11.767621040344238 0.24068614840507507
9.673161506652832 -11.774316787719727 0.2421640306711197
9.704606056213379 -11.761341094970703 0.24232186377048492
9.736825942993164 -11.750631332397461 0.24344879388809204
9.78823471069336 -11.762838363647461 0.2450169324874878
9.813920021057129 -11.742656707763672 0.24507223069667816
9.891059875488281 -11.73556137084961 0.24671615660190582
9.942431449890137 -11.745566368103027 0.2483113408088684
9.979514122009277 -11.739883422851562 0.24965102970600128
10.023167610168457 -11.741710662841797 0.2528785169124603
10.066964149475098 -11.742189407348633 0.2533505856990814
10.091757774353027 -11.721792221069336 0.2543050944805145
10.136795043945312 -11.72336196899414 0.2557143568992615
10.178740501403809 -11.722613334655762 0.25619903206825256
10.259788513183594 -11.715921401977539 0.257945716381073
10.277060508728027 -11.686624526977539 0.2587188184261322
10.378165245056152 -11.701848030090332 0.2609764635562897
10.418130874633789 -11.697921752929688 0.26228585839271545
10.497796058654785 -11.687891006469727 0.2640506327152252
10.540000915527344 -11.68600845336914 0.2654208242893219
10.582847595214844 -11.683234214782715 0.26591256260871887
10.625589370727539 -11.681607246398926 0.26729899644851685
10.713316917419434 -11.678862571716309 0.26923424005508423
10.74608325958252 -11.66589069366455 0.27041706442832947
10.797890663146973 -11.671995162963867 0.27109241485595703
10.825128555297852 -11.652835845947266 0.2721388638019562
10.871062278747559 -11.6536283493042 0.27272725105285645
10.920475959777832 -11.656637191772461 0.27427542209625244
10.951737403869629 -11.641491889953613 0.27648937702178955
11.013054847717285 -11.658040046691895 0.2783622145652771
11.034372329711914 -11.630793571472168 0.2792509198188782
11.08106803894043 -11.631575584411621 0.27986371517181396
11.118456840515137 -11.622369766235352 0.28113681077957153
11.166482925415039 -11.622824668884277 0.2817666530609131
11.212311744689941 -11.622156143188477 0.28325727581977844
11.269023895263672 -11.631113052368164 0.2841045558452606
11.309931755065918 -11.624964714050293 0.2854742109775543
11.349189758300781 -11.616985321044922 0.2868480384349823
11.388792037963867 -11.607810974121094 0.2872222661972046
11.440226554870605 -11.611933708190918 0.2889057397842407
11.470132827758789 -11.59400463104248 0.2890514135360718
11.528803825378418 -11.603687286376953 0.29090481996536255
11.565813064575195 -11.592721939086914 0.2912311553955078
11.614842414855957 -11.593585014343262 0.2928599715232849
11.656085014343262 -11.585209846496582 0.2942357063293457
11.706271171569824 -11.586898803710938 0.2949390113353729
11.756462097167969 -11.586962699890137 0.2965865433216095
11.796366691589355 -11.578132629394531 0.296986848115921
11.847603797912598 -11.580248832702637 0.2986828088760376
11.886775970458984 -11.568988800048828 0.2990460693836212
11.941584587097168 -11.574172973632812 0.30083608627319336
11.985614776611328 -11.567294120788574 0.301321417093277
12.018492698669434 -11.550950050354004 0.3027389943599701
12.075267791748047 -11.557406425476074 0.3035643398761749
12.125515937805176 -11.555970191955566 0.305229127407074
12.16544246673584 -11.545941352844238 0.3056301772594452
12.204339981079102 -11.53481388092041 0.30703064799308777
12.305176734924316 -11.532391548156738 0.3093726634979248
12.348400115966797 -11.523448944091797 0.30983966588974
12.392550468444824 -11.516632080078125 0.31137973070144653
12.445651054382324 -11.517938613891602 0.3121130168437958
12.487689018249512 -11.507415771484375 0.3135867416858673
12.537174224853516 -11.504999160766602 0.31522300839424133
12.57763671875 -11.494140625 0.31568488478660583
12.642545700073242 -11.503993034362793 0.317695289850235
12.763715744018555 -11.468402862548828 0.320014625787735
12.826769828796387 -11.47704029083252 0.3220035135746002
12.878801345825195 -11.474151611328125 0.3227398693561554
12.918035507202148 -11.46111011505127 0.32413434982299805
12.974328994750977 -11.463024139404297 0.3249952793121338
13.077682495117188 -11.456635475158691 0.3274340033531189
13.174994468688965 -11.44417667388916 0.32787269353866577
13.23572063446045 -11.448819160461426 0.32981428503990173
13.33351993560791 -11.435604095458984 0.33212050795555115
13.374055862426758 -11.422286987304688 0.3325856924057007
13.42934513092041 -11.41998291015625 0.3343833088874817
13.482320785522461 -11.416906356811523 0.3351578116416931
13.53644847869873 -11.413240432739258 0.3369317054748535
13.57801342010498 -11.400100708007812 0.33742284774780273
13.648652076721191 -11.41120433807373 0.33962857723236084
13.697617530822754 -11.402515411376953 0.3402869701385498
13.759182929992676 -11.405508995056152 0.3422718048095703
13.789083480834961 -11.382100105285645 0.3424745202064514
13.841643333435059 -11.375855445861816 0.34422197937965393
13.900938987731934 -11.376338958740234 0.34510883688926697
13.952071189880371 -11.369921684265137 0.3468906879425049
14.020217895507812 -11.375702857971191 0.3479803502559662
14.066043853759766 -11.364559173583984 0.3496352732181549
14.164861679077148 -11.346137046813965 0.35200896859169006
14.213851928710938 -11.337038040161133 0.3526408076286316
14.277009963989258 -11.337596893310547 0.3536543846130371
14.342300415039062 -11.34099292755127 0.3557562232017517
14.388049125671387 -11.327359199523926 0.3563389480113983
14.42739486694336 -11.309855461120605 0.3535667061805725
14.494848251342773 -11.314248085021973 0.35464367270469666
14.550755500793457 -11.308008193969727 0.3565455377101898
14.617300987243652 -11.311087608337402 0.3575996160507202
14.668581008911133 -11.302180290222168 0.35941022634506226
14.723367691040039 -11.294349670410156 0.36016055941581726
14.768268585205078 -11.280190467834473 0.36177101731300354
14.825345993041992 -11.273782730102539 0.36262843012809753
14.891539573669434 -11.275360107421875 0.36367371678352356
14.934369087219238 -11.259105682373047 0.36529022455215454
14.999675750732422 -11.258230209350586 0.36629921197891235
15.055200576782227 -11.25107479095459 0.36823102831840515
15.116350173950195 -11.247960090637207 0.36915501952171326
15.17740535736084 -11.243098258972168 0.3712119460105896
15.238845825195312 -11.239707946777344 0.372143417596817
15.298470497131348 -11.234742164611816 0.37302929162979126
15.346282958984375 -11.219470977783203 0.3747705817222595
15.411120414733887 -11.217872619628906 0.3757847249507904
15.53364086151123 -11.207280158996582 0.3787875771522522
15.57945442199707 -11.191248893737793 0.3805088400840759
15.648956298828125 -11.190571784973145 0.3816215991973877
15.716315269470215 -11.189519882202148 0.38382411003112793
15.824132919311523 -11.166160583496094 0.3808828890323639
15.883014678955078 -11.158408164978027 0.38179337978363037
16.0172061920166 -11.152231216430664 0.38502657413482666
16.06952667236328 -11.1392183303833 0.38577982783317566
16.218904495239258 -11.14193344116211 0.3894369900226593
16.28179359436035 -11.134078025817871 0.39152806997299194
16.342084884643555 -11.125543594360352 0.39242100715637207
16.41058921813965 -11.12241268157959 0.3947213292121887
16.46271324157715 -11.106552124023438 0.39540430903434753
16.514150619506836 -11.091392517089844 0.39613837003707886
16.60479164123535 -11.102338790893555 0.39892545342445374
16.663127899169922 -11.089906692504883 0.3998098373413086
16.722618103027344 -11.079495429992676 0.4006847143173218
16.784711837768555 -11.069173812866211 0.4027802050113678
16.853578567504883 -11.064412117004395 0.4039337933063507
16.947996139526367 -11.076136589050293 0.40682709217071533
16.99834632873535 -11.057356834411621 0.4074688255786896
17.05825424194336 -11.045950889587402 0.4084075689315796
17.11823844909668 -11.033026695251465 0.410469114780426
17.179630279541016 -11.022202491760254 0.4114459156990051
17.265727996826172 -11.02686595916748 0.414154589176178
17.325027465820312 -11.01276683807373 0.4150125980377197
17.39618492126465 -11.00731372833252 0.4113040268421173
17.470109939575195 -11.003388404846191 0.4125111401081085
17.539764404296875 -10.995060920715332 0.4136006534099579
17.60122299194336 -10.982708930969238 0.4157780408859253
17.684938430786133 -10.98259162902832 0.41720065474510193
17.7579402923584 -10.9769287109375 0.41965940594673157
17.807159423828125 -10.956281661987305 0.42028406262397766
17.89427947998047 -10.957322120666504 0.42178723216056824
17.947471618652344 -10.938682556152344 0.4237877428531647
18.028837203979492 -10.937027931213379 0.42517223954200745
18.089534759521484 -10.92111873626709 0.4260532259941101
18.184297561645508 -10.926838874816895 0.4290444850921631
18.309404373168945 -10.89732551574707 0.4309665262699127
18.379709243774414 -10.887581825256348 0.43333661556243896
18.539995193481445 -10.877314567565918 0.4360883831977844
18.76694679260254 -10.852453231811523 0.4411366283893585
18.996662139892578 -10.826508522033691 0.44626298546791077
19.15032196044922 -10.807490348815918 0.4460557699203491
19.22410774230957 -10.795117378234863 0.4472370743751526
19.39451026916504 -10.78510570526123 0.4515104293823242
19.45145034790039 -10.762499809265137 0.45230063796043396
19.699520111083984 -10.738558769226074 0.45785999298095703
19.779438018798828 -10.728872299194336 0.4591984748840332
19.862289428710938 -10.720526695251465 0.4619828462600708
19.94850730895996 -10.712163925170898 0.4634551405906677
20.023906707763672 -10.699109077453613 0.46468934416770935
20.114120483398438 -10.692206382751465 0.4676436185836792
20.180950164794922 -10.674009323120117 0.4686810374259949
20.278823852539062 -10.671980857849121 0.4704384207725525
20.355636596679688 -10.65700626373291 0.47309499979019165
20.454132080078125 -10.654481887817383 0.47486820816993713
20.617643356323242 -10.629576683044434 0.47768348455429077
20.689868927001953 -10.61245346069336 0.4802035987377167
20.782691955566406 -10.604120254516602 0.4818311631679535
20.868392944335938 -10.593254089355469 0.4833689332008362
20.959043502807617 -10.584626197814941 0.4863302409648895
21.055837631225586 -10.577187538146973 0.488051176071167
21.23678970336914 -10.556318283081055 0.4910220801830292
21.319873809814453 -10.542498588562012 0.4924362897872925
21.41350555419922 -10.53348159790039 0.4940923750400543
21.50094985961914 -10.51958179473877 0.4955911338329315
21.5876407623291 -10.506529808044434 0.49855148792266846
21.668407440185547 -10.490205764770508 0.4999125599861145
21.79048728942871 -10.491978645324707 0.5022112131118774
22.054248809814453 -10.448700904846191 0.5082565546035767
22.14783477783203 -10.436745643615723 0.5099124908447266
22.33263397216797 -10.40911865234375 0.5146578550338745
22.628164291381836 -10.374207496643066 0.5214751362800598
22.91575050354004 -10.332212448120117 0.5265953540802002
23.120220184326172 -10.30746078491211 0.531837522983551
23.223648071289062 -10.294229507446289 0.5337101817131042
23.43525505065918 -10.271790504455566 0.540238082408905
23.540668487548828 -10.258173942565918 0.542230486869812
23.741634368896484 -10.228635787963867 0.5473862290382385
23.829559326171875 -10.206292152404785 0.5489787459373474
23.944923400878906 -10.196874618530273 0.5511472821235657
24.050416946411133 -10.182890892028809 0.5546132922172546
24.139480590820312 -10.159919738769531 0.5561658143997192
24.27348518371582 -10.156999588012695 0.5587659478187561
24.36829376220703 -10.13563060760498 0.5605193376541138
24.49327850341797 -10.127969741821289 0.5629090666770935
24.596263885498047 -10.110836029052734 0.5663456320762634
24.71126937866211 -10.09653377532959 0.5684964656829834
24.829381942749023 -10.084638595581055 0.5708016157150269
24.925601959228516 -10.061819076538086 0.5725187659263611
25.055482864379883 -10.053831100463867 0.5765984654426575
25.26744270324707 -10.015543937683105 0.5805003643035889
25.381149291992188 -9.999642372131348 0.5827065110206604
25.503952026367188 -9.986932754516602 0.5866485238075256
25.610538482666016 -9.965702056884766 0.5886097550392151
25.728200912475586 -9.949982643127441 0.5908375382423401
25.856250762939453 -9.936139106750488 0.5933635234832764
25.98310089111328 -9.923051834106445 0.5958007574081421
26.09868812561035 -9.905105590820312 0.6026473641395569
26.21520233154297 -9.885390281677246 0.6048495769500732
26.329357147216797 -9.866077423095703 0.6086515188217163
26.459482192993164 -9.85218620300293 0.6112602949142456
26.590513229370117 -9.83642864227295 0.613801121711731
26.69927215576172 -9.813641548156738 0.6158394813537598
26.961328506469727 -9.781354904174805 0.622604250907898
27.077245712280273 -9.759790420532227 0.6248113512992859
27.329944610595703 -9.72101879119873 0.6297690868377686
27.71909523010254 -9.663565635681152 0.6390380859375
28.107778549194336 -9.601322174072266 0.6466733813285828
28.383501052856445 -9.562213897705078 0.6538342237472534
28.518836975097656 -9.541953086853027 0.6564931869506836
28.77812385559082 -9.494132041931152 0.6616167426109314
28.923919677734375 -9.473851203918457 0.6645023822784424
17.591215133666992 -5.681108474731445 0.407918244600296
17.668315887451172 -5.6644086837768555 0.41055727005004883
17.762540817260742 -5.653942584991455 0.41247284412384033
17.79083824157715 -5.294451713562012 0.41186201572418213
17.759140014648438 -5.12376594543457 0.4112522602081299
17.552579879760742 -4.785651683807373 0.40590593218803406
17.652639389038086 -4.7735981941223145 0.40798938274383545
17.780628204345703 -4.768584728240967 0.4150680899620056
17.894445419311523 -4.758206844329834 0.4174867272377014
18.03367042541504 -4.755127906799316 0.42046859860420227
19.12372589111328 -4.956566333770752 0.44543713331222534
19.193893432617188 -4.932215213775635 0.4468860924243927
19.23821449279785 -4.857326984405518 0.4474361538887024
19.371994018554688 -4.761758804321289 0.4510054588317871
19.722665786743164 -4.716677188873291 0.45846813917160034
20.335050582885742 -4.7269287109375 0.47204577922821045
36.29292297363281 -8.277654647827148 0.8438588976860046
36.47919464111328 -8.238298416137695 0.8477783203125
36.86024856567383 -8.163614273071289 0.8558375239372253
37.081268310546875 -8.129608154296875 0.860565185546875
37.496421813964844 -8.055273056030273 0.8787732124328613
37.698768615722656 -8.016937255859375 0.8831232786178589
37.911705017089844 -7.979917526245117 0.8877217769622803
38.12566375732422 -7.9400434494018555 0.892332136631012
38.32667922973633 -7.898957252502441 0.8967554569244385
38.56138229370117 -7.8614912033081055 0.9018522500991821
38.77262496948242 -7.82078742980957 0.9064110517501831
39.01694869995117 -7.785736083984375 0.9117436408996582
39.21025085449219 -7.737356662750244 0.9158717393875122
39.4388542175293 -7.697470664978027 0.9231827259063721
39.67453384399414 -7.657925605773926 0.9283257126808167
39.88045120239258 -7.609449863433838 0.9327607154846191
40.124412536621094 -7.569736003875732 0.9380983114242554
40.3416862487793 -7.5215163230896 0.9427989721298218
40.598697662353516 -7.482288837432861 0.948441743850708
40.831783294677734 -7.43755578994751 0.9535244107246399
41.065711975097656 -7.389676570892334 0.9586159586906433
41.31618881225586 -7.346267223358154 0.964104950428009
41.554561614990234 -7.2996110916137695 0.9693115949630737
41.81465148925781 -7.2533650398254395 0.9751281142234802
42.03369903564453 -7.201542377471924 0.9798853397369385
42.283111572265625 -7.153867244720459 0.9853507876396179
42.52704620361328 -7.101841449737549 0.9906795620918274
42.78642654418945 -7.053921222686768 0.9963791370391846
43.28484344482422 -6.948976039886475 1.0127663612365723
43.54789733886719 -6.89841890335083 1.018583059310913
44.052574157714844 -6.788430690765381 1.029708743095398
44.8517951965332 -6.623080730438232 1.0473960638046265
45.69313049316406 -6.454067230224609 1.068771481513977
46.53403854370117 -6.271960735321045 1.087488055229187
47.13862991333008 -6.154234409332275 1.1010113954544067
47.41676330566406 -6.087682723999023 1.107201099395752
48.02393341064453 -5.963008403778076 1.1207914352416992
48.32527542114258 -5.895757675170898 1.1275278329849243
48.96453857421875 -5.764575481414795 1.1418675184249878
49.26185989379883 -5.695959091186523 1.148654580116272
49.94012451171875 -5.561356067657471 1.161379337310791
50.24755096435547 -5.490048885345459 1.168260931968689
50.56114196777344 -5.415037155151367 1.1752794981002808
50.89827346801758 -5.344332218170166 1.1828558444976807
51.22895431518555 -5.271457672119141 1.1902835369110107
51.552146911621094 -5.193582057952881 1.1975319385528564
51.890907287597656 -5.118956089019775 1.2051520347595215
52.27143096923828 -5.046848297119141 1.2137445211410522
52.595401763916016 -4.964888572692871 1.221017599105835
52.95779800415039 -4.888242244720459 1.229193091392517
53.2890510559082 -4.804033279418945 1.2366405725479126
53.63991928100586 -4.723466873168945 1.244552731513977
53.989479064941406 -4.641360759735107 1.2524422407150269
54.35253143310547 -4.555623531341553 1.2606565952301025
54.67271423339844 -4.468223571777344 1.2678834199905396
55.005409240722656 -4.380382061004639 1.275403380393982
55.36361312866211 -4.290047645568848 1.2835073471069336
55.71836853027344 -4.20123291015625 1.2915440797805786
56.36865234375 -4.011593818664551 1.3062446117401123
55.7576904296875 -3.851837158203125 1.2918940782546997
54.85271072387695 -3.557274580001831 1.270569086074829
53.467369079589844 -3.1300246715545654 1.2259504795074463
52.21083450317383 -2.7271013259887695 1.1967227458953857
50.75542449951172 -2.328252077102661 1.1628756523132324
49.525901794433594 -1.9599323272705078 1.1314945220947266
48.771888732910156 -1.7272652387619019 1.1140936613082886
48.42314529418945 -1.6114699840545654 1.106046199798584
47.91147232055664 -1.392470359802246 1.0942151546478271
47.62786102294922 -1.2853128910064697 1.0876744985580444
47.06621551513672 -1.07181715965271 1.074735403060913
46.810359954833984 -0.9688044190406799 1.0688445568084717
46.55837631225586 -0.8640913367271423 1.0630465745925903
46.40199661254883 -0.7648664712905884 1.0594373941421509
46.11665725708008 -0.6644391417503357 1.0528886318206787
45.907257080078125 -0.5633361339569092 1.0480782985687256
45.65653991699219 -0.46550145745277405 1.0316334962844849
45.457122802734375 -0.36901432275772095 1.027108073234558
45.207515716552734 -0.2705225944519043 1.0214530229568481
44.997623443603516 -0.1758853644132614 1.0166999101638794
44.760520935058594 -0.07933883368968964 1.011336088180542
64.02696990966797 0.015475040301680565 1.9856910705566406
63.269874572753906 0.15045098960399628 1.9622162580490112
62.58608627319336 0.27870455384254456 1.9410228729248047
61.98788070678711 0.4046812355518341 1.9224920272827148
61.2687873840332 0.530877947807312 1.9002201557159424
60.72483825683594 0.652192234992981 1.8832368850708008
60.32891845703125 0.7731510996818542 1.867466926574707
60.072479248046875 0.8982180953025818 1.859584093093872
57.51850128173828 1.5835593938827515 1.7676581144332886
56.737701416015625 1.683224081993103 1.7436285018920898
56.190853118896484 1.7838590145111084 1.7269328832626343
55.71884536743164 1.8846259117126465 1.7125433683395386
55.32655334472656 1.9896916151046753 1.7006124258041382
54.86084747314453 2.0869462490081787 1.6864280700683594
54.543296813964844 2.1882269382476807 1.6768022775650024
54.14023971557617 2.2879087924957275 1.6645587682724
53.72243881225586 2.381946563720703 1.6487140655517578
52.85527420043945 2.6765291690826416 1.6224521398544312
52.040470123291016 2.963374376296997 1.59798264503479
49.319705963134766 3.9547364711761475 1.4990872144699097
49.105289459228516 4.040119171142578 1.4928219318389893
48.69159698486328 4.212604999542236 1.4807705879211426
48.39039611816406 4.287735462188721 1.471879243850708
48.21251678466797 4.375795364379883 1.4667503833770752
47.98522186279297 4.455584526062012 1.4601129293441772
47.77053451538086 4.535656929016113 1.4509320259094238
47.510841369628906 4.613430023193359 1.4433401823043823
47.278076171875 4.689883708953857 1.4365615844726562
47.026611328125 4.763509273529053 1.4292194843292236
46.802391052246094 4.841825485229492 1.4227172136306763
46.603065490722656 4.918971061706543 1.4169644117355347
46.4131965637207 4.996461868286133 1.4115041494369507
46.20485305786133 5.073784828186035 1.4026546478271484
45.981300354003906 5.145829200744629 1.3961904048919678
45.77619934082031 5.221912860870361 1.3902983665466309
45.59652328491211 5.297292232513428 1.3851726055145264
45.400325775146484 5.37000846862793 1.379547357559204
45.237098693847656 5.4487152099609375 1.3640403747558594
45.00907897949219 5.516031742095947 1.3575072288513184
44.85454177856445 5.594377040863037 1.3532021045684814
44.660804748535156 5.664359092712402 1.3477106094360352
44.49446487426758 5.737107276916504 1.3404220342636108
44.2596435546875 5.802977561950684 1.3336037397384644
44.12119674682617 5.877984523773193 1.3297960758209229
43.92780685424805 5.945138454437256 1.3243374824523926
43.75697708129883 6.017117977142334 1.3195714950561523
43.582611083984375 6.085319519042969 1.3146915435791016
43.07111358642578 6.290197372436523 1.2977705001831055
42.52824020385742 6.484343528747559 1.2826193571090698
41.24858093261719 7.002035617828369 1.2422959804534912
40.3248176574707 7.106319427490234 1.208182692527771
39.454246520996094 7.121967315673828 1.1806292533874512
39.01435470581055 7.128549098968506 1.1679184436798096
38.540897369384766 7.124722480773926 1.1540857553482056
38.07804489135742 7.123315334320068 1.1384128332138062
37.66644287109375 7.127249717712402 1.1265475749969482
37.269378662109375 7.13225793838501 1.115112066268921
36.86073303222656 7.135715961456299 1.1033384799957275
36.42957305908203 7.130712985992432 1.090778112411499
36.08478927612305 7.141106605529785 1.0787441730499268
35.68195343017578 7.140532970428467 1.0671546459197998
35.33721923828125 7.147845268249512 1.0572848320007324
34.94044876098633 7.143189430236816 1.0457639694213867
34.58122634887695 7.146652698516846 1.0354667901992798
