VERSION .7
FIELDS x y z
SIZE 4 4 4
TYPE F F F
COUNT 1 1 1
WIDTH 857
HEIGHT 1
VIEWPOINT 0 0 0 1 0 0 0
POINTS 857
DATA ascii
8.481380462646484 7.991063117980957 0.18568001687526703
8.451294898986816 7.996452808380127 0.1849784255027771
8.404629707336426 7.985832214355469 0.18402646481990814
8.38085651397705 7.996402740478516 0.1834600567817688
8.335776329040527 7.987479209899902 0.18254800140857697
8.302033424377441 7.988258361816406 0.18176564574241638
8.267480850219727 7.988118648529053 0.18067191541194916
8.237091064453125 7.992850303649902 0.18037766218185425
8.193735122680664 7.983860015869141 0.17909356951713562
8.168594360351562 7.993040561676025 0.17861893773078918
8.098581314086914 7.991005897521973 0.1771218478679657
8.04671859741211 7.973419189453125 0.17595502734184265
7.9729323387146 7.966568946838379 0.17437952756881714
7.865839958190918 7.959568977355957 0.17176707088947296
7.7691497802734375 7.961215019226074 0.16852572560310364
7.59701681137085 7.95011043548584 0.16457918286323547
7.502124786376953 7.9502763748168945 0.1625508964061737
7.466120719909668 7.945497512817383 0.16185055673122406
7.40610408782959 7.948031425476074 0.16060703992843628
7.375531196594238 7.948639869689941 0.1596430540084839
7.3045454025268555 7.938521385192871 0.15816417336463928
7.283278942108154 7.948861122131348 0.15768840909004211
7.245603561401367 7.941326141357422 0.15695449709892273
7.215789318084717 7.942098140716553 0.1560155153274536
7.178596496582031 7.93418025970459 0.15519094467163086
7.146683216094971 7.932494163513184 0.15458878874778748
7.118210792541504 7.934349060058594 0.15395589172840118
7.080692291259766 7.926117897033691 0.15323317050933838
7.055772304534912 7.931288719177246 0.15202456712722778
7.022706031799316 7.9275970458984375 0.1504780799150467
6.998847484588623 7.9343366622924805 0.14995375275611877
6.964930057525635 7.928993225097656 0.1493079513311386
6.93314266204834 7.926330089569092 0.14833934605121613
6.8950347900390625 7.916415214538574 0.14787937700748444
6.873316764831543 7.925037384033203 0.1471298336982727
6.836695671081543 7.915942192077637 0.14633271098136902
6.808333396911621 7.916816711425781 0.14581207931041718
6.780290126800537 7.917796611785889 0.14492815732955933
6.743925094604492 7.909054756164551 0.14450979232788086
6.721526145935059 7.9160003662109375 0.1437458097934723
6.6859941482543945 7.907767295837402 0.14297981560230255
6.666738033294678 7.918828010559082 0.14265677332878113
6.628089904785156 7.90657901763916 0.14182041585445404
6.605437278747559 7.912851333618164 0.14105859398841858
6.565737724304199 7.89912223815918 0.14029985666275024
6.543919563293457 7.906607627868652 0.13982617855072021
6.510674476623535 7.899757385253906 0.13920387625694275
6.481781959533691 7.898605823516846 0.13858181238174438
6.457475662231445 7.902787685394287 0.1377910077571869
6.432659149169922 7.9064130783081055 0.13735845685005188
6.398435115814209 7.897769927978516 0.13661742210388184
6.36397647857666 7.889065742492676 0.13561728596687317
6.345815658569336 7.900615692138672 0.13522891700267792
6.309699058532715 7.889125823974609 0.13366647064685822
6.284056663513184 7.891567230224609 0.1328641176223755
6.258308410644531 7.892788887023926 0.13266518712043762
6.209827423095703 7.899756908416748 0.1317300796508789
6.177022933959961 7.8916778564453125 0.13077130913734436
6.117793560028076 7.884191513061523 0.12961022555828094
6.092001438140869 7.884681701660156 0.12880320847034454
6.040942668914795 7.88702917098999 0.1278117448091507
5.999582767486572 7.866793632507324 0.12668311595916748
5.984670162200928 7.88210391998291 0.12637445330619812
5.949275493621826 7.869340896606445 0.12571395933628082
5.92879056930542 7.876167297363281 0.1250251829624176
5.904280185699463 7.878578186035156 0.1248636394739151
5.8735551834106445 7.871565818786621 0.1239602267742157
5.828891754150391 7.880736351013184 0.12311924993991852
5.790832042694092 7.863358497619629 0.12206409871578217
5.7520599365234375 7.879998207092285 0.12134858220815659
5.719822883605957 7.870077610015869 0.12066828459501266
5.684499740600586 7.856713771820068 0.11909277737140656
5.665472030639648 7.8647284507751465 0.11903354525566101
5.636970520019531 7.859931468963623 0.11819212138652802
5.612396240234375 7.8606414794921875 0.1174355298280716
5.588134288787842 7.861104965209961 0.11726848781108856
5.563342094421387 7.861150741577148 0.1165086179971695
5.537707328796387 7.860055446624756 0.1159784272313118
5.512520790100098 7.858894348144531 0.11554759740829468
5.480340003967285 7.848626136779785 0.11463899910449982
5.464297294616699 7.860350608825684 0.11430810391902924
5.438135147094727 7.857458114624023 0.11385402828454971
5.401284694671631 7.839951038360596 0.11309472471475601
5.383951187133789 7.849608898162842 0.11249279975891113
5.3659162521362305 7.858224868774414 0.11221210658550262
5.332807540893555 7.845674991607666 0.11153627932071686
5.312295913696289 7.850491523742676 0.11120367050170898
5.290998935699463 7.854520320892334 0.11052260547876358
5.2654314041137695 7.852278709411621 0.11000089347362518
5.232547760009766 7.838355541229248 0.1094125509262085
5.2115631103515625 7.843152046203613 0.1089935153722763
5.190516471862793 7.8467559814453125 0.10831959545612335
5.162942886352539 7.840381622314453 0.10783897340297699
5.13655948638916 7.83671236038208 0.10730956494808197
5.113539695739746 7.837016582489014 0.1065983921289444
5.089207649230957 7.835204601287842 0.10609704256057739
5.0669846534729 7.837592124938965 0.10541275888681412
5.044000625610352 7.837666034698486 0.10527294874191284
5.020484924316406 7.837259292602539 0.10455600917339325
4.990863800048828 7.827340602874756 0.10371699184179306
4.968471527099609 7.828008651733398 0.10358965396881104
4.943647384643555 7.825798034667969 0.10285469889640808
4.928335189819336 7.8375325202941895 0.10230713337659836
4.901880741119385 7.831480979919434 0.10209634900093079
4.877694129943848 7.829981803894043 0.10137850046157837
4.848365783691406 7.819010257720947 0.10086832195520401
4.830835819244385 7.828027725219727 0.10052657127380371
4.801641464233398 7.8169708251953125 0.09970027208328247
4.778234481811523 7.815182685852051 0.09954668581485748
4.756688594818115 7.817418098449707 0.09888686239719391
4.735480308532715 7.819057464599609 0.09822651743888855
4.705133438110352 7.805459499359131 0.09793250262737274
4.688961029052734 7.816347599029541 0.09738700091838837
4.670558452606201 7.822422981262207 0.09678530693054199
4.642899513244629 7.812887668609619 0.0965505838394165
4.617262840270996 7.80767822265625 0.09580929577350616
4.597042083740234 7.810433387756348 0.0951688289642334
4.548283100128174 7.802576065063477 0.09429046511650085
4.527693748474121 7.8044352531433105 0.0941113829612732
4.504791736602783 7.803315162658691 0.09343194961547852
4.467767715454102 7.796222686767578 0.09262990951538086
6.189538478851318 -10.158503532409668 0.1546574831008911
6.2744035720825195 -10.15357780456543 0.15663722157478333
6.363583564758301 -10.154581069946289 0.15842297673225403
6.387270927429199 -10.145530700683594 0.1589132845401764
6.446620941162109 -10.144786834716797 0.16036683320999146
6.503986835479736 -10.140464782714844 0.16189205646514893
6.5286455154418945 -10.132579803466797 0.16229116916656494
6.583922863006592 -10.124467849731445 0.16376924514770508
6.613482475280762 -10.123889923095703 0.16429093480110168
6.698718070983887 -10.114912033081055 0.1663064807653427
7.726560115814209 -10.032044410705566 0.1900639533996582
7.832973480224609 -10.039020538330078 0.1926795244216919
7.895708084106445 -10.032022476196289 0.19396108388900757
7.92307186126709 -10.023920059204102 0.1949002742767334
7.984185218811035 -10.014253616333008 0.19614657759666443
8.090108871459961 -10.017261505126953 0.19877022504806519
8.179672241210938 -9.998905181884766 0.20100101828575134
8.280820846557617 -9.993687629699707 0.2035226821899414
9.483753204345703 -9.912613868713379 0.23139086365699768
9.578376770019531 -9.886337280273438 0.2338603436946869
9.6981840133667 -9.884886741638184 0.23646414279937744
9.783843994140625 -9.888544082641602 0.23887670040130615
9.890714645385742 -9.871652603149414 0.2408187985420227
10.010096549987793 -9.865970611572266 0.24392789602279663
11.412713050842285 -9.746166229248047 0.27796733379364014
11.552037239074707 -9.740227699279785 0.28078651428222656
11.686880111694336 -9.7288818359375 0.28442874550819397
11.911202430725098 -9.705747604370117 0.28926849365234375
12.051794052124023 -9.694877624511719 0.2926895320415497
12.172801971435547 -9.666807174682617 0.2954936921596527
13.92744255065918 -9.524235725402832 0.33869075775146484
14.084799766540527 -9.50244426727295 0.3425300717353821
14.364828109741211 -9.47346019744873 0.34900373220443726
14.534420013427734 -9.454730987548828 0.35273176431655884
16.6463623046875 -9.210600852966309 0.4018250107765198
16.842620849609375 -9.181367874145508 0.40633243322372437
17.39605712890625 -9.107707023620605 0.41833531856536865
25.830448150634766 9.265608787536621 0.7947680950164795
25.261272430419922 9.2410888671875 0.7773923277854919
24.91912269592285 9.23509693145752 0.76642906665802
24.746173858642578 9.22945499420166 0.7616887092590332
24.40325927734375 9.218811988830566 0.7507391571998596
24.242408752441406 9.21557903289795 0.7463777661323547
23.914077758789062 9.206218719482422 0.7358895540237427
23.759639739990234 9.203423500061035 0.7308208346366882
23.44802474975586 9.196470260620117 0.7202327251434326
23.28009033203125 9.186392784118652 0.7150166034698486
22.965953826904297 9.174400329589844 0.7056739330291748
22.517091751098633 9.159651756286621 0.6921480894088745
19.193845748901367 9.008749961853027 0.5918614864349365
18.849990844726562 8.99239730834961 0.5817104578018188
18.626251220703125 8.982151985168457 0.574709951877594
18.514259338378906 8.97554874420166 0.5711027383804321
18.288856506347656 8.961593627929688 0.5647863149642944
18.188251495361328 8.959153175354004 0.5610090494155884
17.96831512451172 8.945045471191406 0.5546722412109375
17.856464385986328 8.935650825500488 0.5512737035751343
17.765222549438477 8.936920166015625 0.5490376949310303
17.653566360473633 8.927278518676758 0.5449568629264832
17.56938934326172 8.9305419921875 0.5429319143295288
17.37276268005371 8.922861099243164 0.5383360981941223
17.25568389892578 8.90803337097168 0.5345932841300964
17.05668067932129 8.896474838256836 0.5290848612785339
16.966232299804688 8.894134521484375 0.5261813402175903
14.855161666870117 8.768447875976562 0.46551525592803955
14.611366271972656 8.74886703491211 0.4581059217453003
14.46609878540039 8.744860649108887 0.4536716938018799
14.397672653198242 8.744853973388672 0.45210063457489014
14.244636535644531 8.733726501464844 0.4474228024482727
14.179439544677734 8.734796524047852 0.4453616738319397
14.023284912109375 8.720285415649414 0.4405933618545532
13.968193054199219 8.726273536682129 0.4390094578266144
13.81296157836914 8.710386276245117 0.4342830777168274
13.74493408203125 8.70740795135498 0.4327084422111511
13.685577392578125 8.710330963134766 0.4304300546646118
13.601699829101562 8.69715404510498 0.4283638596534729
13.539653778076172 8.69711971282959 0.4275440275669098
13.471932411193848 8.693836212158203 0.4270765483379364
13.404961585998535 8.690564155578613 0.4251196086406708
13.335332870483398 8.68478012084961 0.42292025685310364
13.189451217651367 8.669097900390625 0.41848546266555786
13.131823539733887 8.6709623336792 0.4168286919593811
12.926159858703613 8.652341842651367 0.41052138805389404
12.749686241149902 8.650772094726562 0.4056965112686157
11.682331085205078 8.58840560913086 0.3758279085159302
11.495361328125 8.562795639038086 0.3702918291091919
11.39885139465332 8.56578254699707 0.36747118830680847
11.352067947387695 8.567545890808105 0.36603373289108276
11.247308731079102 8.563066482543945 0.36295217275619507
11.194709777832031 8.559776306152344 0.3614639341831207
11.090505599975586 8.554352760314941 0.3584035634994507
11.038610458374023 8.551373481750488 0.35681411623954773
10.984037399291992 8.54625129699707 0.3547823429107666
10.933401107788086 8.543335914611816 0.35335975885391235
10.876827239990234 8.535995483398438 0.3516232371330261
10.836648941040039 8.541481018066406 0.35054999589920044
10.779555320739746 8.532807350158691 0.34879037737846375
10.739765167236328 8.538073539733887 0.34869739413261414
10.678206443786621 8.525976181030273 0.3471522629261017
10.630655288696289 8.524642944335938 0.3461877703666687
10.574140548706055 8.51605224609375 0.34410303831100464
10.538751602172852 8.523666381835938 0.3430478572845459
10.430255889892578 8.508825302124023 0.33985745906829834
10.391214370727539 8.512951850891113 0.3388136029243469
10.294398307800293 8.506338119506836 0.336006760597229
10.256267547607422 8.510708808898926 0.33486759662628174
10.153913497924805 8.498236656188965 0.3318827748298645
10.018970489501953 8.492969512939453 0.3280699849128723
9.8917236328125 8.492547988891602 0.3240528106689453
9.748088836669922 8.476263999938965 0.31984150409698486
9.363960266113281 8.45862865447998 0.30914679169654846
9.239872932434082 8.452627182006836 0.3055918216705322
9.157737731933594 8.4486083984375 0.3032873570919037
9.115361213684082 8.444595336914062 0.30170416831970215
9.028982162475586 8.435510635375977 0.2992628514766693
8.982871055603027 8.427411079406738 0.2979961931705475
8.954094886779785 8.435417175292969 0.2971898913383484
8.902124404907227 8.422425270080566 0.2953113317489624
8.871548652648926 8.42845344543457 0.2948776185512543
8.823522567749023 8.418763160705566 0.29313355684280396
8.788339614868164 8.420104026794434 0.2922297716140747
8.74543571472168 8.413874626159668 0.290955126285553
8.709007263183594 8.414725303649902 0.2900279760360718
8.667716026306152 8.409680366516113 0.288806676864624
8.641325950622559 8.418957710266113 0.28862544894218445
8.586170196533203 8.40104866027832 0.28633853793144226
8.559134483337402 8.409431457519531 0.28528520464897156
8.52807903289795 8.413772583007812 0.28483057022094727
8.48623275756836 8.408336639404297 0.2833020091056824
8.434499740600586 8.391837120056152 0.28184974193573
8.397263526916504 8.390129089355469 0.28077584505081177
8.363226890563965 8.391307830810547 0.27992063760757446
8.322590827941895 8.38526439666748 0.27872589230537415
8.28431510925293 8.382439613342285 0.27732428908348083
8.25991153717041 8.392510414123535 0.2770887017250061
8.210916519165039 8.378024101257324 0.2753247916698456
8.180381774902344 8.382022857666016 0.27458739280700684
8.140174865722656 8.375526428222656 0.27340883016586304
8.075241088867188 8.37903118133545 0.27170059084892273
8.033568382263184 8.370485305786133 0.27017322182655334
7.968393325805664 8.37287712097168 0.2684614062309265
7.919973373413086 8.356657028198242 0.26670727133750916
7.8266096115112305 8.363412857055664 0.26434531807899475
7.719857215881348 8.353992462158203 0.2605352997779846
7.441099166870117 8.328533172607422 0.2523927390575409
7.336668968200684 8.316289901733398 0.2495529055595398
7.307802677154541 8.318733215332031 0.2484903484582901
7.276339530944824 8.318258285522461 0.24773234128952026
7.248018264770508 8.320661544799805 0.24696335196495056
7.217158794403076 8.320466995239258 0.24622488021850586
7.170869827270508 8.302436828613281 0.24485383927822113
7.142236709594727 8.30449104309082 0.24380400776863098
7.120047569274902 8.313526153564453 0.24335315823554993
7.077686309814453 8.299453735351562 0.2421189248561859
7.05310583114624 8.30591106414795 0.24120847880840302
7.016414642333984 8.297541618347168 0.24025976657867432
6.983406066894531 8.293943405151367 0.23934820294380188
6.957061767578125 8.297977447509766 0.23799510300159454
6.9202375411987305 8.28952693939209 0.2364998608827591
6.889281272888184 8.287776947021484 0.23565536737442017
6.860024452209473 8.287507057189941 0.23458869755268097
6.836325645446777 8.294452667236328 0.23410266637802124
6.794803619384766 8.279455184936523 0.23289501667022705
6.768240928649902 8.282074928283691 0.23192113637924194
6.740353107452393 8.283567428588867 0.23156221210956573
6.7190117835998535 8.292867660522461 0.23077693581581116
6.675585746765137 8.274913787841797 0.2296072542667389
6.651364803314209 8.279993057250977 0.22899219393730164
6.609757423400879 8.263696670532227 0.22751164436340332
6.588889122009277 8.27334213256836 0.22739490866661072
6.558352470397949 8.270158767700195 0.22628618776798248
6.529779434204102 8.269756317138672 0.22525422275066376
6.4929962158203125 8.258949279785156 0.22458875179290771
6.469366073608398 8.264570236206055 0.22373007237911224
6.442549705505371 8.266194343566895 0.2231360375881195
6.401252746582031 8.248455047607422 0.2219274789094925
6.373918533325195 8.248956680297852 0.22094357013702393
6.3524274826049805 8.257102966308594 0.22080369293689728
6.321954250335693 8.252872467041016 0.21970513463020325
6.286404609680176 8.242278099060059 0.21843862533569336
6.258822441101074 8.242130279541016 0.21808107197284698
6.238767623901367 8.251215934753418 0.21698439121246338
6.202842712402344 8.239630699157715 0.21543969213962555
6.179175853729248 8.244345664978027 0.2149573266506195
6.146786212921143 8.236692428588867 0.21379685401916504
6.121102333068848 8.238936424255371 0.21314990520477295
6.090012550354004 8.232723236083984 0.2124016284942627
6.045217990875244 8.244565963745117 0.2114231288433075
6.0110883712768555 8.233796119689941 0.2102055549621582
5.956959247589111 8.232229232788086 0.20890313386917114
5.923268795013428 8.221540451049805 0.20796099305152893
5.872867107391357 8.22439193725586 0.20652660727500916
5.819356918334961 8.222457885742188 0.20489084720611572
5.785056114196777 8.210070610046387 0.20401889085769653
5.738911151885986 8.217866897583008 0.20265033841133118
5.707479476928711 8.209096908569336 0.20214170217514038
5.679296970367432 8.20590877532959 0.2011500597000122
5.648867607116699 8.198246002197266 0.2004193365573883
5.635238170623779 8.214900016784668 0.2001921832561493
5.596950531005859 8.196569442749023 0.19884401559829712
5.575519561767578 8.201678276062012 0.19773337244987488
5.5552825927734375 8.208951950073242 0.1973712146282196
5.526360511779785 8.203460693359375 0.19660986959934235
5.499866008758545 8.200807571411133 0.19566625356674194
5.473444938659668 8.198594093322754 0.19508573412895203
5.446907997131348 8.196250915527344 0.19440993666648865
5.4191694259643555 8.191335678100586 0.19342821836471558
5.392485618591309 8.18896484375 0.19284191727638245
5.372781276702881 8.19601821899414 0.19240203499794006
5.343914031982422 8.188995361328125 0.1913822889328003
5.318772792816162 8.188636779785156 0.19110393524169922
5.287173271179199 8.177084922790527 0.1899866759777069
5.268359184265137 8.185190200805664 0.189669668674469
5.240050315856934 8.179550170898438 0.1889353096485138
5.216021537780762 8.179361343383789 0.1880851686000824
5.1868133544921875 8.171377182006836 0.18740469217300415
5.165894031524658 8.176509857177734 0.18693020939826965
5.139939308166504 8.172940254211426 0.18601442873477936
5.1111063957214355 8.165749549865723 0.18560370802879333
5.090433120727539 8.17037296295166 0.1848805844783783
5.066201210021973 8.16920280456543 0.18402907252311707
5.034590721130371 8.157083511352539 0.1835135519504547
5.018689155578613 8.16920280456543 0.18296685814857483
4.995419025421143 8.169758796691895 0.18215644359588623
4.968007564544678 8.163590431213379 0.18144991993904114
4.940513610839844 8.156477928161621 0.18048003315925598
4.910470008850098 8.146097183227539 0.18001459538936615
4.895697593688965 8.15984058380127 0.17951467633247375
4.873305320739746 8.160860061645508 0.17898070812225342
4.8445634841918945 8.152240753173828 0.17831745743751526
4.826199531555176 8.159849166870117 0.17768508195877075
4.800834655761719 8.155540466308594 0.1770419180393219
4.780466556549072 8.1607666015625 0.1766906976699829
4.745217800140381 8.139274597167969 0.1754341423511505
4.731607913970947 8.154777526855469 0.17522361874580383
4.703619956970215 8.146583557128906 0.17459237575531006
4.677845001220703 8.140908241271973 0.17368768155574799
4.6526899337768555 8.137321472167969 0.17306578159332275
4.636536121368408 8.14826488494873 0.17285268008708954
4.604978084564209 8.132017135620117 0.1717354953289032
4.580699443817139 8.129597663879395 0.1711452603340149
4.557587623596191 8.127971649169922 0.1706727147102356
4.539083480834961 8.134495735168457 0.17028364539146423
4.507448673248291 8.118513107299805 0.16917827725410461
4.487575531005859 8.122390747070312 0.16882401704788208
4.469709873199463 8.129865646362305 0.16846048831939697
4.444674015045166 8.125394821166992 0.16760677099227905
4.41801643371582 8.116621971130371 0.1669955551624298
4.396047592163086 8.117510795593262 0.16673389077186584
4.370608806610107 8.110687255859375 0.16584539413452148
4.345378875732422 8.125515937805176 0.1653035581111908
6.64373779296875 -10.12425708770752 0.2646416425704956
6.729164123535156 -10.115225791931152 0.26667848229408264
6.788342475891113 -10.111581802368164 0.2685093283653259
6.815779685974121 -10.107063293457031 0.2690766751766205
6.879583358764648 -10.109569549560547 0.2710920572280884
6.963706016540527 -10.096138000488281 0.2733984589576721
6.998584747314453 -10.101791381835938 0.2742595970630646
7.056108474731445 -10.093744277954102 0.2760332226753235
7.085919380187988 -10.091728210449219 0.2763810157775879
8.253457069396973 -10.004088401794434 0.3086962103843689
8.3501615524292 -9.992664337158203 0.31154876947402954
8.414494514465332 -9.983896255493164 0.31317487359046936
8.519725799560547 -9.980745315551758 0.31635379791259766
8.593086242675781 -9.981250762939453 0.3183174133300781
8.617012023925781 -9.96713638305664 0.3192406892776489
8.716861724853516 -9.955436706542969 0.32223349809646606
9.968871116638184 -9.867408752441406 0.3582083284854889
10.07890796661377 -9.851658821105957 0.3607904016971588
10.207746505737305 -9.852873802185059 0.36491087079048157
10.287455558776855 -9.846461296081543 0.3671450614929199
10.401779174804688 -9.831335067749023 0.3698863387107849
10.5280179977417 -9.826078414916992 0.37393128871917725
10.641517639160156 -9.807561874389648 0.37753188610076904
12.003469467163086 -9.698312759399414 0.41829824447631836
12.134552001953125 -9.678773880004883 0.42208337783813477
12.276422500610352 -9.666282653808594 0.425850510597229
12.512496948242188 -9.641106605529785 0.4329942762851715
12.677898406982422 -9.642143249511719 0.4379924535751343
12.811698913574219 -9.617376327514648 0.44149619340896606
14.646411895751953 -9.441304206848145 0.498165488243103
14.824413299560547 -9.42465591430664 0.5032681822776794
15.111933708190918 -9.386148452758789 0.5118294954299927
15.294037818908691 -9.366533279418945 0.5170881152153015
17.54840850830078 -9.094874382019043 0.5847550630569458
18.14270782470703 -9.019865989685059 0.6024234294891357
14.773029327392578 8.554729461669922 0.4123791456222534
14.530553817749023 8.536745071411133 0.40563395619392395
14.370800018310547 8.524502754211426 0.40056735277175903
14.289344787597656 8.51632022857666 0.39835524559020996
14.155755996704102 8.517698287963867 0.3946179151535034
14.078624725341797 8.51113224029541 0.39238348603248596
11.926873207092285 8.389785766601562 0.33112165331840515
11.762397766113281 8.385115623474121 0.32648730278015137
11.707618713378906 8.382761001586914 0.3245716989040375
11.650650024414062 8.379676818847656 0.32348549365997314
11.595441818237305 8.376534461975098 0.32156097888946533
11.479475021362305 8.366559982299805 0.3184542655944824
11.421676635742188 8.3607816696167 0.3164653182029724
11.307223320007324 8.350362777709961 0.31340521574020386
11.260013580322266 8.351665496826172 0.3117207884788513
11.103124618530273 8.344008445739746 0.3076156973838806
9.797185897827148 8.271111488342285 0.26976636052131653
9.670392036437988 8.269181251525879 0.26614925265312195
9.582056999206543 8.263328552246094 0.2638970911502838
9.5348539352417 8.257615089416504 0.2622992992401123
9.456417083740234 8.259637832641602 0.25989195704460144
9.400154113769531 8.24494743347168 0.2577292323112488
9.369540214538574 8.252558708190918 0.2573557198047638
9.324453353881836 8.248286247253418 0.2558419406414032
9.285338401794434 8.248096466064453 0.2544805109500885
9.24130630493164 8.243940353393555 0.2537456154823303
9.200569152832031 8.242377281188965 0.2523486614227295
9.153621673583984 8.234623908996582 0.250779390335083
9.113421440124512 8.23332405090332 0.25015103816986084
9.078118324279785 8.236135482788086 0.24890655279159546
9.041446685791016 8.237138748168945 0.24762675166130066
8.906031608581543 8.21682071685791 0.2438478022813797
8.791793823242188 8.214919090270996 0.24066907167434692
8.674332618713379 8.207911491394043 0.23739826679229736
8.003615379333496 8.167922019958496 0.21835821866989136
7.888286113739014 8.152118682861328 0.2149284929037094
7.828835487365723 8.159161567687988 0.21315403282642365
7.784319877624512 8.146540641784668 0.211715966463089
7.719210624694824 8.146817207336426 0.2101888656616211
7.682399749755859 8.141741752624512 0.20896407961845398
7.638930797576904 8.1298246383667 0.2075623869895935
7.6189374923706055 8.142915725708008 0.20787949860095978
7.578428745269775 8.133386611938477 0.20598071813583374
7.554604530334473 8.142623901367188 0.2051275372505188
7.507060527801514 8.125131607055664 0.2036188840866089
7.478978633880615 8.128515243530273 0.20331302285194397
7.438281059265137 8.119023323059082 0.2020062506198883
7.410463809967041 8.1224365234375 0.20103660225868225
7.373992919921875 8.116646766662598 0.19984033703804016
7.342038154602051 8.11582088470459 0.1994369775056839
7.308267593383789 8.11226749420166 0.19831359386444092
7.263895034790039 8.097156524658203 0.19690075516700745
7.256978988647461 8.123875617980957 0.196515753865242
7.182175159454346 8.108611106872559 0.19475111365318298
7.152531623840332 8.10898494720459 0.19374464452266693
7.085346221923828 8.101335525512695 0.19218778610229492
7.049477577209473 8.094158172607422 0.19101428985595703
6.979561805725098 8.082359313964844 0.18911460041999817
6.952008247375488 8.084304809570312 0.18844524025917053
6.896435737609863 8.088336944580078 0.1865624189376831
6.859668731689453 8.07911491394043 0.1857490837574005
6.799181938171387 8.076571464538574 0.18421165645122528
6.542400360107422 8.076478004455566 0.17691436409950256
6.441984176635742 8.05595874786377 0.17394761741161346
6.377215385437012 8.043758392333984 0.17248091101646423
6.35969352722168 8.05636978149414 0.17183655500411987
6.296709060668945 8.045597076416016 0.1701555997133255
6.258825302124023 8.031904220581055 0.1689661592245102
6.242391586303711 8.045194625854492 0.16861355304718018
6.209977149963379 8.03881549835205 0.16758054494857788
6.1797685623168945 8.03411865234375 0.1669546514749527
6.1506853103637695 8.03073787689209 0.16600024700164795
6.131397247314453 8.041080474853516 0.16542136669158936
6.0921854972839355 8.02413558959961 0.1648123562335968
6.064918041229248 8.023324012756348 0.1639183759689331
6.034440994262695 8.017970085144043 0.1629369556903839
6.016697883605957 8.02901840209961 0.16229483485221863
5.986110687255859 8.023430824279785 0.16157317161560059
5.958717346191406 8.021822929382324 0.16103066504001617
5.931127071380615 8.019392013549805 0.1601254791021347
5.904974460601807 8.019376754760742 0.15926799178123474
5.8741374015808105 8.012701988220215 0.15828341245651245
5.853304862976074 8.01972484588623 0.15782807767391205
5.818290710449219 8.007024765014648 0.15708154439926147
5.791563034057617 8.005122184753418 0.1562049239873886
5.770218849182129 8.011168479919434 0.15548217296600342
5.738375663757324 8.00235652923584 0.15447565913200378
5.7091264724731445 7.997153282165527 0.15379613637924194
5.675145149230957 7.98453950881958 0.15307378768920898
5.662222862243652 8.001908302307129 0.1525799036026001
5.631712436676025 7.9945197105407715 0.15161505341529846
5.609434604644775 7.9980974197387695 0.15086540579795837
5.579505443572998 7.991084575653076 0.1501682996749878
5.555025577545166 7.991903305053711 0.1497117578983307
5.524068832397461 7.983102798461914 0.14873649179935455
5.498326301574707 7.9812469482421875 0.14789731800556183
5.474120140075684 7.982116222381592 0.14744900166988373
5.424881458282471 7.982182502746582 0.14643807709217072
5.395293235778809 7.974191188812256 0.14549754559993744
5.352866172790527 7.9837236404418945 0.14408551156520844
5.275117874145508 7.975709915161133 0.14217182993888855
5.2229390144348145 7.969560146331787 0.1405056118965149
5.1997575759887695 7.970216751098633 0.13999128341674805
5.146091938018799 7.961021423339844 0.13862471282482147
5.1263628005981445 7.966713905334473 0.1379600167274475
5.102292060852051 7.966654300689697 0.1371924728155136
5.073163986206055 7.957485198974609 0.1362764537334442
5.043667793273926 7.9475555419921875 0.1359270215034485
5.02621603012085 7.957579612731934 0.1353406310081482
5.002101421356201 7.9559197425842285 0.13456103205680847
4.974795341491699 7.949506759643555 0.1337030678987503
4.955163955688477 7.955422401428223 0.13305436074733734
4.923290252685547 7.940922737121582 0.13231126964092255
4.90742301940918 7.952589988708496 0.13209261000156403
4.883646488189697 7.95156192779541 0.13190418481826782
4.8474440574646 7.929469108581543 0.1308031976222992
4.832790374755859 7.943581581115723 0.13029760122299194
4.804573059082031 7.934234619140625 0.12941421568393707
4.785332679748535 7.939599990844727 0.12877386808395386
4.75633430480957 7.92975378036499 0.12844868004322052
4.736033916473389 7.933183193206787 0.1277810037136078
4.712907314300537 7.931797504425049 0.12703776359558105
4.685807228088379 7.924689292907715 0.1262013018131256
4.661679744720459 7.921359539031982 0.1254328489303589
4.6492533683776855 7.938352108001709 0.1249852329492569
4.617114067077637 7.92176628112793 0.12457072734832764
4.585537910461426 7.905252456665039 0.12360274791717529
4.568293571472168 7.914429664611816 0.12303565442562103
5.424674987792969 -10.208921432495117 0.16400790214538574
5.449427127838135 -10.203717231750488 0.1648135483264923
5.478229522705078 -10.206621170043945 0.16533908247947693
5.5073933601379395 -10.209184646606445 0.16627717018127441
5.522767543792725 -10.186413764953613 0.16680218279361725
5.552227973937988 -10.190224647521973 0.16776210069656372
5.5981903076171875 -10.172379493713379 0.1689753234386444
5.640143394470215 -10.198448181152344 0.17031465470790863
5.694365501403809 -10.19487476348877 0.17166638374328613
5.714434623718262 -10.180275917053223 0.1723356992006302
5.768857479095459 -10.177424430847168 0.17412149906158447
5.802234172821045 -10.186131477355957 0.17519596219062805
5.880270957946777 -10.173876762390137 0.17746835947036743
6.387484550476074 -10.146444320678711 0.1916261911392212
6.471972465515137 -10.138714790344238 0.19414019584655762
6.557508945465088 -10.131706237792969 0.1965745985507965
6.646085739135742 -10.128399848937988 0.1992255300283432
6.694865703582764 -10.109659194946289 0.20089036226272583
6.728387832641602 -10.114622116088867 0.2012656033039093
6.781890392303467 -10.102529525756836 0.20307746529579163
6.822170734405518 -10.11654281616211 0.2043912708759308
6.842862129211426 -10.101938247680664 0.2051280438899994
6.874667167663574 -10.102901458740234 0.2054416537284851
6.908677101135254 -10.107163429260254 0.20657077431678772
6.966978073120117 -10.101434707641602 0.20854605734348297
7.030223369598389 -10.10184383392334 0.2102305144071579
7.058659553527832 -10.097945213317871 0.21089065074920654
7.095136642456055 -10.104854583740234 0.21209926903247833
7.115748405456543 -10.08886432647705 0.2128320336341858
7.208398818969727 -10.085018157958984 0.21521657705307007
7.300700664520264 -10.079601287841797 0.21835580468177795
7.359843730926514 -10.071699142456055 0.220377117395401
7.455025672912598 -10.068464279174805 0.22330138087272644
7.54884147644043 -10.062276840209961 0.2260703444480896
7.638571739196777 -10.04964542388916 0.2284027338027954
8.251791954040527 -10.00259017944336 0.2472929060459137
8.350851058959961 -9.993489265441895 0.25041794776916504
8.457326889038086 -9.992562294006348 0.2536560297012329
8.511238098144531 -9.971319198608398 0.2548189163208008
8.55707836151123 -9.982476234436035 0.2563662528991699
8.621492385864258 -9.972835540771484 0.25784796476364136
8.655936241149902 -9.970263481140137 0.2590576410293579
8.729686737060547 -9.97008228302002 0.26128438115119934
8.7556791305542 -9.957998275756836 0.26178309321403503
8.826208114624023 -9.953367233276367 0.26426073908805847
8.89500617980957 -9.94747543334961 0.2668427526950836
8.931158065795898 -9.945067405700684 0.26879000663757324
8.970487594604492 -9.947257995605469 0.2693523168563843
9.004878997802734 -9.943117141723633 0.27057328820228577
9.042665481567383 -9.942780494689941 0.2719012200832367
9.078415870666504 -9.940568923950195 0.27317699790000916
9.150777816772461 -9.93544864654541 0.27491751313209534
10.441715240478516 -9.828134536743164 0.31374427676200867
10.556944847106934 -9.812162399291992 0.3165957033634186
10.606300354003906 -9.81709098815918 0.3183470666408539
10.682525634765625 -9.804437637329102 0.32027822732925415
10.721519470214844 -9.79931354522705 0.32223838567733765
10.947248458862305 -9.796693801879883 0.3289814591407776
10.974525451660156 -9.780168533325195 0.3295667767524719
11.056486129760742 -9.769974708557129 0.3322141170501709
11.195261001586914 -9.76795768737793 0.33634668588638306
12.771265029907227 -9.629749298095703 0.3820393979549408
12.909311294555664 -9.607141494750977 0.38476645946502686
13.018224716186523 -9.603271484375 0.3887799382209778
13.07142162322998 -9.600690841674805 0.38977187871932983
13.171404838562012 -9.588994026184082 0.39254218339920044
13.214783668518066 -9.578680038452148 0.3942383825778961
13.316400527954102 -9.567049026489258 0.39706507325172424
13.470186233520508 -9.549721717834473 0.4012832045555115
15.584295272827148 -9.32204818725586 0.4593592882156372
15.903125762939453 -9.287480354309082 0.467632532119751
17.98415184020996 9.380237579345703 0.6669962406158447
15.04852294921875 9.140172004699707 0.5626833438873291
14.815237045288086 9.126466751098633 0.5553267002105713
14.587189674377441 9.112983703613281 0.547417402267456
14.411797523498535 9.088014602661133 0.5412247776985168
14.174905776977539 9.063678741455078 0.5324028730392456
13.95958137512207 9.050135612487793 0.5248407125473022
12.095474243164062 8.892618179321289 0.4582687020301819
11.912714004516602 8.87415885925293 0.4521524906158447
11.743942260742188 8.863777160644531 0.4450204372406006
11.631820678710938 8.856291770935059 0.4420469403266907
11.58061408996582 8.855326652526855 0.43990617990493774
11.475967407226562 8.852144241333008 0.4364624619483948
11.420001983642578 8.846834182739258 0.4346528649330139
11.299896240234375 8.830188751220703 0.4301121234893799
11.135038375854492 8.814668655395508 0.4242011308670044
10.977560043334961 8.802827835083008 0.4185829758644104
9.897159576416016 8.717279434204102 0.38058891892433167
9.764230728149414 8.709810256958008 0.37597763538360596
9.622821807861328 8.692915916442871 0.3710431158542633
9.540885925292969 8.69169807434082 0.36770904064178467
9.502023696899414 8.692896842956543 0.3665793538093567
9.406929016113281 8.678955078125 0.3630833923816681
9.367624282836914 8.678747177124023 0.3614796996116638
9.280890464782715 8.671311378479004 0.3579913079738617
9.233356475830078 8.662857055664062 0.35684648156166077
9.196855545043945 8.665176391601562 0.3553684949874878
9.156426429748535 8.663473129272461 0.353739857673645
9.103124618530273 8.648914337158203 0.35205304622650146
9.079984664916992 8.663461685180664 0.3514196276664734
9.031879425048828 8.653888702392578 0.3494986295700073
8.985114097595215 8.645524024963379 0.3480716049671173
8.913094520568848 8.648201942443848 0.3454795479774475
8.858755111694336 8.631847381591797 0.3433266580104828
8.745721817016602 8.629552841186523 0.3395405411720276
8.050447463989258 8.567344665527344 0.31565845012664795
7.93587064743042 8.552520751953125 0.3115411400794983
7.828929901123047 8.544378280639648 0.30762091279029846
7.760491371154785 8.541626930236816 0.3056393265724182
7.724196434020996 8.537208557128906 0.30420032143592834
7.645299911499023 8.521873474121094 0.30151504278182983
7.616491317749023 8.525285720825195 0.300667405128479
7.545832633972168 8.518131256103516 0.2983051836490631
7.51353645324707 8.517661094665527 0.29744186997413635
7.479514122009277 8.51524829864502 0.2958190441131592
7.4360809326171875 8.501317024230957 0.2941097021102905
7.410940170288086 8.50858211517334 0.2931302785873413
7.3674516677856445 8.494783401489258 0.2918285131454468
7.345678329467773 8.505273818969727 0.2912680208683014
7.301534652709961 8.490156173706055 0.28954097628593445
7.279952049255371 8.501285552978516 0.2887125015258789
7.241804122924805 8.492345809936523 0.2876095175743103
7.206238746643066 8.48729419708252 0.2862354815006256
7.171140193939209 8.481568336486816 0.2851499915122986
7.142462253570557 8.483293533325195 0.2840336859226227
7.10220193862915 8.472143173217773 0.2828637659549713
7.066576957702637 8.465266227722168 0.2814721465110779
7.020382404327393 8.482288360595703 0.2799922525882721
6.968799591064453 8.455626487731934 0.2783485949039459
6.912710189819336 8.45991325378418 0.27647823095321655
6.880403518676758 8.456128120422363 0.2752201557159424
6.817045211791992 8.45071029663086 0.2731628715991974
6.781546592712402 8.442497253417969 0.27178189158439636
6.722908020019531 8.442070007324219 0.2700172960758209
6.694255352020264 8.44259262084961 0.2692010700702667
6.631545066833496 8.435627937316895 0.26716142892837524
6.535611152648926 8.422646522521973 0.26375773549079895
6.444331645965576 8.414141654968262 0.2606450915336609
6.353062629699707 8.403897285461426 0.2577979862689972
6.267664909362793 8.400192260742188 0.25482165813446045
6.218707084655762 8.407772064208984 0.2533499002456665
6.172514915466309 8.382098197937012 0.25154995918273926
6.12404203414917 8.389592170715332 0.25000274181365967
6.091557025909424 8.382013320922852 0.2487621158361435
6.039254188537598 8.384063720703125 0.2471681833267212
5.999910831451416 8.365997314453125 0.2460019588470459
5.975203037261963 8.368783950805664 0.24544718861579895
5.948258399963379 8.368165969848633 0.24443501234054565
5.925481796264648 8.372864723205566 0.24358612298965454
5.894964218139648 8.367135047912598 0.2424319088459015
5.867511749267578 8.365443229675293 0.24166472256183624
5.835934638977051 8.357888221740723 0.24082720279693604
5.8087568283081055 8.355854034423828 0.23979926109313965
5.781343460083008 8.353813171386719 0.2387712001800537
5.758856773376465 8.358966827392578 0.2379506528377533
5.72905158996582 8.352752685546875 0.23707738518714905
5.704887390136719 8.355100631713867 0.2365424931049347
5.66990852355957 8.341621398925781 0.23520563542842865
5.649528503417969 8.349315643310547 0.23447175323963165
5.61601448059082 8.337008476257324 0.23318448662757874
5.593989372253418 8.342253684997559 0.23264679312705994
5.56525993347168 8.337224960327148 0.23192079365253448
5.5443115234375 8.343923568725586 0.23116934299468994
5.51043176651001 8.330855369567871 0.22987604141235352
5.492966651916504 8.342021942138672 0.229259192943573
5.457510948181152 8.326379776000977 0.2279042899608612
5.43501091003418 8.33017349243164 0.22769507765769958
5.402218818664551 8.317578315734863 0.2264382541179657
5.376235485076904 8.315940856933594 0.22547957301139832
5.349736213684082 8.313206672668457 0.22484511137008667
5.331480026245117 8.323387145996094 0.224212184548378
5.2962870597839355 8.30634593963623 0.22310902178287506
5.252696990966797 8.315023422241211 0.22189149260520935
5.227597713470459 8.31344985961914 0.22096019983291626
5.178262710571289 8.31247329711914 0.2191561460494995
5.125727653503418 8.305878639221191 0.2178155481815338
5.094308853149414 8.293426513671875 0.21661701798439026
5.043466567993164 8.288725852966309 0.2147524058818817
5.021517753601074 8.291351318359375 0.21395808458328247
4.970161437988281 8.285099029541016 0.21266457438468933
4.9456634521484375 8.28317928314209 0.21176239848136902
4.9220476150512695 8.283780097961426 0.21092018485069275
4.89393949508667 8.275531768798828 0.2098637819290161
4.876988410949707 8.286066055297852 0.20953482389450073
4.843204498291016 8.269024848937988 0.20859475433826447
4.823534965515137 8.274770736694336 0.20790156722068787
4.797017574310303 8.269163131713867 0.2069230079650879
4.77287483215332 8.267695426940918 0.20605146884918213
4.74310827255249 8.25565242767334 0.20550519227981567
4.722813606262207 8.260459899902344 0.20479616522789001
4.697704315185547 8.256935119628906 0.20388275384902954
4.670879364013672 8.249567031860352 0.2034614086151123
4.646984100341797 8.248414039611816 0.2026093602180481
4.630214691162109 8.258676528930664 0.20204679667949677
4.601596832275391 8.248208999633789 0.2009771466255188
4.580613136291504 8.251479148864746 0.20024433732032776
4.551730155944824 8.239697456359863 0.19915363192558289
4.5333662033081055 8.248034477233887 0.19854670763015747
4.5081000328063965 8.242541313171387 0.19818878173828125
4.483744144439697 8.238572120666504 0.1972963958978653
4.458077907562256 8.233254432678223 0.19636856019496918
4.436553001403809 8.234265327453613 0.19560135900974274
5.874256610870361 -10.164300918579102 0.2729327976703644
5.8972978591918945 -10.155467987060547 0.27374058961868286
5.9377946853637695 -10.175687789916992 0.2753429412841797
5.964900970458984 -10.172983169555664 0.2763284146785736
5.99290132522583 -10.1722993850708 0.27736809849739075
6.016396522521973 -10.163071632385254 0.2778804898262024
6.048253536224365 -10.168096542358398 0.2790868878364563
6.062495231628418 -10.144067764282227 0.27949389815330505
6.130243301391602 -10.160015106201172 0.2816706895828247
6.155219078063965 -10.152902603149414 0.28255775570869446
6.211848258972168 -10.150449752807617 0.2843579649925232
6.24505615234375 -10.15650463104248 0.2856243848800659
6.292189598083496 -10.137226104736328 0.2868598401546478
6.327276706695557 -10.14670181274414 0.28822851181030273
6.845376014709473 -10.106206893920898 0.3050875663757324
6.9293107986450195 -10.092885971069336 0.3074895143508911
6.991469383239746 -10.092071533203125 0.30985867977142334
7.025577545166016 -10.09648323059082 0.31075602769851685
7.090517997741699 -10.098825454711914 0.3129359483718872
7.1077961921691895 -10.078895568847656 0.31352782249450684
7.173192024230957 -10.081214904785156 0.31560981273651123
7.270641326904297 -10.083370208740234 0.31906118988990784
7.297732830047607 -10.076252937316895 0.3200805187225342
7.353999137878418 -10.064990043640137 0.3214588165283203
7.382465839385986 -10.059516906738281 0.3225407302379608
7.423561096191406 -10.070882797241211 0.32417094707489014
7.481415748596191 -10.061125755310059 0.3256259560585022
7.522269248962402 -10.07160472869873 0.32724547386169434
7.543521881103516 -10.055927276611328 0.32801806926727295
7.574288368225098 -10.053409576416016 0.32921695709228516
7.605569839477539 -10.050722122192383 0.3304234743118286
7.644458770751953 -10.058130264282227 0.3311944901943207
7.672151565551758 -10.051202774047852 0.3322618007659912
7.701587677001953 -10.045732498168945 0.3333908021450043
7.7666015625 -10.043392181396484 0.335938036441803
7.791848659515381 -10.032215118408203 0.3368891477584839
7.863735198974609 -10.037229537963867 0.3393973112106323
7.955259323120117 -10.023604393005371 0.34251201152801514
8.050165176391602 -10.01325798034668 0.34545060992240906
8.15061092376709 -10.008691787719727 0.3490884006023407
8.898510932922363 -9.951395034790039 0.37524813413619995
8.998379707336426 -9.93664836883545 0.37893104553222656
9.07187557220459 -9.933917999267578 0.38143837451934814
9.119439125061035 -9.943965911865234 0.38338297605514526
9.188589096069336 -9.935047149658203 0.3853544592857361
9.217254638671875 -9.924646377563477 0.38651949167251587
9.261808395385742 -9.930501937866211 0.387989342212677
9.283964157104492 -9.912426948547363 0.3883921504020691
9.331233978271484 -9.921550750732422 0.3903394341468811
9.409186363220215 -9.920384407043457 0.3936542868614197
9.429901123046875 -9.900993347167969 0.3951962888240814
9.511284828186035 -9.902599334716797 0.39769449830055237
9.554866790771484 -9.906742095947266 0.39949703216552734
9.626829147338867 -9.897592544555664 0.4016028344631195
9.66213607788086 -9.89273452758789 0.40306347608566284
9.73359489440918 -9.882292747497559 0.4051521420478821
9.846457481384277 -9.871969223022461 0.4093194603919983
10.980690002441406 -9.785659790039062 0.44975578784942627
11.109888076782227 -9.776182174682617 0.4543294906616211
11.241239547729492 -9.76706314086914 0.45900046825408936
11.362480163574219 -9.747726440429688 0.4632689356803894
11.416792869567871 -9.753265380859375 0.4655744433403015
11.490894317626953 -9.733158111572266 0.467840313911438
11.575750350952148 -9.721603393554688 0.47093522548675537
11.6225004196167 -9.719807624816895 0.47255268692970276
11.713746070861816 -9.712575912475586 0.4755252003669739
11.76579475402832 -9.714599609375 0.47775083780288696
13.581232070922852 -9.543997764587402 0.5414711833000183
13.685504913330078 -9.531428337097168 0.5444505214691162
13.848941802978516 -9.516524314880371 0.5506160259246826
14.002803802490234 -9.493209838867188 0.5553818941116333
16.23362922668457 -9.254648208618164 0.6326780915260315
16.55309295654297 -9.207880020141602 0.6418126821517944
16.776649475097656 -9.194613456726074 0.6498813629150391
40.733055114746094 0.010329969227313995 1.362251877784729
40.65632247924805 0.18153086304664612 1.359696388244629
39.86109924316406 2.692845344543457 1.326359510421753
39.76686096191406 2.9377307891845703 1.322408676147461
39.724205017089844 3.102839469909668 1.320380687713623
39.70132827758789 3.1839590072631836 1.319840431213379
39.62632751464844 3.345956802368164 1.316399335861206
39.6105842590332 3.4274277687072754 1.3161096572875977
39.571861267089844 3.592039108276367 1.310827612876892
39.55085754394531 3.6729025840759277 1.309359073638916
39.45830535888672 3.831981658935547 1.3068146705627441
38.79967498779297 5.587066173553467 1.2771528959274292
38.728492736816406 5.825564384460449 1.274977684020996
38.65509033203125 5.981105804443359 1.2720000743865967
38.646278381347656 6.061886787414551 1.2721164226531982
38.60857391357422 6.139115333557129 1.2702840566635132
38.57416534423828 6.217137336730957 1.2695832252502441
38.538352966308594 6.29344367980957 1.2674554586410522
38.44095993041992 6.4438629150390625 1.264125108718872
38.38922119140625 6.517122268676758 1.2628660202026367
38.28093719482422 6.664722442626953 1.2588469982147217
38.035072326660156 6.868552207946777 1.2511652708053589
37.83522033691406 7.079368591308594 1.243674635887146
36.80375671386719 8.336465835571289 1.2047984600067139
36.63846969604492 8.542882919311523 1.1988294124603271
36.518531799316406 8.675878524780273 1.196077585220337
36.45338439941406 8.74171257019043 1.1922560930252075
36.406593322753906 8.810426712036133 1.1913186311721802
36.367095947265625 8.88315200805664 1.191970705986023
36.32483673095703 8.952746391296387 1.18827486038208
36.24070739746094 9.01182746887207 1.186131477355957
36.18196105957031 9.07933521270752 1.1835274696350098
36.132442474365234 9.14665699005127 1.1815717220306396
35.99988555908203 9.274599075317383 1.1771796941757202
35.9644660949707 9.34510326385498 1.1756956577301025
35.785606384277344 9.540175437927246 1.1695222854614258
31.6136417388916 9.720870971679688 1.034622073173523
30.837379455566406 9.695974349975586 1.0092159509658813
30.335205078125 9.67747688293457 0.9921582341194153
30.07443618774414 9.664259910583496 0.9842944145202637
29.599903106689453 9.64948844909668 0.9681870341300964
29.359102249145508 9.638435363769531 0.9609609246253967
28.876827239990234 9.615015029907227 0.9446364641189575
28.660797119140625 9.609200477600098 0.9382227063179016
28.42959213256836 9.59817886352539 0.9294806718826294
