VERSION .7
FIELDS x y z
SIZE 4 4 4
TYPE F F F
COUNT 1 1 1
WIDTH 840
HEIGHT 1
VIEWPOINT 0 0 0 1 0 0 0
POINTS 840
DATA ascii
7.049215316772461 5.5788774490356445 -0.008364291861653328
7.029417991638184 5.586972713470459 -0.008353855460882187
6.978738307952881 5.594810485839844 -0.008321302942931652
6.893244743347168 5.5978193283081055 -0.008261882700026035
6.807502746582031 5.599575519561768 -0.008200072683393955
6.640740394592285 5.604556083679199 -0.008086197078227997
6.5767316818237305 5.621708869934082 -0.008049022406339645
6.486237049102783 5.615307331085205 -0.007983965799212456
6.419638156890869 5.628643989562988 -0.007943346165120602
6.373379707336426 5.63573694229126 -0.008363357745110989
6.346116065979004 5.635138511657715 -0.008340629749000072
6.300610065460205 5.642365455627441 -0.008313165977597237
6.280174255371094 5.647592544555664 -0.008301236666738987
6.251038551330566 5.6455912590026855 -0.008278632536530495
6.209407806396484 5.63143253326416 -0.008240359835326672
6.188683032989502 5.636086463928223 -0.008229183964431286
6.173919677734375 5.646817207336426 -0.008224442601203918
6.144883632659912 5.643723011016846 -0.008271554484963417
6.1244635581970215 5.648443698883057 -0.008259430527687073
6.095985412597656 5.646325588226318 -0.008237209171056747
6.075963497161865 5.651252269744873 -0.008226288482546806
6.049314975738525 5.650616645812988 -0.008208081126213074
6.027027130126953 5.653263092041016 -0.008192213252186775
5.997951984405518 5.649434566497803 -0.008168436586856842
5.99224853515625 5.668269157409668 -0.00817586574703455
5.949239253997803 5.6510233879089355 -0.008135076612234116
5.937036037445068 5.6629157066345215 -0.008133213967084885
5.917630195617676 5.668597221374512 -0.008123040199279785
5.89149284362793 5.667051315307617 -0.008104833774268627
5.86023473739624 5.660539627075195 -0.008077502250671387
5.855687618255615 5.6802825927734375 -0.00808786042034626
5.824108123779297 5.673154354095459 -0.008060822263360023
5.777228355407715 5.675101280212402 -0.00802887137979269
5.760818004608154 5.682615756988525 -0.0080207334831357
5.70424747467041 5.674313545227051 -0.007976424880325794
5.646796226501465 5.688236713409424 -0.007945365272462368
5.573772430419922 5.685820579528809 -0.007960738614201546
5.5131731033325195 5.695185661315918 -0.00792418047785759
5.450579643249512 5.70242166519165 -0.007886349223554134
5.408631324768066 5.705854892730713 -0.007860913872718811
5.376495838165283 5.6961798667907715 -0.007830623537302017
5.3286027908325195 5.69268274307251 -0.007797108963131905
5.310319423675537 5.697400093078613 -0.007788078393787146
5.29545783996582 5.705244064331055 -0.007781912572681904
5.279392242431641 5.712264060974121 -0.007775810547173023
5.245537757873535 5.699315547943115 -0.007745404727756977
5.2275872230529785 5.703617095947266 -0.00773556437343359
5.217522144317627 5.717009544372559 -0.007737324107438326
5.197680473327637 5.719058990478516 -0.0077252876944839954
5.172363758087158 5.715083122253418 -0.007705376949161291
5.144473552703857 5.708633899688721 -0.008087321184575558
5.13706636428833 5.724353313446045 -0.007689204066991806
5.108376502990723 5.716808319091797 -0.0076649123802781105
5.085443496704102 5.714969158172607 -0.008115183562040329
5.072714805603027 5.724639892578125 -0.008113374933600426
5.046314239501953 5.7193169593811035 -0.008091498166322708
5.021836757659912 5.7154388427734375 -0.008072901517152786
5.005133152008057 5.720422267913818 -0.00806381180882454
4.99471378326416 5.733084201812744 -0.008066147565841675
4.969605445861816 5.728318691253662 -0.00804508849978447
4.950174331665039 5.730509281158447 -0.008034984581172466
4.925704479217529 5.726160526275635 -0.00801378209143877
4.920192718505859 5.743917942047119 -0.008022015914320946
4.892526626586914 5.736278533935547 -0.00799776241183281
4.8772501945495605 5.74255895614624 -0.007992723025381565
4.856227397918701 5.741913795471191 -0.00797666609287262
4.836406707763672 5.743219375610352 -0.007963614538311958
4.826074123382568 5.755244255065918 -0.007967162877321243
4.799891948699951 5.748207092285156 -0.007944393903017044
4.771761417388916 5.739297866821289 -0.00791728775948286
4.759169578552246 5.748476028442383 -0.007916252128779888
4.718189716339111 5.748086929321289 -0.007889310829341412
4.6983819007873535 5.7482380867004395 -0.007874331437051296
4.662916660308838 5.754134178161621 -0.007856852374970913
4.611908912658691 5.764906883239746 -0.008281698450446129
4.575751304626465 5.769351959228516 -0.00826096348464489
4.547849655151367 5.7586774826049805 -0.008231867104768753
4.508932590484619 5.759099960327148 -0.00820587482303381
4.503546237945557 5.777505397796631 -0.008217504248023033
4.4817328453063965 5.774293899536133 -0.008199476636946201
4.450105667114258 5.758175849914551 -0.008164804428815842
4.437981605529785 5.7678117752075195 -0.008163251914083958
4.414865016937256 5.762570858001709 -0.008144763298332691
4.409361362457275 5.7801947593688965 -0.008155390620231628
4.38627290725708 5.7753705978393555 -0.008135397918522358
4.367826461791992 5.77603006362915 -0.008122656494379044
4.340988636016846 5.7653703689575195 -0.008097793906927109
4.3361897468566895 5.784569263458252 -0.008109990507364273
4.306543350219727 5.7700324058532715 -0.008076959289610386
4.286829948425293 5.76918888092041 -0.00806350540369749
4.269657611846924 5.771157741546631 -0.008054780773818493
4.245489120483398 5.763466835021973 -0.008031720295548439
4.23732328414917 5.778088092803955 -0.008038926869630814
4.21005392074585 5.766058921813965 -0.008010007441043854
4.200725555419922 5.779062747955322 -0.007954059168696404
4.184735298156738 5.782256126403809 -0.008442715741693974
4.167481422424316 5.783750534057617 -0.008432147093117237
4.147633075714111 5.782104015350342 -0.008417641744017601
4.135923385620117 5.791220188140869 -0.008357826620340347
4.116316318511963 5.78912878036499 -0.00834297202527523
4.0972371101379395 5.788336753845215 -0.008329265750944614
4.080357074737549 5.790034770965576 -0.008319202810525894
4.05550479888916 5.780206680297852 -0.008294072933495045
4.040433883666992 5.784970760345459 -0.008287996053695679
4.024925708770752 5.788318634033203 -0.008280106820166111
3.998551845550537 5.776573657989502 -0.0082519156858325
3.996859073638916 5.799914836883545 -0.008272847160696983
3.98046612739563 5.801858425140381 -0.00826307013630867
3.9656903743743896 5.806769371032715 -0.008259001187980175
3.937924861907959 5.791989326477051 -0.008226055651903152
3.9302141666412354 5.8065290451049805 -0.008234241046011448
3.911695718765259 5.805848121643066 -0.008221551775932312
3.8941760063171387 5.805808067321777 -0.008211054839193821
3.8723061084747314 5.7991814613342285 -0.008190604858100414
3.859088897705078 5.806206226348877 -0.00818955060094595
3.8336808681488037 5.794024467468262 -0.008161008358001709
3.808372974395752 5.8087873458862305 -0.008157114498317242
3.7963104248046875 5.816678047180176 -0.008157114498317242
3.778574228286743 5.816612720489502 -0.0085114985704422
3.7699332237243652 5.8297576904296875 -0.00851823203265667
3.7327494621276855 5.825919151306152 -0.008489406667649746
3.7103259563446045 5.817462921142578 -0.00846731849014759
3.7020816802978516 5.831978797912598 -0.008475993759930134
3.68264102935791 5.828048229217529 -0.00845933984965086
3.6554243564605713 5.811648368835449 -0.008424890227615833
3.641772747039795 5.81748104095459 -0.008422206155955791
3.62839674949646 5.8229475021362305 -0.008419299498200417
3.6067118644714355 5.815680503845215 -0.008397352881729603
3.5992164611816406 5.830682754516602 -0.008408281952142715
3.579960346221924 5.826505184173584 -0.00839091744273901
3.56162428855896 5.824522018432617 -0.00837717019021511
3.543231725692749 5.821552753448486 -0.008362037129700184
3.5313916206359863 5.82930326461792 -0.008363546803593636
3.517679214477539 5.834757328033447 -0.00835996214300394
3.5027260780334473 5.837316036224365 -0.008354471996426582
3.487173318862915 5.838826656341553 -0.007930711843073368
3.4651007652282715 5.830125331878662 -0.007908524945378304
3.4514689445495605 5.834723949432373 -0.007903768680989742
3.434302806854248 5.834110260009766 -0.00789350550621748
3.417877674102783 5.833866119384766 -0.007885008119046688
3.398164987564087 5.827913761138916 -0.007866822183132172
3.3879759311676025 5.839069843292236 -0.00828387401998043
3.376554489135742 5.847304821014404 -0.008285059593617916
23.727008819580078 4.486272811889648 0.20830178260803223
23.64447784423828 4.62481164932251 0.2065620720386505
23.55470085144043 4.710330963134766 0.20594939589500427
23.51202392578125 4.855715751647949 0.20584429800510406
18.644058227539062 5.26054573059082 0.1610337793827057
18.28675079345703 5.284064292907715 0.1582302451133728
18.05223274230957 5.298773765563965 0.15639442205429077
17.918018341064453 5.299790382385254 0.15532635152339935
17.69695281982422 5.315554618835449 0.15360158681869507
17.5911922454834 5.323611259460449 0.1526261270046234
17.372507095336914 5.33739709854126 0.14996729791164398
17.26460075378418 5.343478679656982 0.1491289585828781
17.06866455078125 5.361708641052246 0.14763425290584564
14.322004318237305 5.54556941986084 0.12150019407272339
14.075191497802734 5.552003860473633 0.1194424107670784
13.953051567077637 5.571844577789307 0.11860749125480652
13.886177062988281 5.578578472137451 0.11813699454069138
13.73030948638916 5.583230972290039 0.11700831353664398
13.65904712677002 5.587314605712891 0.11650155484676361
13.510234832763672 5.592973709106445 0.11466135084629059
13.445783615112305 5.599005699157715 0.11421246826648712
13.307089805603027 5.607126712799072 0.11323333531618118
13.235564231872559 5.609360218048096 0.11272677034139633
13.095721244812012 5.615267753601074 0.11161314696073532
11.585983276367188 5.704391002655029 0.09822744876146317
11.413753509521484 5.709769248962402 0.09707217663526535
11.30892562866211 5.71625280380249 0.09638101607561111
11.252068519592285 5.7176055908203125 0.09467194974422455
11.14780330657959 5.723820686340332 0.09389108419418335
11.097538948059082 5.727145671844482 0.09356771409511566
10.99977970123291 5.735485553741455 0.09294763952493668
10.948684692382812 5.737771987915039 0.09261491894721985
10.881453514099121 5.731470584869385 0.09214769303798676
10.850842475891113 5.744874000549316 0.09199144691228867
10.788896560668945 5.740773677825928 0.09156753122806549
10.728240966796875 5.737214088439941 0.09115330874919891
10.66541576385498 5.7328338623046875 0.0907229632139206
10.637587547302246 5.746359825134277 0.0904851108789444
10.559346199035645 5.761673927307129 0.09002872556447983
10.510807037353516 5.76352596282959 0.0897158607840538
10.35987377166748 5.765882968902588 0.08873438835144043
9.417232513427734 5.798823356628418 0.08151284605264664
9.301631927490234 5.808602809906006 0.08082617074251175
9.239776611328125 5.824206352233887 0.08050313591957092
9.188751220703125 5.818722724914551 0.08016274869441986
9.108379364013672 5.821712970733643 0.07910553365945816
9.076781272888184 5.8287577629089355 0.07893869280815125
9.001830101013184 5.833643913269043 0.0784979909658432
8.952585220336914 5.828816890716553 0.07817590981721878
8.920080184936523 5.834155082702637 0.07799851894378662
8.875121116638184 5.83174991607666 0.0777137503027916
8.853958129882812 5.844186305999756 0.07763420045375824
8.803305625915527 5.837123870849609 0.07729654014110565
8.781322479248047 5.849485397338867 0.07721395790576935
8.734224319458008 5.844315528869629 0.07690446823835373
8.690055847167969 5.841012001037598 0.07662151008844376
8.668964385986328 5.853653430938721 0.07654761523008347
8.620757102966309 5.847290515899658 0.07622731477022171
8.516932487487793 5.855380058288574 0.07563463598489761
8.414016723632812 5.862861633300781 0.07450653612613678
8.306843757629395 5.8661041259765625 0.07379785925149918
7.912014961242676 5.891668796539307 0.07158678025007248
7.807045936584473 5.890158653259277 0.07097012549638748
7.750672340393066 5.899011611938477 0.07068288326263428
7.701127052307129 5.8865814208984375 0.07034201174974442
7.657628059387207 5.904589653015137 0.07017329335212708
7.625855922698975 5.905365467071533 0.06999295949935913
7.559865474700928 5.905360221862793 0.06961382925510406
7.524094581604004 5.902600288391113 0.06939855217933655
7.488622665405273 5.900659084320068 0.06918584555387497
7.46026611328125 5.9034504890441895 0.06903792917728424
7.438700199127197 5.911529064178467 0.06887083500623703
7.406508445739746 5.91180419921875 0.06869040429592133
7.373742580413818 5.910743236541748 0.06849938631057739
7.353089809417725 5.919931411743164 0.06842686980962753
7.319339275360107 5.917937278747559 0.06822642683982849
7.293220520019531 5.9218902587890625 0.06809712946414948
7.269482135772705 5.928427696228027 0.06799328327178955
7.239442348480225 5.928987503051758 0.06782872974872589
7.212305068969727 5.9324469566345215 0.06769143044948578
7.169461727142334 5.922295093536377 0.06740636378526688
7.157085418701172 5.937101364135742 0.06740492582321167
7.09048318862915 5.932438373565674 0.06701155006885529
7.04489278793335 5.919190406799316 0.06669533997774124
6.99410343170166 5.926944732666016 0.06645038723945618
6.920381546020508 5.9396209716796875 0.06610505282878876
6.842178821563721 5.94760799407959 0.06571517139673233
6.766140937805176 5.956599712371826 0.0653417706489563
6.60101842880249 5.96094274520874 0.06447073072195053
6.516809463500977 5.959701061248779 0.06401163339614868
6.461362838745117 5.959158420562744 0.06325112283229828
6.449221134185791 5.972774982452393 0.06371664255857468
6.3920512199401855 5.970033645629883 0.06293895840644836
6.364640235900879 5.969209671020508 0.06279052048921585
6.312846660614014 5.970803260803223 0.06252716481685638
6.277161598205566 5.961780071258545 0.06229627504944801
6.27109432220459 5.9815497398376465 0.06236346811056137
6.233753204345703 5.970687389373779 0.06211432069540024
6.204087734222412 5.9670090675354 0.06194249913096428
6.1918416023254395 5.980745315551758 0.061947040259838104
6.155027866363525 5.969926357269287 0.06170245632529259
6.135485649108887 5.975732326507568 0.061558227986097336
6.106878280639648 5.973343849182129 0.061399176716804504
6.085016250610352 5.976718425750732 0.061303503811359406
6.063262462615967 5.980854034423828 0.061214152723550797
6.036968231201172 5.979684829711914 0.06107209622859955
6.005195617675781 5.972953796386719 0.060875676572322845
5.993642807006836 5.986987590789795 0.06089015305042267
5.964629173278809 5.982785701751709 0.060720376670360565
5.944184303283691 5.987176895141602 0.06063949689269066
5.915889739990234 5.984090805053711 0.060480207204818726
5.908455848693848 6.001429557800293 0.06053195521235466
5.858699798583984 6.001236915588379 0.0602816678583622
5.839033126831055 6.005974769592285 0.06020734831690788
5.775084972381592 5.990469932556152 0.05980674549937248
5.754334449768066 5.993890285491943 0.05972069874405861
5.707876205444336 5.995737075805664 0.05949850752949715
5.636085033416748 5.995349884033203 0.05914247781038284
5.581548690795898 6.012738227844238 0.058898020535707474
5.505025386810303 6.0055832862854 0.05848701298236847
5.452698707580566 5.999024391174316 0.05819926783442497
5.437090873718262 6.007485389709473 0.05816851183772087
5.396523475646973 6.0127339363098145 0.0580015629529953
5.36391019821167 6.002039432525635 0.05778748542070389
5.333515167236328 6.018855094909668 0.057734061032533646
5.307717800140381 6.014843463897705 0.05758919566869736
5.286037921905518 6.015492916107178 0.05749044194817543
5.266158103942871 6.018648624420166 0.057413507252931595
5.23153018951416 6.004169464111328 0.057170797139406204
5.2249064445495605 6.021854400634766 0.0572364442050457
5.197172164916992 6.0157012939453125 0.057072266936302185
5.172654151916504 6.012497425079346 0.05693855881690979
5.144664287567139 6.005227088928223 0.05676810443401337
5.138223171234131 6.023603439331055 0.05683908984065056
5.116260051727295 6.023228168487549 0.05673567205667496
5.0994791984558105 6.029427528381348 0.0566914863884449
5.068708419799805 6.018329620361328 0.056488506495952606
5.050187110900879 6.021759510040283 0.05594133585691452
5.036602020263672 6.031580924987793 0.05593389645218849
5.004716873168945 6.018843173980713 0.055715955793857574
4.988511085510254 6.024742126464844 0.055676382035017014
4.974127292633057 6.033459186553955 0.0556584931910038
4.944494247436523 6.023040771484375 0.05546748638153076
4.923644542694092 6.023731708526611 0.05537748709321022
4.909698486328125 6.0321736335754395 0.05536224693059921
4.893355846405029 6.037746429443359 0.055320024490356445
4.8748674392700195 6.041168212890625 0.05525565519928932
4.851216793060303 6.037557601928711 0.0551285445690155
4.827449321746826 6.0335774421691895 0.05500095337629318
4.817751884460449 6.047792911529541 0.05503751337528229
4.788278579711914 6.036561012268066 0.054845940321683884
4.749063968658447 6.039083480834961 0.05468643829226494
4.7324018478393555 6.043769359588623 0.054637789726257324
4.6841936111450195 6.034385681152344 0.054374612867832184
4.667048454284668 6.038125038146973 0.0543212927877903
4.631147861480713 6.044114589691162 0.054264456033706665
4.596624374389648 6.05167818069458 0.054158106446266174
4.580255031585693 6.056177616119385 0.05358442664146423
4.538534641265869 6.053839206695557 0.053393036127090454
4.519330024719238 6.054359436035156 0.053317416459321976
4.481189250946045 6.056305885314941 0.053166575729846954
4.4521989822387695 6.043313026428223 0.053032971918582916
4.428927421569824 6.065048694610596 0.053061820566654205
4.403997898101807 6.057932376861572 0.052916619926691055
4.395299911499023 6.072530746459961 0.05296558886766434
4.357040882110596 6.046048641204834 0.05265294387936592
4.350697994232178 6.064410209655762 0.05273408815264702
4.326338768005371 6.057062149047852 0.052590832114219666
4.317563056945801 6.072051525115967 0.05264246463775635
4.288454055786133 6.057692527770996 0.052439428865909576
4.27095365524292 6.059706211090088 0.05237909406423569
4.258663654327393 6.069655418395996 0.05238833278417587
4.240955352783203 6.071282863616943 0.05232555419206619
4.221714019775391 6.07053279876709 0.052243422716856
4.197407245635986 6.063063621520996 0.05210156738758087
4.182247638702393 6.068142890930176 0.05207151174545288
4.162830352783203 6.06687593460083 0.051985740661621094
4.145824432373047 6.069845676422119 0.05193464457988739
4.133429527282715 6.0787458419799805 0.05148933827877045
4.104989051818848 6.064631938934326 0.05129537731409073
4.08657169342041 6.064605712890625 0.051222484558820724
4.073208332061768 6.071927070617676 0.05121346563100815
4.06156063079834 6.082498073577881 0.05122968927025795
4.037278652191162 6.073498249053955 0.05108208954334259
4.014361381530762 6.066291332244873 0.05094974488019943
3.9981937408447266 6.069995403289795 0.05091140419244766
3.985030174255371 6.077427387237549 0.05090417340397835
3.9656615257263184 6.07604455947876 0.05088279768824577
3.9562172889709473 6.089256286621094 0.05092458426952362
3.9201459884643555 6.061232566833496 0.05062009021639824
3.9139065742492676 6.079916000366211 0.050708163529634476
3.8898797035217285 6.070345401763916 0.05056054890155792
3.863274335861206 6.085087776184082 0.05054745450615883
3.8523428440093994 6.095789909362793 0.05056920647621155
3.802954912185669 6.074134826660156 0.050255607813596725
3.7899765968322754 6.081427574157715 0.05025167390704155
3.7805795669555664 6.095318794250488 0.05030084773898125
3.757065534591675 6.085565567016602 0.05015484616160393
3.7444729804992676 6.09342098236084 0.050155606120824814
3.719259262084961 6.081476211547852 0.04999103024601936
3.7065839767456055 6.089104652404785 0.04955460876226425
3.680846929550171 6.104559898376465 0.049555279314517975
3.6612987518310547 6.100735187530518 0.0498369000852108
3.63908052444458 6.093175888061523 0.04976998269557953
3.6188273429870605 6.087928295135498 0.04966709762811661
3.6124446392059326 6.106003284454346 0.04975304752588272
3.5886847972869873 6.095518589019775 0.04960457608103752
3.5751638412475586 6.1014790534973145 0.04959259182214737
3.55781626701355 6.100863456726074 0.04952819645404816
3.5398952960968018 6.100040435791016 0.049459680914878845
3.520197868347168 6.095198154449463 0.04936063289642334
3.5065107345581055 6.101559162139893 0.04935222864151001
3.4930639266967773 6.1074628829956055 0.049341704696416855
3.476067543029785 6.107119083404541 0.04927928000688553
3.450190305709839 6.091888427734375 0.04909593239426613
3.439293384552002 6.102144241333008 0.049121104180812836
3.4248788356781006 6.107032775878906 0.04910334572196007
3.4123620986938477 6.1144208908081055 0.04910515621304512
3.39249324798584 6.108572483062744 0.049001701176166534
3.3803722858428955 6.117501258850098 0.04901507869362831
3.353890895843506 6.0994439125061035 0.04887278750538826
3.341076612472534 6.106117248535156 0.04886990413069725
3.3186583518981934 6.096034526824951 0.04873247072100639
3.3120810985565186 6.114133358001709 0.048399075865745544
3.294466972351074 6.1127610206604 0.04833214730024338
23.073078155517578 0.010055935010313988 0.11704159528017044
23.02713394165039 0.10701341181993484 0.11680467426776886
22.942960739135742 0.25086528062820435 0.11638530343770981
22.884963989257812 0.39412927627563477 0.12110095471143723
22.677764892578125 0.8199629783630371 0.11868010461330414
22.504030227661133 0.9553746581077576 0.11780226230621338
22.432464599609375 1.046996831893921 0.11745040118694305
22.382461547851562 1.091216802597046 0.1160234659910202
22.29204559326172 1.2273283004760742 0.1154002770781517
22.24358367919922 1.3186438083648682 0.11517832428216934
22.22905158996582 1.3640798330307007 0.11511655896902084
22.196969985961914 1.4559686183929443 0.11964800953865051
22.159696578979492 1.4997138977050781 0.11946362257003784
22.135900497436523 1.54561448097229 0.11935429275035858
22.129016876220703 1.591286301612854 0.1181703507900238
22.0924072265625 1.6349345445632935 0.11780266463756561
22.080997467041016 1.6813355684280396 0.11776214092969894
22.063308715820312 1.726047396659851 0.11768501996994019
22.01124382019043 1.8152714967727661 0.11744798719882965
21.99395751953125 1.8598058223724365 0.1173747330904007
21.97956657409668 1.9058866500854492 0.1173199713230133
21.96285057067871 1.9503655433654785 0.11725126951932907
21.946022033691406 1.9947810173034668 0.11718355119228363
21.920446395874023 2.039679527282715 0.11707057058811188
21.894163131713867 2.083070993423462 0.11580030620098114
21.848848342895508 2.171645164489746 0.11541882157325745
21.829654693603516 2.2154948711395264 0.1153402179479599
21.801084518432617 2.3053953647613525 0.11524002999067307
21.7702579498291 2.347827911376953 0.11510208994150162
21.73111343383789 2.436232566833496 0.1149502620100975
21.734031677246094 2.4822394847869873 0.11480359733104706
21.67949104309082 2.5685479640960693 0.11686260998249054
21.65105438232422 2.610751152038574 0.11673879623413086
21.402801513671875 3.084606409072876 0.11443427205085754
21.34811019897461 3.2138454914093018 0.11406228691339493
21.293376922607422 3.342634439468384 0.11387947201728821
21.215848922729492 3.46726393699646 0.11245213449001312
21.207197189331055 3.511049509048462 0.11564206331968307
21.14083480834961 3.5916008949279785 0.11423742771148682
21.141700744628906 3.6369030475616455 0.1142822876572609
21.101348876953125 3.6763901710510254 0.11392246186733246
21.082290649414062 3.7181637287139893 0.11386094987392426
21.073976516723633 3.7618067264556885 0.11385796219110489
21.063222885131836 3.8063347339630127 0.11384337395429611
21.020793914794922 3.84373140335083 0.11365693807601929
21.00379180908203 3.88568377494812 0.1136084571480751
20.99262046813965 3.9300153255462646 0.11359310150146484
20.981382369995117 3.9729952812194824 0.11245663464069366
20.93353843688965 4.0089521408081055 0.11224473267793655
20.91487693786621 4.051715850830078 0.11200787127017975
20.894855499267578 4.092843532562256 0.11194590479135513
20.859731674194336 4.132253646850586 0.11180469393730164
20.852184295654297 4.175747394561768 0.11181042343378067
20.831533432006836 4.216594219207764 0.1117463931441307
20.834314346313477 4.26350736618042 0.11180988699197769
20.80250358581543 4.301994323730469 0.11168695241212845
20.792884826660156 4.34501838684082 0.11056914925575256
20.719648361206055 4.375929832458496 0.11022956669330597
20.713279724121094 4.419506549835205 0.11006216704845428
20.67829704284668 4.458247661590576 0.10992668569087982
20.638853073120117 4.494584560394287 0.10976643860340118
20.634355545043945 4.538476943969727 0.10979253053665161
20.635223388671875 4.584903240203857 0.10984856635332108
20.572511672973633 4.615789890289307 0.10956568270921707
20.533174514770508 4.651739597320557 0.10940708220005035
20.213197708129883 4.668830871582031 0.10780540108680725
20.07099723815918 4.679880619049072 0.10601741820573807
19.800662994384766 4.7048563957214355 0.10451868921518326
19.398433685302734 4.7383131980896 0.1025507003068924
19.001867294311523 4.768227577209473 0.10061092674732208
18.632570266723633 4.800268650054932 0.09763889759778976
18.292922973632812 4.836627006530762 0.0960175171494484
17.920330047607422 4.859014987945557 0.09340551495552063
17.57771873474121 4.884949684143066 0.09066449105739594
17.37234878540039 4.906621932983398 0.08970986306667328
17.266883850097656 4.915706634521484 0.08921816945075989
17.055492401123047 4.933268070220947 0.0882328674197197
16.954557418823242 4.942224502563477 0.08776341378688812
16.735942840576172 4.95506477355957 0.085673987865448
16.64004898071289 4.964254379272461 0.0852356106042862
16.45877456665039 4.985753536224365 0.08441348373889923
16.35282325744629 4.990731239318848 0.08392336219549179
16.273778915405273 5.004482269287109 0.08357179909944534
16.17230796813965 5.010188579559326 0.08310461044311523
16.09923553466797 5.024189472198486 0.08263764530420303
15.995464324951172 5.029327869415283 0.08128014206886292
15.911470413208008 5.039226055145264 0.08090651780366898
15.800305366516113 5.040120601654053 0.08039399236440659
15.712345123291016 5.049068450927734 0.08000097423791885
15.616226196289062 5.053957939147949 0.07956527918577194
15.53520393371582 5.063375473022461 0.07777054607868195
15.458666801452637 5.074986457824707 0.07744020223617554
15.37802791595459 5.083889484405518 0.07695120573043823
15.279609680175781 5.087441444396973 0.07651163637638092
15.212934494018555 5.100479602813721 0.07623077929019928
15.1129150390625 5.101858615875244 0.07494618743658066
15.04178524017334 5.113523006439209 0.07464741170406342
14.939109802246094 5.113369941711426 0.07419201731681824
14.879715919494629 5.127560615539551 0.07394707202911377
14.801372528076172 5.135963439941406 0.07361187040805817
14.724906921386719 5.143691539764404 0.07315124571323395
14.62899398803711 5.145137310028076 0.07272952049970627
14.539548873901367 5.1477484703063965 0.07233884930610657
14.471138954162598 5.157347679138184 0.07124513387680054
14.402788162231445 5.167551040649414 0.07096188515424728
14.339983940124512 5.178770065307617 0.07070457190275192
14.247758865356445 5.178912162780762 0.07030447572469711
14.100530624389648 5.1927289962768555 0.06955599039793015
14.022294998168945 5.196988105773926 0.069224052131176
13.81009578704834 5.218146324157715 0.06756342947483063
13.602188110351562 5.237543106079102 0.06554975360631943
12.861563682556152 5.296208381652832 0.061582375317811966
12.805015563964844 5.304156303405762 0.061363667249679565
12.667448997497559 5.309656620025635 0.060091279447078705
12.59685230255127 5.310952186584473 0.05969187244772911
12.547453880310059 5.321596622467041 0.05951116979122162
12.496923446655273 5.330916881561279 0.05932391434907913
12.431546211242676 5.333548069000244 0.059065915644168854
12.364456176757812 5.33594274520874 0.05880095809698105
12.29732894897461 5.337398052215576 0.05853330343961716
12.241145133972168 5.343228340148926 0.05831993371248245
12.174627304077148 5.345061302185059 0.05735859274864197
12.130640983581543 5.355926036834717 0.05754247307777405
12.059030532836914 5.354238986968994 0.057253941893577576
12.007524490356445 5.362107753753662 0.057065531611442566
11.943586349487305 5.363310813903809 0.05681454762816429
11.906966209411621 5.376585960388184 0.05668959394097328
11.831306457519531 5.372878551483154 0.05559404194355011
11.776535034179688 5.377512454986572 0.05538997799158096
11.72281265258789 5.383153438568115 0.055189695209264755
11.670190811157227 5.388462543487549 0.054993096739053726
11.604341506958008 5.387301921844482 0.0547356978058815
11.561500549316406 5.397343635559082 0.054587773978710175
11.50602912902832 5.400676250457764 0.05437895283102989
11.438923835754395 5.3981757164001465 0.05334385484457016
11.393521308898926 5.406538486480713 0.05318448692560196
11.341694831848145 5.410809516906738 0.052995096892118454
11.279516220092773 5.409909248352051 0.05275809019804001
11.245071411132812 5.422967433929443 0.052650127559900284
11.18668270111084 5.423450946807861 0.052429527044296265
11.139006614685059 5.429638862609863 0.052260059863328934
11.070108413696289 5.4246320724487305 0.051883894950151443
11.029029846191406 5.432914733886719 0.051099665462970734
10.969110488891602 5.432431221008301 0.05087443068623543
10.940372467041016 5.446616172790527 0.050793781876564026
10.873946189880371 5.4417338371276855 0.05053984373807907
10.8356294631958 5.451417922973633 0.050724729895591736
10.774858474731445 5.449008464813232 0.05049324035644531
10.750775337219238 5.465584754943848 0.050431028008461
10.63416576385498 5.4620771408081055 0.04999406263232231
10.588432312011719 5.467091083526611 0.04973115026950836
10.483545303344727 5.468277454376221 0.04872395098209381
10.202211380004883 5.486483573913574 0.047635484486818314
10.088713645935059 5.5074920654296875 0.04666038602590561
9.947175979614258 5.511676788330078 0.04606769233942032
9.813515663146973 5.518645286560059 0.04502207040786743
9.733543395996094 5.527646064758301 0.04553558677434921
9.689474105834961 5.529352188110352 0.04538416862487793
9.60900592803955 5.537099361419678 0.04511400684714317
9.565858840942383 5.538819313049316 0.0449681356549263
9.528220176696777 5.543459892272949 0.04474905505776405
9.490450859069824 5.548547267913818 0.04462796077132225
9.441837310791016 5.54655647277832 0.04387904703617096
9.418240547180176 5.559682846069336 0.043822336941957474
9.36728572845459 5.555849552154541 0.04363921284675598
9.335619926452637 5.563396453857422 0.04354645311832428
9.298337936401367 5.568023204803467 0.043334249407052994
9.246782302856445 5.56335973739624 0.04314916208386421
9.196493148803711 5.5591278076171875 0.042967770248651505
9.16316032409668 5.565633773803711 0.042304933071136475
9.137961387634277 5.576426982879639 0.04224042594432831
9.085180282592773 5.570125579833984 0.042053062468767166
9.039257049560547 5.568573951721191 0.04180607199668884
9.01378059387207 5.5787153244018555 0.041739653795957565
8.975954055786133 5.581752777099609 0.04161826893687248
8.933059692382812 5.5809245109558105 0.041476305574178696
8.913047790527344 5.594171047210693 0.040881577879190445
8.870198249816895 5.593620300292969 0.04073990508913994
8.814275741577148 5.584059238433838 0.04045030474662781
8.790288925170898 5.5944600105285645 0.04230087995529175
8.760480880737305 5.601714134216309 0.041662633419036865
8.70800495147705 5.593757152557373 0.04138597473502159
8.68912124633789 5.607133388519287 0.04134928062558174
8.64478874206543 5.6046142578125 0.04119641333818436
8.60239315032959 5.602621078491211 0.04105042666196823
8.573715209960938 5.609960556030273 0.04097003489732742
8.534246444702148 5.609566688537598 0.040752388536930084
8.51771354675293 5.624046802520752 0.040186308324337006
8.46853256225586 5.617483615875244 0.040011364966630936
8.398698806762695 5.621599197387695 0.03979331627488136
8.363958358764648 5.624151706695557 0.039684828370809555
8.297029495239258 5.630033493041992 0.03886919841170311
8.280242919921875 5.643773078918457 0.038840219378471375
8.199121475219727 5.6391987800598145 0.03857853636145592
8.15766716003418 5.635659217834473 0.03835408762097359
8.110633850097656 5.653774261474609 0.03824092447757721
8.003527641296387 5.654207229614258 0.03738706558942795
7.92547607421875 5.649251461029053 0.03875001147389412
7.90880012512207 5.662254810333252 0.03864281252026558
7.83778190612793 5.661386966705322 0.038412343710660934
7.805601119995117 5.662929534912109 0.03831278160214424
7.749356269836426 5.671989917755127 0.03756606951355934
7.704440116882324 5.663805961608887 0.03740875795483589
7.650180339813232 5.673600673675537 0.03725908696651459
7.6164727210998535 5.6732401847839355 0.037154633551836014
7.569955825805664 5.688214302062988 0.036462873220443726
7.543008804321289 5.692596912384033 0.03639065846800804
7.514342308044434 5.696097373962402 0.03630923479795456
7.482220649719238 5.69633674621582 0.036211494356393814
7.445618629455566 5.692916393280029 0.036091357469558716
7.423921585083008 5.7013983726501465 0.035963091999292374
7.384609222412109 5.695709705352783 0.035342954099178314
7.359316825866699 5.701215744018555 0.0352792888879776
7.331569194793701 5.704105377197266 0.03520190343260765
7.30391263961792 5.707058429718018 0.0351279117166996
7.267096519470215 5.7032365798950195 0.035009682178497314
7.248034954071045 5.712621212005615 0.036427270621061325
7.21196985244751 5.708599090576172 0.036229267716407776
7.1795501708984375 5.707826137542725 0.03612566739320755
7.153092384338379 5.711058616638184 0.0355740562081337
7.128310203552246 5.715634346008301 0.03550681471824646
7.098337650299072 5.716458320617676 0.03542057424783707
7.0690717697143555 5.717212200164795 0.03533048555254936
7.045141696929932 5.72208309173584 0.03519546985626221
7.003738880157471 5.713230133056641 0.03504756838083267
6.985821723937988 5.722898483276367 0.035018812865018845
6.944668769836426 5.713921546936035 0.034402452409267426
6.9308271408081055 5.726792812347412 0.034390732645988464
6.897256374359131 5.723181247711182 0.034207671880722046
6.8716511726379395 5.72666597366333 0.03413970023393631
6.847610950469971 5.730852127075195 0.034080155193805695
6.8132195472717285 5.726152420043945 0.03350063040852547
6.80268669128418 5.742042541503906 0.03350851684808731
6.7582573890686035 5.72869873046875 0.03327522426843643
6.746374130249023 5.742727279663086 0.03327321633696556
6.714060306549072 5.739902496337891 0.03317428007721901
6.689655303955078 5.743207931518555 0.03311148285865784
6.657604217529297 5.740344524383545 0.033014487475156784
6.633611679077148 5.743699550628662 0.0324915274977684
6.616165637969971 5.7527594566345215 0.03239068761467934
6.5924482345581055 5.756814479827881 0.03371434286236763
6.540014266967773 5.759751796722412 0.03303799405694008
6.516777992248535 5.763345241546631 0.03297946974635124
6.467381000518799 5.768380641937256 0.032852597534656525
6.425353527069092 5.754880428314209 0.03224790841341019
6.370311260223389 5.754115104675293 0.032020557671785355
6.345785140991211 5.755919456481934 0.03195834159851074
6.306543350219727 5.768921852111816 0.03188105672597885
6.2866973876953125 5.774776458740234 0.03139318898320198
6.2307634353637695 5.771965980529785 0.031162625178694725
6.184806823730469 5.777982711791992 0.03105267882347107
6.144308567047119 5.764074325561523 0.030911916866898537
6.141557693481445 5.785599708557129 0.030442338436841965
6.118837356567383 5.788818836212158 0.03038961812853813
6.09025239944458 5.785772800445557 0.030308403074741364
6.061426162719727 5.782464981079102 0.030224870890378952
6.041060447692871 5.787637710571289 0.030183671042323112
6.011102199554443 5.783006191253662 0.030095204710960388
5.991907119750977 5.788529872894287 0.030425339937210083
5.960864067077637 5.783111572265625 0.03033122979104519
5.948198318481445 5.7949323654174805 0.030327890068292618
5.919510841369629 5.791585445404053 0.030173184350132942
5.891457557678223 5.788115501403809 0.030093153938651085
5.866530418395996 5.787698268890381 0.029594171792268753
5.840137004852295 5.78623104095459 0.029522990807890892
5.821134090423584 5.791390895843506 0.029486827552318573
5.7982563972473145 5.792721271514893 0.02936285361647606
5.782280921936035 5.801395893096924 0.02934304252266884
5.753241539001465 5.7963666915893555 0.029258038848638535
5.733658790588379 5.801273345947266 0.02879236824810505
5.712460994720459 5.8038649559021 0.02874569222331047
5.694055080413818 5.809329032897949 0.02871394157409668
5.666311740875244 5.805682182312012 0.028567485511302948
5.648999214172363 5.812025547027588 0.028540194034576416
5.61420202255249 5.800357341766357 0.028002161532640457
5.5941243171691895 5.804275989532471 0.02796451561152935
5.573218822479248 5.806652545928955 0.02791815809905529
5.547966957092285 5.804505348205566 0.027785610407590866
5.531442165374756 5.811923980712891 0.027764488011598587
5.505957126617432 5.809239864349365 0.027697032317519188
5.4900054931640625 5.8172478675842285 0.02725815959274769
5.458278656005859 5.807727813720703 0.02716146968305111
5.446049213409424 5.81896448135376 0.027511680498719215
5.418435096740723 5.814206600189209 0.02743423543870449
5.390127658843994 5.807950973510742 0.02735251560807228
5.374170303344727 5.815009117126465 0.026916811242699623
5.3646745681762695 5.8295722007751465 0.02692968025803566
5.328995704650879 5.814971923828125 0.026745524257421494
5.318428039550781 5.827773571014404 0.026753295212984085
5.288283824920654 5.819562911987305 0.02666410058736801
5.254230499267578 5.830625057220459 0.026201507076621056
5.224765777587891 5.822793483734131 0.026050571352243423
5.176123142242432 5.81768798828125 0.02592986449599266
5.165245532989502 5.82977819442749 0.025936301797628403
5.127891540527344 5.836958885192871 0.025397568941116333
5.095523834228516 5.824448585510254 0.025296978652477264
5.082118511199951 5.834228038787842 0.025291940197348595
5.058388710021973 5.831375598907471 0.025233833119273186
5.048989772796631 5.845001220703125 0.025247398763895035
5.030229568481445 5.848491668701172 0.024745048955082893
5.003115177154541 5.84144401550293 0.024671392515301704
4.968235969543457 5.8504109382629395 0.02462053671479225
4.941629886627197 5.843615531921387 0.024548906832933426
4.90759801864624 5.853189945220947 0.024035785347223282
4.882340908050537 5.8476715087890625 0.02397148311138153
4.840094566345215 5.846949577331543 0.0238846093416214
4.825760364532471 5.854323863983154 0.023874130100011826
4.804553985595703 5.854031562805176 0.023766396567225456
4.779296398162842 5.847960948944092 0.023304985836148262
4.766989231109619 5.857769966125488 0.023303838446736336
4.741927623748779 5.852365016937256 0.02324282005429268
4.726569175720215 5.858222484588623 0.02322734147310257
4.70136022567749 5.851887226104736 0.023099327459931374
4.689877510070801 5.863101005554199 0.022708652541041374
4.665180206298828 5.857102394104004 0.022648528218269348
4.646651268005371 5.85884952545166 0.022618073970079422
4.629922866821289 5.863337993621826 0.022596649825572968
4.611123561859131 5.864614486694336 0.022501444444060326
4.596574783325195 5.8717803955078125 0.022491028532385826
4.585379600524902 5.882589340209961 0.02210387773811817
4.558091163635254 5.872777462005615 0.022031569853425026
4.536309719085693 5.870458602905273 0.021986402571201324
4.513418197631836 5.865954875946045 0.021935034543275833
4.498057842254639 5.87126350402832 0.021856635808944702
4.477560520172119 5.870339393615723 0.021492624655365944
4.454085826873779 5.864761829376221 0.02143855392932892
4.448624610900879 5.88362455368042 0.021409787237644196
4.433707237243652 5.889260292053223 0.02100950852036476
4.406595706939697 5.878596305847168 0.020938897505402565
4.391983509063721 5.885257720947266 0.02092941477894783
4.367549896240234 5.877925395965576 0.020870821550488472
4.34945011138916 5.879115104675293 0.02078089863061905
4.338019847869873 5.889834403991699 0.020401088520884514
4.312151908874512 5.880229473114014 0.020336821675300598
4.296782493591309 5.884945869445801 0.020322151482105255
4.287186145782471 5.898113250732422 0.02033526636660099
4.269720077514648 5.8997883796691895 0.02031048759818077
4.2379889488220215 5.882359504699707 0.020158963277935982
4.225837230682373 5.891231536865234 0.019777487963438034
4.20734977722168 5.891232967376709 0.019747495651245117
4.194584846496582 5.899966716766357 0.01974732056260109
4.175464153289795 5.898956298828125 0.019714850932359695
4.130190849304199 5.887418746948242 0.019557148218154907
4.11890983581543 5.897330284118652 0.019183918833732605
4.087103843688965 5.904608249664307 0.01915099285542965
4.062302112579346 5.894880771636963 0.019032202661037445
4.046843528747559 5.899380683898926 0.01870141550898552
4.0343546867370605 5.907418727874756 0.018700337037444115
3.9905195236206055 5.89639949798584 0.01824048161506653
3.9815070629119873 5.909464359283447 0.018253199756145477
3.942364454269409 5.904881477355957 0.01812826842069626
3.9186851978302 5.895872116088867 0.0180757287889719
3.9120047092437744 5.913182735443115 0.01773056387901306
3.889662981033325 5.906010150909424 0.017684288322925568
3.869814395904541 5.902502059936523 0.017589205875992775
3.8497941493988037 5.899411201477051 0.017556801438331604
3.847853183746338 5.923258304595947 0.017602846026420593
3.822784662246704 5.91148567199707 0.017544304952025414
3.806703567504883 5.91428804397583 0.01715916022658348
3.78908109664917 5.913838863372803 0.0170751940459013
3.7716939449310303 5.913792610168457 0.017052218317985535
3.751964569091797 5.910560607910156 0.01702011004090309
3.7415032386779785 5.921202182769775 0.01702827215194702
3.7243189811706543 5.92198371887207 0.017006922513246536
3.7044644355773926 5.917626857757568 0.016547847539186478
3.685755729675293 5.914999008178711 0.01651940867304802
3.6676366329193115 5.914030075073242 0.016493821516633034
3.6603705883026123 5.929752349853516 0.016515297815203667
3.635082721710205 5.9162187576293945 0.016151053830981255
3.614297866821289 5.9106621742248535 0.016115298494696617
3.6108837127685547 5.932704925537109 0.01615387760102749
3.587419033050537 5.921787738800049 0.01610497385263443
3.5711796283721924 5.92349910736084 0.01566704362630844
3.551853895187378 5.919188022613525 0.01563633419573307
3.5443899631500244 5.934742450714111 0.015655919909477234
3.5279650688171387 5.935895919799805 0.015639806166291237
3.5125234127044678 5.937936305999756 0.015624909661710262
3.4881629943847656 5.9256062507629395 0.015516389161348343
3.47822904586792 5.936878204345703 0.015164710581302643
3.4590702056884766 5.932367324829102 0.015134356915950775
3.4359874725341797 5.921816349029541 0.015089618973433971
3.423421859741211 5.928466320037842 0.0150877945125103
11.675235748291016 -11.894353866577148 0.06612283736467361
13.56014347076416 -11.722610473632812 0.07609237730503082
13.692536354064941 -11.687461853027344 0.07642171531915665
13.761149406433105 -11.696752548217773 0.07666875422000885
13.875401496887207 -11.693570137023926 0.07703053206205368
13.924800872802734 -11.685866355895996 0.07716938853263855
13.978582382202148 -11.680201530456543 0.0774826630949974
14.02719497680664 -11.671473503112793 0.07761789858341217
14.139668464660645 -11.664634704589844 0.08020496368408203
14.201104164123535 -11.665874481201172 0.08138319104909897
14.295414924621582 -11.642866134643555 0.08164165169000626
15.924461364746094 -11.482271194458008 0.0917297750711441
16.119497299194336 -11.469571113586426 0.09243561327457428
16.31256675720215 -11.453160285949707 0.09312698990106583
16.43781852722168 -11.4380521774292 0.09462060034275055
16.499446868896484 -11.430192947387695 0.09483861923217773
16.569849014282227 -11.428147315979004 0.0951065793633461
16.63218879699707 -11.418787956237793 0.09532472491264343
16.69903564453125 -11.413768768310547 0.09557145088911057
16.764705657958984 -11.407681465148926 0.0958118736743927
16.827613830566406 -11.397972106933594 0.09620285779237747
16.894241333007812 -11.392029762268066 0.09644811600446701
16.969846725463867 -11.39164924621582 0.09674393385648727
17.025625228881836 -11.37661361694336 0.10015720129013062
17.090579986572266 -11.368786811828613 0.10040035843849182
17.278324127197266 -11.337430000305176 0.10108211636543274
18.783447265625 -11.173471450805664 0.11053553968667984
18.99991226196289 -11.141124725341797 0.11158016324043274
19.229995727539062 -11.114175796508789 0.11251881718635559
19.391508102416992 -11.09884262084961 0.11318936198949814
19.458681106567383 -11.082387924194336 0.1134435385465622
19.621990203857422 -11.06757926940918 0.11531195789575577
19.701128005981445 -11.057024955749512 0.11563846468925476
19.782604217529297 -11.048830032348633 0.11598183214664459
19.861812591552734 -11.038840293884277 0.11631126701831818
19.94809913635254 -11.031304359436035 0.11667868494987488
20.03084945678711 -11.022627830505371 0.11702816933393478
20.102996826171875 -11.008042335510254 0.1173158809542656
20.196849822998047 -11.003636360168457 0.1177268773317337
20.264684677124023 -10.98590087890625 0.11798836290836334
20.359399795532227 -10.981258392333984 0.11840347200632095
20.43278694152832 -10.965944290161133 0.1186971366405487
20.530296325683594 -10.963459968566895 0.11913135647773743
20.692174911499023 -10.938161849975586 0.12103405594825745
20.786855697631836 -10.933082580566406 0.12145493179559708
20.957626342773438 -10.910470962524414 0.12218303978443146
21.04143714904785 -10.898664474487305 0.12253950536251068
21.21053695678711 -10.873205184936523 0.12325616180896759
21.485000610351562 -10.84388542175293 0.12571930885314941
22.31576156616211 -10.738343238830566 0.1293688267469406
22.613876342773438 -10.707237243652344 0.13070401549339294
22.89271354675293 -10.66360092163086 0.1319255381822586
23.085800170898438 -10.635452270507812 0.13277868926525116
23.183307647705078 -10.622109413146973 0.1332123875617981
23.39252471923828 -10.598999977111816 0.13415688276290894
23.508392333984375 -10.592754364013672 0.13469575345516205
23.70359992980957 -10.560845375061035 0.13555753231048584
23.80655860900879 -10.547562599182129 0.13602106273174286
23.92137908935547 -10.537358283996582 0.13654865324497223
24.022403717041016 -10.522390365600586 0.13700012862682343
24.12639045715332 -10.506810188293457 0.13746529817581177
24.24095916748047 -10.496670722961426 0.13799335062503815
24.347366333007812 -10.482799530029297 0.13847500085830688
24.45458221435547 -10.467094421386719 0.13895732164382935
24.559368133544922 -10.451696395874023 0.13942858576774597
24.670730590820312 -10.43867301940918 0.1399378925561905
24.77882194519043 -10.422056198120117 0.14042416214942932
24.88362693786621 -10.405415534973145 0.14231523871421814
24.991802215576172 -10.389771461486816 0.14138582348823547
25.1119441986084 -10.376856803894043 0.14193950593471527
25.22897720336914 -10.363975524902344 0.14247915148735046
25.462358474731445 -10.334735870361328 0.14355053007602692
25.57856559753418 -10.320128440856934 0.1440848708152771
25.805490493774414 -10.285530090332031 0.1451176553964615
25.93280029296875 -10.273958206176758 0.14571332931518555
26.153236389160156 -10.234070777893066 0.1467079520225525
26.517333984375 -10.184528350830078 0.14838813245296478
26.88332748413086 -10.131627082824707 0.1500767469406128
27.277023315429688 -10.082992553710938 0.1519152969121933
27.527246475219727 -10.045565605163574 0.15307465195655823
27.604328155517578 -10.007185935974121 0.1533827930688858
27.526470184326172 -9.783615112304688 0.15259835124015808
27.496957778930664 -9.644511222839355 0.14939716458320618
27.473737716674805 -9.570767402648926 0.14916004240512848
27.449596405029297 -9.498266220092773 0.1489211916923523
27.43160629272461 -9.42673397064209 0.14871445298194885
27.390613555908203 -9.349139213562012 0.14838671684265137
27.344091415405273 -9.269691467285156 0.14802971482276917
27.311614990234375 -9.193937301635742 0.14774766564369202
27.258167266845703 -9.112754821777344 0.14735549688339233
