VERSION .7
FIELDS x y z
SIZE 4 4 4
TYPE F F F
COUNT 1 1 1
WIDTH 833
HEIGHT 1
VIEWPOINT 0 0 0 1 0 0 0
POINTS 833
DATA ascii
7.607724189758301 -10.003791809082031 -0.2738024592399597
7.674221992492676 -10.004243850708008 -0.27481043338775635
7.703893661499023 -9.999157905578613 -0.2746690511703491
7.735147476196289 -9.996212005615234 -0.2758065462112427
7.773347854614258 -10.002622604370117 -0.2767550051212311
7.801873683929443 -9.995719909667969 -0.2774650752544403
7.82597541809082 -9.983282089233398 -0.2783510088920593
7.861934661865234 -9.985679626464844 -0.2792087495326996
7.897181510925293 -9.987201690673828 -0.2801627218723297
7.929508209228516 -9.985424041748047 -0.28135204315185547
7.954550743103027 -9.97366714477539 -0.28182253241539
7.992860794067383 -9.978620529174805 -0.28288862109184265
8.025800704956055 -9.976520538330078 -0.2840893864631653
8.059697151184082 -9.9761962890625 -0.28488749265670776
8.094852447509766 -9.976757049560547 -0.2858410179615021
8.153729438781738 -9.963793754577637 -0.28723329305648804
8.183228492736816 -9.957083702087402 -0.2883186340332031
8.22669506072998 -9.967016220092773 -0.28989967703819275
8.260713577270508 -9.965508460998535 -0.2903580367565155
8.295442581176758 -9.965243339538574 -0.2916436791419983
8.325040817260742 -9.957984924316406 -0.2927365005016327
8.361270904541016 -9.958725929260254 -0.2932744324207306
8.388704299926758 -9.948688507080078 -0.29429689049720764
8.421260833740234 -9.945348739624023 -0.2947102189064026
8.457679748535156 -9.945911407470703 -0.2950393557548523
8.497697830200195 -9.950342178344727 -0.29477983713150024
8.527270317077637 -9.942593574523926 -0.29588234424591064
8.566642761230469 -9.946656227111816 -0.2965306043624878
8.601814270019531 -9.944971084594727 -0.29782384634017944
8.63473892211914 -9.94074821472168 -0.2985817492008209
8.666412353515625 -9.935490608215332 -0.29942643642425537
8.699990272521973 -9.93107795715332 -0.30066046118736267
8.741890907287598 -9.937227249145508 -0.3013947606086731
8.801406860351562 -9.92032241821289 -0.30281031131744385
8.84205150604248 -9.924571990966797 -0.30431461334228516
8.912507057189941 -9.919229507446289 -0.3061143755912781
9.015432357788086 -9.907780647277832 -0.30913710594177246
9.088794708251953 -9.904287338256836 -0.311040461063385
9.12978744506836 -9.90760612487793 -0.3117402493953705
9.202186584472656 -9.902166366577148 -0.3136107921600342
9.230520248413086 -9.890711784362793 -0.31469041109085083
9.308356285095215 -9.890979766845703 -0.31605929136276245
9.381829261779785 -9.885302543640137 -0.31701236963272095
9.426383018493652 -9.891057968139648 -0.31782370805740356
9.455036163330078 -9.879293441772461 -0.3189186751842499
9.500524520874023 -9.885160446166992 -0.3197540044784546
9.53480339050293 -9.879708290100098 -0.320698082447052
9.57354736328125 -9.878049850463867 -0.32165753841400146
9.604799270629883 -9.868721961975098 -0.3224914073944092
9.650927543640137 -9.874338150024414 -0.32369935512542725
9.676544189453125 -9.85902214050293 -0.3243483304977417
9.716032028198242 -9.858251571655273 -0.3253447115421295
9.768564224243164 -9.86980152130127 -0.32689428329467773
9.797798156738281 -9.857826232910156 -0.32753801345825195
9.831311225891113 -9.849882125854492 -0.32845282554626465
9.881540298461914 -9.85920238494873 -0.3294450044631958
9.912940979003906 -9.8490571975708 -0.33065497875213623
9.948904991149902 -9.843154907226562 -0.3311604857444763
9.980117797851562 -9.832627296447754 -0.3318743109703064
10.014469146728516 -9.825601577758789 -0.33282914757728577
10.070087432861328 -9.838546752929688 -0.33435380458831787
10.103282928466797 -9.829572677612305 -0.33526450395584106
10.14439868927002 -9.827988624572754 -0.3359386920928955
10.179667472839355 -9.821287155151367 -0.3372965157032013
10.21995735168457 -9.818780899047852 -0.3372120261192322
10.259482383728027 -9.815204620361328 -0.3368356227874756
10.302619934082031 -9.81509780883789 -0.3379395008087158
10.340801239013672 -9.810617446899414 -0.3390273451805115
10.385250091552734 -9.811225891113281 -0.33980482816696167
10.426748275756836 -9.809053421020508 -0.3408549726009369
10.514965057373047 -9.80889892578125 -0.3428947329521179
10.54297924041748 -9.794193267822266 -0.34402602910995483
10.612396240234375 -9.775741577148438 -0.3449357748031616
10.686248779296875 -9.720298767089844 -0.34621208906173706
10.758159637451172 -9.662818908691406 -0.3474375009536743
10.809296607971191 -9.626811027526855 -0.3486480414867401
10.837394714355469 -9.610908508300781 -0.348899781703949
10.895679473876953 -9.581600189208984 -0.350360631942749
10.924854278564453 -9.566455841064453 -0.3506455421447754
10.96308708190918 -9.519329071044922 -0.35019710659980774
10.974142074584961 -9.488393783569336 -0.350293904542923
11.000864028930664 -9.431486129760742 -0.35038939118385315
11.011898040771484 -9.400710105895996 -0.35049140453338623
11.02977180480957 -9.375967025756836 -0.3504330515861511
11.048343658447266 -9.351672172546387 -0.3508964478969574
11.063831329345703 -9.324939727783203 -0.3507639467716217
11.074787139892578 -9.29493522644043 -0.350874662399292
11.087379455566406 -9.265705108642578 -0.3506569266319275
11.105173110961914 -9.241004943847656 -0.35110390186309814
11.121623992919922 -9.215052604675293 -0.3510097563266754
11.13627815246582 -9.188285827636719 -0.35125356912612915
11.138998031616211 -9.151250839233398 -0.3507341742515564
11.148605346679688 -9.119816780090332 -0.3509225845336914
11.163496017456055 -9.09339427947998 -0.35079535841941833
11.166595458984375 -9.056944847106934 -0.3502967357635498
11.182831764221191 -9.03106689453125 -0.35059231519699097
11.200570106506348 -9.00656509399414 -0.3510514199733734
11.221196174621582 -8.984235763549805 -0.3511035442352295
11.236595153808594 -8.95836067199707 -0.35100439190864563
11.247888565063477 -8.928766250610352 -0.35114413499832153
11.250749588012695 -8.892406463623047 -0.3511505424976349
11.276191711425781 -8.874560356140137 -0.3513632118701935
11.274398803710938 -8.834840774536133 -0.34985673427581787
11.292041778564453 -8.810277938842773 -0.349822998046875
11.31247329711914 -8.788032531738281 -0.3503774106502533
11.3399658203125 -8.695631980895996 -0.3499107360839844
11.369140625 -8.642213821411133 -0.34968501329421997
11.409104347229004 -8.55996036529541 -0.35012704133987427
11.43912410736084 -8.47061538696289 -0.3494035005569458
11.464469909667969 -8.414859771728516 -0.34958672523498535
11.47773551940918 -8.387392044067383 -0.34945210814476013
11.506402969360352 -8.334839820861816 -0.3496352732181549
11.522661209106445 -8.309605598449707 -0.3495982885360718
11.547794342041016 -8.254634857177734 -0.3498000502586365
11.54892349243164 -8.218681335449219 -0.34930679202079773
11.57468032836914 -8.200419425964355 -0.3495601415634155
11.566765785217285 -8.158215522766113 -0.3483096659183502
11.583257675170898 -8.133903503417969 -0.3483010530471802
11.594785690307617 -8.105669021606445 -0.3481330871582031
11.610373497009277 -8.080153465270996 -0.3480859398841858
11.619081497192383 -8.050020217895508 -0.34784168004989624
11.63111400604248 -8.022090911865234 -0.3481810390949249
11.651427268981934 -8.000472068786621 -0.3482899069786072
11.648896217346191 -7.9627604484558105 -0.3480871915817261
11.67672348022461 -7.945687294006348 -0.3484199643135071
11.683666229248047 -7.914989471435547 -0.34813636541366577
11.69789981842041 -7.888814926147461 -0.34806305170059204
11.702227592468262 -7.855867862701416 -0.3477024435997009
11.71320915222168 -7.827578544616699 -0.3475375771522522
11.72085952758789 -7.796969413757324 -0.3472785949707031
11.728687286376953 -7.767115116119385 -0.3470326066017151
11.734882354736328 -7.735788822174072 -0.34673401713371277
11.745195388793945 -7.707088470458984 -0.3465556502342224
11.761337280273438 -7.682812213897705 -0.3465607166290283
11.776103973388672 -7.657196044921875 -0.3465206027030945
11.789278030395508 -7.6304216384887695 -0.3464354872703552
11.797369003295898 -7.6009674072265625 -0.34620699286460876
11.825759887695312 -7.548973083496094 -0.3465881943702698
11.82435131072998 -7.513143062591553 -0.34608691930770874
11.856611251831055 -7.464173316955566 -0.34648415446281433
11.899191856384277 -7.386500358581543 -0.34636014699935913
11.930524826049805 -7.302448749542236 -0.34593069553375244
11.974750518798828 -7.225864887237549 -0.34588104486465454
12.002941131591797 -7.174658298492432 -0.345456600189209
12.014008522033691 -7.146914482116699 -0.3448503017425537
12.039889335632324 -7.094392776489258 -0.3447372615337372
12.045623779296875 -7.063577651977539 -0.34447723627090454
12.07356071472168 -7.011795997619629 -0.34442898631095886
12.103559494018555 -6.995670318603516 -0.3448714017868042
12.103141784667969 -6.9615349769592285 -0.34444308280944824
12.119668006896973 -6.9370527267456055 -0.3444966971874237
12.129060745239258 -6.909052848815918 -0.3443543314933777
12.142894744873047 -6.882616996765137 -0.3443283438682556
12.160128593444824 -6.8590826988220215 -0.344416081905365
12.180089950561523 -6.836639404296875 -0.344568133354187
12.196808815002441 -6.812224388122559 -0.3441520929336548
12.204723358154297 -6.7834553718566895 -0.34397339820861816
12.225427627563477 -6.761370658874512 -0.3441596031188965
12.23843002319336 -6.7348833084106445 -0.34412384033203125
12.233492851257324 -6.699129104614258 -0.3435943126678467
12.262968063354492 -6.681257247924805 -0.34401923418045044
12.273399353027344 -6.653946876525879 -0.3439250886440277
12.29517936706543 -6.632358551025391 -0.34377479553222656
12.293354988098145 -6.597929000854492 -0.3433328866958618
12.314094543457031 -6.576181411743164 -0.343048632144928
12.314184188842773 -6.543006420135498 -0.3426664471626282
12.346335411071777 -6.526724815368652 -0.34317657351493835
12.343453407287598 -6.4924635887146 -0.34272152185440063
12.377564430236816 -6.444002628326416 -0.34254440665245056
12.395563125610352 -6.420297622680664 -0.34266573190689087
12.422475814819336 -6.36844539642334 -0.3421860337257385
12.441539764404297 -6.279349327087402 -0.3412434458732605
12.439170837402344 -6.180342674255371 -0.33961308002471924
12.482619285583496 -6.039380073547363 -0.33819615840911865
12.492431640625 -6.0116376876831055 -0.33811962604522705
12.516654014587402 -5.959033012390137 -0.3376166820526123
12.515802383422852 -5.926272392272949 -0.3372575640678406
12.530136108398438 -5.836910247802734 -0.33580732345581055
12.527570724487305 -5.771633148193359 -0.33508285880088806
12.490814208984375 -5.723304748535156 -0.333429753780365
12.54951286315918 -5.71779727935791 -0.33418208360671997
12.56160831451416 -5.691858291625977 -0.33418893814086914
12.57237720489502 -5.633040428161621 -0.33347371220588684
12.590601921081543 -5.609861850738525 -0.33317428827285767
12.601051330566406 -5.582804203033447 -0.33313941955566406
12.621273040771484 -5.559940338134766 -0.3333648443222046
12.535642623901367 -5.491181373596191 -0.3295130133628845
12.64309024810791 -5.5060906410217285 -0.3320081830024719
12.655593872070312 -5.480319976806641 -0.33203911781311035
12.652411460876465 -5.447790145874023 -0.3308162987232208
12.594557762145996 -5.391018867492676 -0.3289879858493805
12.609052658081055 -5.366290092468262 -0.32907384634017944
12.68179702758789 -5.365793228149414 -0.3302161693572998
12.694101333618164 -5.339453220367432 -0.32987701892852783
12.713035583496094 -5.25360107421875 -0.3286653161048889
12.706941604614258 -5.220237731933594 -0.3282240629196167
12.728736877441406 -5.1666460037231445 -0.3273831307888031
12.780440330505371 -5.09428596496582 -0.32704585790634155
12.816874504089355 -5.015270233154297 -0.32679420709609985
12.891977310180664 -4.796742916107178 -0.3223026394844055
12.903633117675781 -4.770113945007324 -0.32234176993370056
12.927877426147461 -4.717287063598633 -0.32160869240760803
12.932186126708984 -4.688471794128418 -0.3214733898639679
12.959388732910156 -4.606363296508789 -0.3205830156803131
12.970438957214355 -4.579106330871582 -0.31977376341819763
12.978151321411133 -4.551562309265137 -0.3197305202484131
12.998214721679688 -4.528329372406006 -0.3191520571708679
12.996654510498047 -4.496675491333008 -0.31887707114219666
13.017038345336914 -4.473503112792969 -0.3191487789154053
13.016434669494629 -4.4427289962768555 -0.31806397438049316
13.029449462890625 -4.41650390625 -0.3181532621383667
13.043133735656738 -4.390986442565918 -0.3174228370189667
13.051595687866211 -4.3628153800964355 -0.3174036145210266
13.063257217407227 -4.336596965789795 -0.3174670934677124
13.08952522277832 -4.315180778503418 -0.3170464038848877
13.077988624572754 -4.280425548553467 -0.31654447317123413
13.085672378540039 -4.252895832061768 -0.31457918882369995
13.096023559570312 -4.225849628448486 -0.3131895661354065
13.097105979919434 -4.195711612701416 -0.31252822279930115
13.116822242736816 -4.17203426361084 -0.31242555379867554
13.135114669799805 -4.146975517272949 -0.31217485666275024
13.13127613067627 -4.115816593170166 -0.3115144371986389
13.140508651733398 -4.088781356811523 -0.31105726957321167
13.14689826965332 -4.059986114501953 -0.31063657999038696
13.163257598876953 -4.035135269165039 -0.31035029888153076
13.198094367980957 -3.9552197456359863 -0.309373676776886
13.244671821594238 -3.878605365753174 -0.3090451657772064
13.321669578552246 -3.568758010864258 -0.3005213439464569
13.328784942626953 -3.5410356521606445 -0.300039142370224
13.341045379638672 -3.4842095375061035 -0.299141526222229
13.355033874511719 -3.4582738876342773 -0.2989264130592346
13.386794090270996 -3.406404972076416 -0.298473984003067
13.395891189575195 -3.3791370391845703 -0.2980384826660156
13.401139259338379 -3.350027084350586 -0.2976330816745758
13.431270599365234 -3.32796049118042 -0.297667920589447
13.426860809326172 -3.297308921813965 -0.29705291986465454
13.428083419799805 -3.267209529876709 -0.29644811153411865
13.434741973876953 -3.239314079284668 -0.2960807681083679
13.446990013122559 -3.21237850189209 -0.29572194814682007
13.45958137512207 -3.18538498878479 -0.29500406980514526
13.464425086975098 -3.1570394039154053 -0.29460036754608154
13.490388870239258 -3.132739543914795 -0.29454129934310913
13.501232147216797 -3.105742931365967 -0.29427164793014526
13.48788833618164 -3.073215961456299 -0.2933642864227295
13.51187515258789 -3.0483334064483643 -0.2933749258518219
13.514801025390625 -3.019534111022949 -0.2928234934806824
13.527422904968262 -2.992518424987793 -0.292594313621521
13.539619445800781 -2.9652671813964844 -0.2918752431869507
13.552848815917969 -2.938704013824463 -0.2905608117580414
13.57068157196045 -2.912231922149658 -0.28840625286102295
13.582911491394043 -2.8853840827941895 -0.2876908481121063
13.582530975341797 -2.8558573722839355 -0.2871934175491333
13.606865882873535 -2.830634593963623 -0.28710004687309265
13.617874145507812 -2.803455352783203 -0.286838173866272
13.647380828857422 -2.720211982727051 -0.28539595007896423
13.67193603515625 -2.6358518600463867 -0.28422510623931885
13.783771514892578 -2.328611373901367 -0.27938178181648254
13.802726745605469 -2.3018722534179688 -0.2792963683605194
13.846385955810547 -2.1600053310394287 -0.2733492851257324
13.863455772399902 -2.1332082748413086 -0.2727416157722473
13.884608268737793 -2.0766429901123047 -0.27212685346603394
13.883692741394043 -2.0470592975616455 -0.2711666524410248
13.907917022705078 -2.0202836990356445 -0.27155962586402893
13.916437149047852 -1.9920414686203003 -0.2707853615283966
13.944549560546875 -1.9665439128875732 -0.270391047000885
13.953128814697266 -1.9373626708984375 -0.2704784870147705
13.978425025939941 -1.9113166332244873 -0.2700272500514984
13.973311424255371 -1.880217432975769 -0.26899486780166626
14.005403518676758 -1.854953408241272 -0.2695390582084656
13.983905792236328 -1.8225862979888916 -0.26818811893463135
14.013649940490723 -1.7664756774902344 -0.2672590911388397
14.015541076660156 -1.7371752262115479 -0.26685038208961487
14.019338607788086 -1.7072452306747437 -0.265990287065506
14.022319793701172 -1.648576259613037 -0.26505380868911743
14.031393051147461 -1.6192622184753418 -0.2642959952354431
14.046964645385742 -1.5915274620056152 -0.26291996240615845
14.038644790649414 -1.5602178573608398 -0.2608570456504822
14.066265106201172 -1.5042121410369873 -0.2603919506072998
14.0809965133667 -1.4458353519439697 -0.2591925859451294
14.095695495605469 -1.3578529357910156 -0.25719526410102844
14.122873306274414 -1.2709147930145264 -0.25581103563308716
14.224077224731445 -0.9193066954612732 -0.24930962920188904
14.254161834716797 -0.8313012719154358 -0.247504323720932
14.263864517211914 -0.7716066241264343 -0.24586591124534607
14.288976669311523 -0.7432286739349365 -0.24540114402770996
14.301841735839844 -0.6835165619850159 -0.24469682574272156
14.305663108825684 -0.6539473533630371 -0.24386382102966309
14.339851379394531 -0.5950043201446533 -0.24352389574050903
14.334342956542969 -0.564980685710907 -0.24253270030021667
14.36056900024414 -0.5054518580436707 -0.2411818504333496
14.368255615234375 -0.4758704900741577 -0.24041743576526642
14.369097709655762 -0.44517117738723755 -0.2404150515794754
14.390266418457031 -0.4159379303455353 -0.23987293243408203
14.397405624389648 -0.3857448399066925 -0.23909997940063477
14.416454315185547 -0.35593700408935547 -0.23852410912513733
14.414615631103516 -0.32596200704574585 -0.23809853196144104
14.440658569335938 -0.29568812251091003 -0.23801717162132263
14.469464302062988 -0.2662397027015686 -0.2375982701778412
14.486400604248047 -0.2364800125360489 -0.2369842529296875
14.485733032226562 -0.20551694929599762 -0.23608171939849854
14.496397018432617 -0.17558059096336365 -0.23624616861343384
14.518526077270508 -0.14571571350097656 -0.23521538078784943
14.524742126464844 -0.11474759876728058 -0.23442362248897552
14.524456977844238 -0.08460241556167603 -0.23353147506713867
14.542060852050781 -0.023461610078811646 -0.23203280568122864
16.688385009765625 0.007704963441938162 -0.14153587818145752
16.69830322265625 0.042362064123153687 -0.14162176847457886
16.71139144897461 0.07707518339157104 -0.14071418344974518
16.719327926635742 0.11282941699028015 -0.1397629678249359
16.727581024169922 0.14759977161884308 -0.13881000876426697
16.757110595703125 0.18321633338928223 -0.138038769364357
16.747100830078125 0.21830995380878448 -0.1379578411579132
16.78262710571289 0.2536070644855499 -0.13722920417785645
16.8145751953125 0.4656035602092743 -0.13181638717651367
16.83770751953125 0.5372180342674255 -0.12995825707912445
16.853857040405273 0.6438175439834595 -0.1280517876148224
16.890918731689453 0.751602053642273 -0.1252717822790146
16.920318603515625 0.8595237731933594 -0.12345926463603973
17.035629272460938 1.1888928413391113 -0.11805538088083267
17.062786102294922 1.29862642288208 -0.11620894074440002
17.087039947509766 1.4085675477981567 -0.11329303681850433
17.114620208740234 1.4834339618682861 -0.11142095923423767
17.126575469970703 1.5202851295471191 -0.11092549562454224
17.14305877685547 1.594541072845459 -0.10956668108701706
17.167827606201172 1.6327877044677734 -0.10869674384593964
17.169103622436523 1.6699249744415283 -0.1076735407114029
17.184619903564453 1.707439661026001 -0.10673612356185913
17.195667266845703 1.7445824146270752 -0.10577486455440521
17.204532623291016 1.782620906829834 -0.10525448620319366
17.214963912963867 1.819817066192627 -0.10488110780715942
17.24126434326172 1.8587843179702759 -0.10400709509849548
17.25009536743164 1.8970237970352173 -0.10302656888961792
17.28082275390625 1.9367060661315918 -0.10217256844043732
17.28091049194336 1.9736411571502686 -0.10113527625799179
17.30445098876953 2.013180732727051 -0.10023360699415207
17.320161819458008 2.0514471530914307 -0.10067011415958405
17.319915771484375 2.0889456272125244 -0.1002320945262909
17.344928741455078 2.1284892559051514 -0.09933589398860931
17.346433639526367 2.1652228832244873 -0.09830345213413239
17.371938705444336 2.2061054706573486 -0.09740598499774933
17.377792358398438 2.243502616882324 -0.0970013439655304
17.414552688598633 2.3228518962860107 -0.09511589258909225
17.413623809814453 2.3595175743103027 -0.09452886879444122
17.41478729248047 2.4344053268432617 -0.09244278073310852
17.440244674682617 2.47487473487854 -0.09153088927268982
17.455097198486328 2.552018165588379 -0.0895099863409996
17.463253021240234 2.5902366638183594 -0.08911312371492386
17.484272003173828 2.6686558723449707 -0.08711938560009003
17.51120376586914 2.7855277061462402 -0.08456121385097504
17.415586471557617 3.2223381996154785 -0.07473590970039368
17.40725326538086 3.334108829498291 -0.07154324650764465
17.408214569091797 3.447885036468506 -0.06885379552841187
17.392105102539062 3.558464527130127 -0.06562674045562744
17.409400939941406 3.5996594429016113 -0.06525082886219025
17.39896583557129 3.6362760066986084 -0.06415607035160065
17.403621673583984 3.674959182739258 -0.06311549991369247
17.388900756835938 3.7095611095428467 -0.06200426071882248
17.405824661254883 3.7520647048950195 -0.06100703775882721
17.397390365600586 3.7880442142486572 -0.05991813540458679
17.408735275268555 3.828371286392212 -0.05889687314629555
17.388164520263672 3.862807273864746 -0.05776789039373398
17.400461196899414 3.9034476280212402 -0.057364322245121
17.386554718017578 3.939357280731201 -0.05625753104686737
17.390419006347656 3.97819185256958 -0.05520781874656677
17.387638092041016 4.01554536819458 -0.054136723279953
17.385698318481445 4.054237365722656 -0.053539104759693146
17.39129638671875 4.093613624572754 -0.052490927278995514
17.396289825439453 4.132908344268799 -0.051441095769405365
17.384647369384766 4.16939640045166 -0.050340984016656876
17.403579711914062 4.212149143218994 -0.04932844638824463
17.40207290649414 4.2500319480896 -0.04825601726770401
17.410625457763672 4.291553020477295 -0.04721036180853844
17.398868560791016 4.326973915100098 -0.04610782116651535
17.402538299560547 4.367383003234863 -0.045669279992580414
17.396007537841797 4.404138565063477 -0.04458187520503998
17.394664764404297 4.442229270935059 -0.04350416362285614
17.384700775146484 4.4792656898498535 -0.04240736365318298
17.399553298950195 4.521617889404297 -0.04184447228908539
17.38400650024414 4.556109428405762 -0.04073251038789749
17.389320373535156 4.635854721069336 -0.03859417513012886
17.390174865722656 4.7533745765686035 -0.03535997122526169
17.392969131469727 4.871854782104492 -0.031017480418086052
17.381996154785156 4.986839294433594 -0.027743099257349968
17.3690185546875 5.10200834274292 -0.024457816034555435
17.354398727416992 5.336291313171387 -0.018988868221640587
17.362342834472656 5.458437442779541 -0.01570153422653675
17.36163330078125 5.538003444671631 -0.013497211039066315
17.357440948486328 5.57703971862793 -0.012390071526169777
17.35511016845703 5.657036781311035 -0.010809876024723053
17.36290740966797 5.699464797973633 -0.009705791249871254
17.373382568359375 5.784067153930664 -0.004289217293262482
17.3699951171875 5.823007583618164 -0.003171649994328618
17.3763370513916 5.906652450561523 -0.0014203861355781555
17.36667251586914 5.943599700927734 -0.0003016684204339981
17.354084014892578 5.980223655700684 0.0008187694475054741
17.364227294921875 6.024574279785156 0.0019403407350182533
17.371816635131836 6.067625999450684 0.002429869957268238
17.365068435668945 6.106922149658203 0.0035532552283257246
17.35121726989746 6.142539978027344 0.004678226076066494
17.36838150024414 6.189208030700684 0.005808935035020113
17.364065170288086 6.229504585266113 0.006939533166587353
17.36273956298828 6.26972770690918 0.008070938289165497
17.361351013183594 6.309983253479004 0.00920206867158413
17.359424591064453 6.3512983322143555 0.00985051691532135
17.340641021728516 6.385259628295898 0.010972641408443451
17.333751678466797 6.424121856689453 0.012104377150535583
17.3424072265625 6.468978404998779 0.013249657116830349
17.35369873046875 6.51424503326416 0.013760038651525974
17.347673416137695 6.554297924041748 0.0148995416238904
17.338722229003906 6.592065811157227 0.01603536866605282
17.32799530029297 6.629175662994385 0.01717153564095497
17.336435317993164 6.6748948097229 0.018328389152884483
17.296112060546875 6.700617790222168 0.021380338817834854
17.29315948486328 6.740780353546143 0.02509576454758644
17.227909088134766 6.757779598236084 0.02614075317978859
17.219953536987305 6.795925140380859 0.02727888897061348
17.176591873168945 6.820563316345215 0.02835570089519024
17.13898468017578 6.8475341796875 0.02879379317164421
17.052885055541992 6.85420560836792 0.02979503944516182
16.979022979736328 6.865993499755859 0.030807793140411377
16.90081024169922 6.875898361206055 0.0313289575278759
16.846824645996094 6.894715309143066 0.03236514329910278
16.60742950439453 6.918950080871582 0.0352802611887455
16.369529724121094 6.941427707672119 0.03750357776880264
15.826154708862305 7.026690483093262 0.04452664032578468
15.602140426635742 7.044980049133301 0.05013325810432434
15.418745040893555 7.079198837280273 0.05279265716671944
15.33918571472168 7.0819010734558105 0.05316271260380745
15.218143463134766 7.103921413421631 0.054894305765628815
15.148048400878906 7.109522819519043 0.0551278330385685
15.015170097351074 7.124475479125977 0.05678601562976837
14.946720123291016 7.130035400390625 0.05759295076131821
14.89639949798584 7.144492149353027 0.05803293362259865
14.819999694824219 7.146356582641602 0.05880037695169449
14.766654968261719 7.158440113067627 0.059648677706718445
14.708107948303223 7.168264389038086 0.060471903532743454
14.643484115600586 7.175049781799316 0.060691460967063904
14.581873893737793 7.182425022125244 0.06149330735206604
14.531431198120117 7.196194171905518 0.06233233958482742
14.440592765808105 7.188563823699951 0.06298860162496567
14.387819290161133 7.199586868286133 0.06339108198881149
14.321293830871582 7.204593658447266 0.06414160132408142
14.265634536743164 7.213727951049805 0.06493488699197769
14.203947067260742 7.220051288604736 0.0669342502951622
14.165343284606934 7.23808479309082 0.06891230493783951
14.103044509887695 7.243199348449707 0.06965111196041107
14.027318954467773 7.242218971252441 0.07031901925802231
13.976551055908203 7.252782821655273 0.07109791040420532
13.938214302062988 7.269641399383545 0.07193832099437714
13.875105857849121 7.274472236633301 0.07224249094724655
13.818199157714844 7.2812347412109375 0.07297976315021515
13.750740051269531 7.282644271850586 0.0731058418750763
13.706151962280273 7.296107292175293 0.07390151917934418
13.652339935302734 7.303861618041992 0.07463371753692627
13.587418556213379 7.305891036987305 0.075308658182621
13.52752685546875 7.310530185699463 0.07559745013713837
13.472442626953125 7.316924095153809 0.07631304860115051
13.430994033813477 7.331000328063965 0.07655800879001617
13.374818801879883 7.337013244628906 0.07726101577281952
13.321742057800293 7.343903541564941 0.07796961814165115
13.209739685058594 7.354867935180664 0.07894829660654068
13.161540985107422 7.364300727844238 0.07967354357242584
13.04861831665039 7.372998237609863 0.0804780125617981
12.990550994873047 7.376241207122803 0.08112695068120956
12.896297454833984 7.39427375793457 0.08331752568483353
12.84466552734375 7.40057373046875 0.08502891659736633
12.69450569152832 7.420742988586426 0.0861373245716095
12.588016510009766 7.429798126220703 0.08741135895252228
12.443313598632812 7.450263023376465 0.08849819004535675
12.289005279541016 7.463812351226807 0.09036796540021896
12.194585800170898 7.4763593673706055 0.09077324718236923
12.160933494567871 7.491083145141602 0.0915113091468811
12.061065673828125 7.499228477478027 0.09273023903369904
12.002952575683594 7.498264312744141 0.09326913207769394
11.907112121582031 7.507707595825195 0.09362679719924927
11.869504928588867 7.519048690795898 0.09431108832359314
11.80975341796875 7.515584945678711 0.0948173850774765
11.783538818359375 7.533734321594238 0.09522457420825958
11.734129905700684 7.537076950073242 0.0953153744339943
11.689151763916016 7.542927265167236 0.0969034731388092
11.634544372558594 7.542511940002441 0.09694093465805054
11.603353500366211 7.5565361976623535 0.09765876829624176
11.545557022094727 7.553492546081543 0.09779013693332672
11.51063060760498 7.565378189086914 0.09846934676170349
11.453737258911133 7.562067985534668 0.09895506501197815
11.40794563293457 7.566300392150879 0.09905106574296951
11.362443923950195 7.570695877075195 0.09927459806203842
11.325034141540527 7.5797529220581055 0.09991567581892014
11.268550872802734 7.576279640197754 0.10038654506206512
11.228179931640625 7.583591938018799 0.10051928460597992
11.187822341918945 7.590188980102539 0.10077513754367828
11.15250015258789 7.600492477416992 0.10142402350902557
11.095235824584961 7.595804214477539 0.10186977684497833
11.07764720916748 7.617997646331787 0.10220298171043396
11.021687507629395 7.613823413848877 0.10230414569377899
10.98338508605957 7.621082305908203 0.10291275382041931
10.932441711425781 7.619812965393066 0.10339666903018951
10.892457008361816 7.626147270202637 0.10351820290088654
10.849595069885254 7.630158424377441 0.10372652113437653
10.808338165283203 7.635286331176758 0.10429320484399796
10.761329650878906 7.635602951049805 0.10479707270860672
10.722488403320312 7.641964912414551 0.10491815954446793
10.653717041015625 7.660393714904785 0.10581904649734497
10.599124908447266 7.654975891113281 0.10589465498924255
10.518634796142578 7.664036750793457 0.10654264688491821
10.488393783569336 7.6757917404174805 0.10719294846057892
10.406545639038086 7.683399200439453 0.10747373104095459
10.36264419555664 7.684263706207275 0.10797460377216339
10.279587745666504 7.6899824142456055 0.10867996513843536
10.170522689819336 7.708584785461426 0.10959507524967194
10.04621410369873 7.714282989501953 0.11032247543334961
9.938850402832031 7.73164701461792 0.11120928823947906
9.863082885742188 7.739598751068115 0.11181825399398804
9.81942367553711 7.73831844329834 0.11194249987602234
9.750359535217285 7.750679016113281 0.1119648665189743
9.709976196289062 7.752072334289551 0.11212553083896637
9.670087814331055 7.753551483154297 0.1126088872551918
9.635400772094727 7.758645057678223 0.11314764618873596
9.594425201416016 7.759081840515137 0.11285857856273651
9.559941291809082 7.764474391937256 0.113395556807518
9.519758224487305 7.765236854553223 0.11386322975158691
9.49428939819336 7.777329444885254 0.11375159025192261
9.45163631439209 7.775631904602051 0.11418293416500092
9.415905952453613 7.77961540222168 0.11426536738872528
9.376520156860352 7.779870986938477 0.11441154778003693
9.348628997802734 7.789951324462891 0.11501346528530121
9.307310104370117 7.788861274719238 0.11502011120319366
9.276515007019043 7.79628849029541 0.11526903510093689
9.240959167480469 7.799184799194336 0.11576622724533081
9.194682121276855 7.793412208557129 0.11539210379123688
9.16191577911377 7.7987775802612305 0.11592055857181549
9.122888565063477 7.798264980316162 0.11636363714933395
9.097504615783691 7.809854507446289 0.11625031381845474
9.052765846252441 7.804546356201172 0.11661705374717712
9.02489185333252 7.81377649307251 0.11719891428947449
8.990772247314453 7.816938400268555 0.1169663518667221
8.95705795288086 7.820732593536377 0.1174667626619339
8.919078826904297 7.820804595947266 0.11718472093343735
8.892192840576172 7.830339431762695 0.11674079298973083
8.851457595825195 7.827138900756836 0.11672550439834595
8.826815605163574 7.83860445022583 0.11703288555145264
8.786944389343262 7.83627986907959 0.11744078993797302
8.754098892211914 7.839663982391357 0.11721913516521454
8.721654891967773 7.843839645385742 0.11772193014621735
8.68946647644043 7.847977638244629 0.11781319975852966
8.65966796875 7.85430908203125 0.11804448068141937
8.620808601379395 7.8521409034729 0.11845167726278305
8.585914611816406 7.853018760681152 0.11819551885128021
8.552658081054688 7.855813026428223 0.11867469549179077
8.511541366577148 7.851080894470215 0.11863256245851517
8.48397159576416 7.858299255371094 0.11888159066438675
8.452301025390625 7.862170219421387 0.11937448382377625
8.426985740661621 7.871712684631348 0.11925050616264343
8.325973510742188 7.875949859619141 0.11991874873638153
8.26689338684082 7.886297225952148 0.12024270743131638
8.230131149291992 7.883913993835449 0.12064093351364136
8.16049861907959 7.8833818435668945 0.12079846858978271
8.130857467651367 7.887433052062988 0.12060172855854034
8.068285942077637 7.8929595947265625 0.1208544373512268
7.978967666625977 7.904356002807617 0.12162961065769196
7.917498588562012 7.9098052978515625 0.12188276648521423
7.887385368347168 7.912493705749512 0.12167149782180786
7.832607269287109 7.924005508422852 0.1220204308629036
7.792289733886719 7.916007041931152 0.12232640385627747
7.7686333656311035 7.925360679626465 0.12221686542034149
7.730282783508301 7.919454097747803 0.12255065888166428
7.698336601257324 7.9200944900512695 0.12230899930000305
7.661189079284668 7.9150824546813965 0.12265512347221375
7.642472743988037 7.928605079650879 0.12261863797903061
7.598643779754639 7.916502952575684 0.12285323441028595
7.5901031494140625 7.940935134887695 0.12298459559679031
7.548253059387207 7.930031776428223 0.1232406347990036
7.525835990905762 7.939967155456543 0.12314821779727936
7.491743087768555 7.937332630157471 0.12352953851222992
7.459671974182129 7.93684196472168 0.12327659130096436
7.4358720779418945 7.944491863250732 0.12381967902183533
7.3989667892456055 7.938427925109863 0.12348227202892303
7.378069877624512 7.949578285217285 0.12341360747814178
7.349706649780273 7.952462196350098 0.12349833548069
7.316798686981201 7.94989013671875 0.12360242009162903
7.29334831237793 7.95805025100708 0.12376894056797028
7.2520952224731445 7.9464921951293945 0.12373019754886627
7.231463432312012 7.9569854736328125 0.12393786013126373
7.200495719909668 7.956582069396973 0.12407197803258896
7.167392730712891 7.953527450561523 0.12406668812036514
7.141051292419434 7.958003044128418 0.12427692115306854
7.118431091308594 7.965991020202637 0.12444691359996796
7.083243370056152 7.960211753845215 0.12449890375137329
7.058948516845703 7.966699600219727 0.12464286386966705
7.032750129699707 7.970808982849121 0.124848872423172
7.003505229949951 7.970944404602051 0.12489780783653259
6.970686435699463 7.967440605163574 0.12461191415786743
6.951003074645996 7.978708744049072 0.12493199110031128
6.915022850036621 7.970745086669922 0.12485513091087341
6.887683868408203 7.973579406738281 0.12503953278064728
6.869919776916504 7.9864583015441895 0.12529009580612183
6.809356689453125 7.983817100524902 0.12543728947639465
6.787232875823975 7.991406440734863 0.12570488452911377
6.727886199951172 7.989480972290039 0.1254967451095581
6.693800926208496 7.982567310333252 0.12580716609954834
6.642399787902832 7.989368915557861 0.12610618770122528
6.593188285827637 7.998460292816162 0.12607823312282562
6.5713605880737305 8.00577163696289 0.12634271383285522
6.521176815032959 8.013212203979492 0.12665629386901855
6.488630294799805 8.007102012634277 0.1266130656003952
6.434989929199219 8.009634971618652 0.12658476829528809
6.410035133361816 8.012572288513184 0.12668652832508087
6.35713529586792 8.015416145324707 0.12666632235050201
6.3276519775390625 8.012916564941406 0.1266799420118332
6.3001322746276855 8.01262378692627 0.1268244981765747
6.2705488204956055 8.009149551391602 0.12656308710575104
6.245508193969727 8.011941909790039 0.12666277587413788
6.218417167663574 8.011849403381348 0.126810222864151
6.193272113800049 8.013731002807617 0.1268983781337738
6.165024757385254 8.01249885559082 0.12667018175125122
6.144859313964844 8.020673751831055 0.12695208191871643
6.117465019226074 8.019332885742188 0.12699107825756073
6.092451572418213 8.022024154663086 0.12718194723129272
6.064541816711426 8.019773483276367 0.12720642983913422
6.048666000366211 8.033965110778809 0.1272277534008026
6.013617038726807 8.02243423461914 0.12684506177902222
5.992519378662109 8.028951644897461 0.12736378610134125
5.96429443359375 8.026416778564453 0.12712354958057404
5.944413661956787 8.034871101379395 0.12705844640731812
5.914112091064453 8.028707504272461 0.12737536430358887
5.895464897155762 8.039300918579102 0.12734414637088776
5.873559474945068 8.04438304901123 0.12723055481910706
5.848559856414795 8.04574203491211 0.12766386568546295
5.819949150085449 8.041854858398438 0.12740924954414368
5.793879508972168 8.040912628173828 0.12720316648483276
5.771854400634766 8.046092987060547 0.12743891775608063
5.743824005126953 8.042641639709473 0.12744951248168945
5.718073844909668 8.041818618774414 0.12724807858467102
5.694612503051758 8.044717788696289 0.12710335850715637
5.671041488647461 8.047219276428223 0.127554789185524
5.642890930175781 8.042667388916016 0.1272967904806137
5.618976593017578 8.045082092285156 0.12714485824108124
5.603387355804443 8.058332443237305 0.12751539051532745
5.573578834533691 8.05166244506836 0.12747713923454285
5.552690505981445 8.057609558105469 0.12738661468029022
5.52302360534668 8.050264358520508 0.12708859145641327
5.50462532043457 8.060303688049316 0.12740427255630493
5.476261138916016 8.054609298706055 0.12798196077346802
5.4601969718933105 8.066936492919922 0.12799696624279022
5.42652702331543 8.054203033447266 0.12760984897613525
5.413054466247559 8.070296287536621 0.127687007188797
5.375627040863037 8.05056095123291 0.1277891993522644
5.3565874099731445 8.059273719787598 0.12774495780467987
5.3272881507873535 8.051383972167969 0.1274443417787552
5.286925315856934 8.06397533416748 0.12763047218322754
5.266237258911133 8.068888664245605 0.12778298556804657
5.239607810974121 8.065680503845215 0.12755456566810608
5.220258712768555 8.072514533996582 0.12749141454696655
5.191032886505127 8.063970565795898 0.12718698382377625
5.167020797729492 8.064470291137695 0.1273561269044876
5.146495819091797 8.069250106811523 0.12751048803329468
5.0959014892578125 8.06463623046875 0.12709739804267883
5.081249237060547 8.078524589538574 0.12714901566505432
5.033801078796387 8.078376770019531 0.127393901348114
5.003312110900879 8.066695213317871 0.1270454227924347
4.986088752746582 8.077397346496582 0.1270458996295929
4.959421634674072 8.071624755859375 0.12679237127304077
4.94005012512207 8.077629089355469 0.1273040473461151
4.9099225997924805 8.067034721374512 0.12730450928211212
4.893074035644531 8.077046394348145 0.12730130553245544
4.865047454833984 8.06963062286377 0.12701989710330963
4.843009948730469 8.070908546447754 0.12688197195529938
4.816749572753906 8.065032958984375 0.1268761157989502
4.800844669342041 8.077549934387207 0.12691029906272888
4.773308753967285 8.069299697875977 0.12695538997650146
4.754281044006348 8.075328826904297 0.12689390778541565
4.726064682006836 8.066768646240234 0.1266014575958252
4.714540481567383 8.08552074432373 0.1267416626214981
4.686389923095703 8.075709342956543 0.126434788107872
4.666441440582275 8.081049919128418 0.12636224925518036
4.641388893127441 8.076321601867676 0.12637828290462494
4.625864028930664 8.089258193969727 0.12642568349838257
4.599489212036133 8.082011222839355 0.12648949027061462
4.579968452453613 8.086702346801758 0.12641434371471405
4.551421165466309 8.076482772827148 0.12610283493995667
4.5343523025512695 8.08537769317627 0.12609481811523438
4.506838798522949 8.076220512390137 0.12580271065235138
4.4913554191589355 8.088364601135254 0.12584435939788818
4.4667768478393555 8.083580017089844 0.12562626600265503
4.4452972412109375 8.084966659545898 0.12550203502178192
4.426606178283691 8.091192245483398 0.1254529356956482
4.406617164611816 8.094503402709961 0.12560035288333893
4.382966041564941 8.092175483703613 0.12598133087158203
4.357789516448975 8.085716247558594 0.12573890388011932
12.541267395019531 -9.659420013427734 -0.26590585708618164
12.569942474365234 -9.640012741088867 -0.26608896255493164
12.63402271270752 -9.646881103515625 -0.2670131325721741
12.678159713745117 -9.638481140136719 -0.2675188183784485
12.735416412353516 -9.639668464660645 -0.2687079608440399
12.77523422241211 -9.627653121948242 -0.26968395709991455
12.81374740600586 -9.615049362182617 -0.2700696885585785
12.835226058959961 -9.588897705078125 -0.27008986473083496
12.882570266723633 -9.582157135009766 -0.2706567645072937
12.934886932373047 -9.537243843078613 -0.27048319578170776
12.972986221313477 -9.523319244384766 -0.27085185050964355
13.013166427612305 -9.468738555908203 -0.27126526832580566
13.04814338684082 -9.452836990356445 -0.2715788781642914
13.135576248168945 -9.43208122253418 -0.27312368154525757
13.20638656616211 -9.357661247253418 -0.27334392070770264
13.274110794067383 -9.280855178833008 -0.2739522457122803
13.290691375732422 -9.209357261657715 -0.2740558385848999
13.30607795715332 -9.178528785705566 -0.27396684885025024
13.341865539550781 -9.121208190917969 -0.2739182412624359
13.34877872467041 -9.084667205810547 -0.2736680805683136
13.359550476074219 -9.050975799560547 -0.2739240527153015
13.393638610839844 -9.0329008102417 -0.2742331624031067
13.402214050292969 -8.998278617858887 -0.27402549982070923
13.419158935546875 -8.96879768371582 -0.27453944087028503
13.421735763549805 -8.92961311340332 -0.274201363325119
13.43288803100586 -8.896873474121094 -0.2734988331794739
13.450108528137207 -8.867666244506836 -0.27347123622894287
13.467114448547363 -8.838172912597656 -0.273436963558197
13.47622013092041 -8.803682327270508 -0.2732451856136322
13.504734992980957 -8.781717300415039 -0.27344730496406555
13.508515357971191 -8.744341850280762 -0.2731570601463318
13.530998229980469 -8.718595504760742 -0.2732389271259308
13.54014778137207 -8.684120178222656 -0.27305567264556885
13.56776237487793 -8.662145614624023 -0.2732464671134949
13.551736831665039 -8.61187744140625 -0.2725566625595093
13.578285217285156 -8.58858871459961 -0.2727259695529938
13.57132625579834 -8.544303894042969 -0.27222347259521484
13.609919548034668 -8.52856159210205 -0.2726362943649292
13.613506317138672 -8.49151611328125 -0.27235865592956543
13.640775680541992 -8.46875286102295 -0.2725476324558258
13.64947509765625 -8.434309959411621 -0.27236610651016235
13.667362213134766 -8.405721664428711 -0.27236777544021606
13.680265426635742 -8.334954261779785 -0.2719230651855469
13.696596145629883 -8.305482864379883 -0.2719002962112427
13.71367359161377 -8.237543106079102 -0.27155545353889465
13.731898307800293 -8.209266662597656 -0.27157366275787354
13.756381034851074 -8.145459175109863 -0.2719287574291229
13.791455268859863 -8.049560546875 -0.27106350660324097
13.825746536254883 -7.9534735679626465 -0.2707478702068329
13.863401412963867 -7.897616863250732 -0.27083271741867065
13.891351699829102 -7.79827880859375 -0.2704124450683594
13.914502143859863 -7.772714614868164 -0.2705450654029846
13.918974876403809 -7.736875534057617 -0.2703149914741516
13.93521499633789 -7.7074666023254395 -0.2703109085559845
13.951271057128906 -7.678581237792969 -0.270312637090683
13.962921142578125 -7.646800994873047 -0.26980507373809814
13.968643188476562 -7.611671447753906 -0.2696046829223633
13.994468688964844 -7.588122844696045 -0.2692497968673706
14.000787734985352 -7.553513526916504 -0.2690679132938385
14.02023983001709 -7.525864601135254 -0.26913219690322876
14.03260612487793 -7.494553565979004 -0.2690681219100952
14.054040908813477 -7.467937469482422 -0.2691778540611267
14.039012908935547 -7.422634124755859 -0.26859408617019653
14.073884010314941 -7.403264045715332 -0.26896005868911743
14.070680618286133 -7.363722801208496 -0.2680565118789673
14.10973072052002 -7.346899032592773 -0.2685084044933319
14.109601020812988 -7.309178352355957 -0.2682115137577057
14.13771915435791 -7.28595495223999 -0.2684590220451355
14.143485069274902 -7.2518205642700195 -0.2682817578315735
14.172565460205078 -7.228537559509277 -0.2681162655353546
14.17783260345459 -7.194187164306641 -0.2679327726364136
14.201541900634766 -7.168109893798828 -0.2680908441543579
14.217166900634766 -7.139015197753906 -0.2675565481185913
14.231744766235352 -7.108921527862549 -0.26754632592201233
14.22651481628418 -7.068847179412842 -0.2671701908111572
14.238380432128906 -7.037939071655273 -0.26669323444366455
14.254826545715332 -7.008825302124023 -0.2667246162891388
14.278402328491211 -6.9830522537231445 -0.2668866813182831
14.298857688903809 -6.95632266998291 -0.2664521634578705
14.351390838623047 -6.87064266204834 -0.266195148229599
14.380744934082031 -6.773433685302734 -0.26539450883865356
14.494091033935547 -6.531275749206543 -0.26390501856803894
14.556594848632812 -6.4496564865112305 -0.26332777738571167
14.564958572387695 -6.417235374450684 -0.2632385790348053
14.591127395629883 -6.392180442810059 -0.26304125785827637
14.596697807312012 -6.357949733734131 -0.26290178298950195
14.619525909423828 -6.331830978393555 -0.26252636313438416
14.62914752960205 -6.298919200897217 -0.26245760917663574
14.644325256347656 -6.269462585449219 -0.2620716094970703
14.663948059082031 -6.241887092590332 -0.2621942460536957
14.686949729919434 -6.2146525382995605 -0.26181721687316895
14.687931060791016 -6.179161548614502 -0.261601060628891
14.697029113769531 -6.146664619445801 -0.2611103355884552
14.719594955444336 -6.1196489334106445 -0.2612783908843994
14.729085922241211 -6.087777137756348 -0.26067042350769043
14.724536895751953 -6.049102783203125 -0.26035720109939575
14.737966537475586 -6.018904685974121 -0.2599421739578247
14.750338554382324 -5.988272190093994 -0.2593945562839508
14.74990177154541 -5.951425075531006 -0.25818932056427
14.758308410644531 -5.919233798980713 -0.25757598876953125
14.761491775512695 -5.88393497467041 -0.2574109435081482
14.782217025756836 -5.856675148010254 -0.257563054561615
14.797523498535156 -5.827240943908691 -0.2566445767879486
14.804350852966309 -5.793430328369141 -0.2565488815307617
14.830707550048828 -5.768284320831299 -0.25679436326026917
14.85240364074707 -5.740810871124268 -0.2559860348701477
14.855427742004395 -5.705989360809326 -0.2558322846889496
14.854167938232422 -5.670160293579102 -0.2556077837944031
14.867263793945312 -5.603538513183594 -0.25445428490638733
14.881799697875977 -5.573774337768555 -0.25450676679611206
14.896794319152832 -5.472400665283203 -0.2531953752040863
14.93498420715332 -5.20306396484375 -0.24943307042121887
14.95227336883545 -5.103908538818359 -0.245743528008461
14.984554290771484 -5.04514217376709 -0.24496139585971832
15.001423835754395 -5.015613079071045 -0.24506190419197083
15.020678520202637 -4.987419128417969 -0.24424013495445251
15.02511215209961 -4.953280925750732 -0.24414153397083282
15.036947250366211 -4.922610282897949 -0.244167298078537
15.075788497924805 -4.9007110595703125 -0.24366405606269836
15.082953453063965 -4.867439270019531 -0.2436119168996811
15.093938827514648 -4.836422443389893 -0.24265918135643005
15.121013641357422 -4.810520172119141 -0.24293431639671326
15.1253080368042 -4.776329040527344 -0.24241510033607483
15.14028263092041 -4.746528148651123 -0.24194999039173126
15.157291412353516 -4.71632194519043 -0.24206136167049408
15.149836540222168 -4.679542541503906 -0.24081771075725555
15.17021369934082 -4.651373863220215 -0.24098768830299377
15.172840118408203 -4.616741180419922 -0.2399073988199234
15.186098098754883 -4.586365699768066 -0.23996520042419434
15.177654266357422 -4.548896789550781 -0.2392617017030716
15.209495544433594 -4.523624420166016 -0.23906244337558746
15.221624374389648 -4.492870807647705 -0.2391074299812317
15.220549583435059 -4.457228660583496 -0.23670580983161926
15.245936393737793 -4.430332183837891 -0.2347698211669922
15.249402046203613 -4.397042274475098 -0.2342604100704193
15.25950813293457 -4.3646697998046875 -0.23372548818588257
15.261701583862305 -4.331055641174316 -0.23319771885871887
15.284629821777344 -4.268090724945068 -0.2323017418384552
15.317197799682617 -4.2429399490356445 -0.23266412317752838
15.321220397949219 -4.174659729003906 -0.23148523271083832
15.320056915283203 -4.140209197998047 -0.23036837577819824
15.376364707946777 -4.051438331604004 -0.22985775768756866
15.438179016113281 -3.79124116897583 -0.22591498494148254
15.465490341186523 -3.695016384124756 -0.2219163030385971
