VERSION .7
FIELDS x y z
SIZE 4 4 4
TYPE F F F
COUNT 1 1 1
WIDTH 837
HEIGHT 1
VIEWPOINT 0 0 0 1 0 0 0
POINTS 837
DATA ascii
5.271821022033691 8.624849319458008 0.2665923535823822
5.249085426330566 8.629024505615234 0.265757292509079
5.216279983520508 8.615310668945312 0.26438581943511963
5.202056407928467 8.633391380310059 0.26398342847824097
5.173175811767578 8.62590503692627 0.2628113925457001
5.144314289093018 8.618276596069336 0.26164010167121887
5.119854927062988 8.619083404541016 0.2607196569442749
5.096489429473877 8.620439529418945 0.2598286271095276
5.0602922439575195 8.599903106689453 0.2582830786705017
5.043954849243164 8.61418628692627 0.2577781677246094
5.005246162414551 8.588905334472656 0.25610315799713135
4.990875244140625 8.605245590209961 0.2556734085083008
4.958384990692139 8.591462135314941 0.25434279441833496
4.930235862731934 8.583784103393555 0.2532074451446533
4.910758972167969 8.591104507446289 0.2525178790092468
4.8890886306762695 8.595762252807617 0.25143963098526
4.85758113861084 8.581757545471191 0.25013256072998047
4.834887504577637 8.583166122436523 0.24927864968776703
4.810829162597656 8.58328628540039 0.24838200211524963
4.782606601715088 8.574604034423828 0.2472434639930725
4.755480766296387 8.567716598510742 0.24616166949272156
4.738419055938721 8.580121994018555 0.24562805891036987
4.7098541259765625 8.5703763961792 0.2444714903831482
4.683584213256836 8.565876007080078 0.24346086382865906
4.659568786621094 8.564127922058105 0.24254032969474792
4.638986110687256 8.568607330322266 0.24179914593696594
4.598435878753662 8.537216186523438 0.23974859714508057
8.854326248168945 -9.894485473632812 0.3955897092819214
11.527414321899414 -9.715657234191895 0.5081074237823486
11.605072021484375 -9.697813034057617 0.5115739107131958
11.654712677001953 -9.69829273223877 0.5138014554977417
11.743606567382812 -9.688852310180664 0.5177772045135498
11.792043685913086 -9.687755584716797 0.5199577212333679
11.88718032836914 -9.682352066040039 0.5242235660552979
11.920509338378906 -9.66841983795166 0.5257450342178345
13.800600051879883 -9.519105911254883 0.6039862632751465
13.966033935546875 -9.504201889038086 0.6116967797279358
14.079126358032227 -9.494657516479492 0.6169688701629639
14.136642456054688 -9.490828514099121 0.6196656227111816
14.254281997680664 -9.482964515686035 0.6251587867736816
14.30565357208252 -9.474372863769531 0.6275968551635742
14.414056777954102 -9.45907974243164 0.6327067017555237
14.491474151611328 -9.4669189453125 0.636299192905426
14.594464302062988 -9.446746826171875 0.6411938667297363
14.6568021774292 -9.443994522094727 0.6436014175415039
14.770233154296875 -9.429290771484375 0.648974597454071
14.84360408782959 -9.432830810546875 0.652411699295044
14.96049976348877 -9.418901443481445 0.654733419418335
15.14228630065918 -9.400947570800781 0.6606224775314331
16.583293914794922 -9.263599395751953 0.7197408676147461
16.795394897460938 -9.24336051940918 0.7299131751060486
17.007976531982422 -9.221525192260742 0.7389824390411377
17.147335052490234 -9.204527854919434 0.7457380294799805
17.22957992553711 -9.201993942260742 0.7496644854545593
17.444438934326172 -9.17626667022705 0.7588979005813599
17.516281127929688 -9.167022705078125 0.76239013671875
17.600034713745117 -9.163692474365234 0.7664071321487427
17.674118041992188 -9.155693054199219 0.7700209617614746
17.73575782775879 -9.140312194824219 0.7730855345726013
17.829696655273438 -9.141257286071777 0.7775640487670898
17.89569091796875 -9.128244400024414 0.7796145081520081
17.9898624420166 -9.128594398498535 0.7841109037399292
18.04327392578125 -9.107966423034668 0.786837100982666
18.135631561279297 -9.107413291931152 0.7912790775299072
18.293437957763672 -9.090394973754883 0.7946234941482544
18.367565155029297 -9.079055786132812 0.7944990396499634
18.528383255004883 -9.062350273132324 0.8016984462738037
18.616352081298828 -9.05685043334961 0.8059431910514832
20.166379928588867 -8.885282516479492 0.8760827779769897
20.436153411865234 -8.851151466369629 0.8806005716323853
20.725521087646484 -8.822164535522461 0.8934159278869629
20.915176391601562 -8.799036979675293 0.9027603268623352
20.997425079345703 -8.782398223876953 0.9062190055847168
21.211627960205078 -8.767215728759766 0.9159650802612305
21.317188262939453 -8.758333206176758 0.9204312562942505
21.413293838500977 -8.74516487121582 0.92448890209198
21.52267074584961 -8.737764358520508 0.9298464059829712
21.605195999145508 -8.718318939208984 0.9333304166793823
21.703371047973633 -8.704839706420898 0.9374901056289673
21.812318801879883 -8.69603443145752 0.9428501129150391
21.913291931152344 -8.682856559753418 0.9471443891525269
22.122276306152344 -8.65804672241211 0.9567697048187256
22.22420310974121 -8.64401912689209 0.9611194729804993
22.333385467529297 -8.633171081542969 0.9657939672470093
22.45061492919922 -8.624191284179688 0.9715462327003479
22.553897857666016 -8.609411239624023 0.9759697914123535
22.654325485229492 -8.593927383422852 0.9802798628807068
22.76913833618164 -8.582677841186523 0.9822431802749634
22.883472442626953 -8.570788383483887 0.9841433763504028
23.218551635742188 -8.53023624420166 0.9992518424987793
23.548892974853516 -8.483959197998047 1.0134508609771729
25.00521469116211 -8.302757263183594 1.078856348991394
25.399208068847656 -8.256667137145996 1.095226526260376
25.65478515625 -8.220451354980469 1.1047534942626953
25.776153564453125 -8.200397491455078 1.1059280633926392
26.042200088500977 -8.164422988891602 1.1183586120605469
26.186481475830078 -8.15001106262207 1.124666452407837
26.304834365844727 -8.125251770019531 1.1298408508300781
26.463401794433594 -8.114112854003906 1.1367745399475098
26.60232925415039 -8.096354484558105 1.142865777015686
26.746112823486328 -8.077726364135742 1.1491553783416748
26.857624053955078 -8.05062484741211 1.154080867767334
27.30301284790039 -7.99741268157959 1.1736475229263306
27.452058792114258 -7.977435111999512 1.1801903247833252
27.606834411621094 -7.960322380065918 1.1870125532150269
27.73331069946289 -7.93449068069458 1.1926195621490479
27.8896484375 -7.914803504943848 1.1995009183883667
28.022464752197266 -7.8896965980529785 1.2053942680358887
28.194454193115234 -7.874079704284668 1.2129740715026855
28.33329200744629 -7.848578929901123 1.2191295623779297
28.49857521057129 -7.830722808837891 1.2264454364776611
28.644737243652344 -7.805110931396484 1.2329202890396118
28.804946899414062 -7.784587383270264 1.2400325536727905
29.26751708984375 -7.712497711181641 1.2550554275512695
29.76863670349121 -7.644740104675293 1.27821683883667
31.65006446838379 -7.352969169616699 1.360289216041565
32.209327697753906 -7.268754005432129 1.3853503465652466
32.577415466308594 -7.208817481994629 1.4008967876434326
32.75690460205078 -7.176211357116699 1.4089841842651367
32.961612701416016 -7.149405479431152 1.4171481132507324
33.14593505859375 -7.1152801513671875 1.4264886379241943
33.34112548828125 -7.084836006164551 1.4332144260406494
33.536598205566406 -7.053668975830078 1.4399340152740479
33.72608947753906 -7.018322944641113 1.4495291709899902
33.92013168334961 -6.985294818878174 1.457242727279663
34.11749267578125 -6.951086044311523 1.4661576747894287
34.32350158691406 -6.917810440063477 1.4754481315612793
34.52607727050781 -6.884111404418945 1.4835389852523804
34.71858596801758 -6.8454132080078125 1.4922637939453125
34.94515609741211 -6.814778804779053 1.5024765729904175
35.137691497802734 -6.776666641235352 1.510146975517273
35.36107635498047 -6.741430759429932 1.5213258266448975
35.558433532714844 -6.702613830566406 1.5292150974273682
35.77479553222656 -6.66542387008667 1.5379129648208618
36.002296447753906 -6.629395484924316 1.5493278503417969
36.217674255371094 -6.591377258300781 1.558004379272461
36.43134307861328 -6.549891471862793 1.5665905475616455
36.665260314941406 -6.513429641723633 1.5783414840698242
36.88842010498047 -6.472978591918945 1.587357759475708
37.1054573059082 -6.430549621582031 1.5961109399795532
24.758106231689453 -4.076984882354736 1.0650079250335693
24.84555435180664 -3.931118965148926 1.0699892044067383
40.72614288330078 -5.744884014129639 1.755789875984192
41.263423919677734 -5.6435418128967285 1.7779128551483154
41.519691467285156 -5.5895490646362305 1.7897212505340576
42.0830078125 -5.486354827880859 1.8142991065979004
42.355735778808594 -5.43122673034668 1.825560212135315
42.62206268310547 -5.375497817993164 1.8378643989562988
42.90027618408203 -5.317508697509766 1.849366545677185
43.179386138916016 -5.261145114898682 1.8622573614120483
43.457069396972656 -5.202138900756836 1.8737566471099854
43.74010467529297 -5.142617225646973 1.8868324756622314
44.02093505859375 -5.083043098449707 1.8984878063201904
44.31640625 -5.022624492645264 1.9121372699737549
44.61199951171875 -4.96099853515625 1.9244364500045776
44.912254333496094 -4.900054931640625 1.9397013187408447
45.2192497253418 -4.837222099304199 1.95530366897583
45.53783416748047 -4.7743330001831055 1.9686403274536133
45.8133430480957 -4.705713272094727 1.9801181554794312
46.12248611450195 -4.639339447021484 1.9930529594421387
46.424652099609375 -4.571011543273926 2.007119655609131
46.74323654174805 -4.504457950592041 2.0219173431396484
47.04560852050781 -4.433628082275391 2.034587860107422
47.36845779418945 -4.363447189331055 2.0481486320495605
47.6788330078125 -4.292274475097656 2.0611791610717773
48.029510498046875 -4.221902847290039 2.0759501457214355
48.33241271972656 -4.145991802215576 2.090147018432617
48.67784118652344 -4.072381496429443 2.104710102081299
48.9996452331543 -3.995424270629883 2.1197547912597656
49.33074951171875 -3.9193880558013916 2.1337220668792725
49.67951965332031 -3.8418407440185547 2.1484527587890625
49.977989196777344 -3.7590744495391846 2.161013603210449
50.36403274536133 -3.576423406600952 2.1770401000976562
50.49911880493164 -3.4791529178619385 2.184093475341797
50.755897521972656 -3.282135486602783 2.1961488723754883
50.81752014160156 -3.180236577987671 2.1985247135162354
50.806007385253906 -2.964768171310425 2.2006187438964844
50.79548263549805 -2.7495555877685547 2.2042489051818848
50.80992126464844 -2.644598960876465 2.20463228225708
50.84598922729492 -2.4318079948425293 2.2072715759277344
50.83914566040039 -2.3257486820220947 2.2067604064941406
50.846771240234375 -2.2172605991363525 2.206880569458008
50.869476318359375 -2.112495183944702 2.207672119140625
50.873268127441406 -2.005371332168579 2.2076473236083984
50.86415100097656 -1.8977303504943848 2.2070741653442383
50.87515640258789 -1.7924259901046753 2.207385301589966
50.87324523925781 -1.6851274967193604 2.207144260406494
50.859100341796875 -1.5774357318878174 2.2063825130462646
50.882423400878906 -1.4709376096725464 2.2072536945343018
50.89757537841797 -1.3640981912612915 2.2077810764312744
50.89534378051758 -1.2583504915237427 2.207566976547241
50.89935302734375 -1.151228427886963 2.2076308727264404
50.911922454833984 -1.044238567352295 2.2080774307250977
50.92033004760742 -0.938701331615448 2.2099273204803467
50.92294692993164 -0.8299335241317749 2.209958791732788
50.91728210449219 -0.7241532206535339 2.2096431255340576
50.905914306640625 -0.6167964935302734 2.2090892791748047
50.91227340698242 -0.5096369385719299 2.2093138694763184
50.9271125793457 -0.40409326553344727 2.20991849899292
50.904510498046875 -0.29516494274139404 2.213526725769043
50.923187255859375 -0.1895952820777893 2.2143197059631348
50.84500503540039 -0.08379007130861282 2.2108981609344482
14.609983444213867 0.006681279744952917 -0.23271949589252472
14.603346824645996 0.06818011403083801 -0.23083600401878357
14.60404109954834 0.15999887883663177 -0.2290722131729126
14.639999389648438 0.2524475157260895 -0.2269747108221054
14.70619010925293 0.5320497751235962 -0.22182559967041016
14.72526741027832 0.6254557371139526 -0.22128301858901978
14.750606536865234 0.7194561958312988 -0.2199222296476364
14.787995338439941 0.8144974708557129 -0.21783924102783203
14.803049087524414 0.8778729438781738 -0.21721014380455017
14.806227684020996 0.9088993668556213 -0.21637898683547974
14.820968627929688 0.9724729657173157 -0.21483704447746277
14.82695198059082 1.0037710666656494 -0.21404585242271423
14.839995384216309 1.0360426902770996 -0.21335604786872864
14.849164962768555 1.0681159496307373 -0.21352118253707886
14.864060401916504 1.1001973152160645 -0.2128571718931198
14.861969947814941 1.1315066814422607 -0.21195103228092194
14.871063232421875 1.1637074947357178 -0.21120595932006836
14.891866683959961 1.1964333057403564 -0.21062427759170532
14.900666236877441 1.229182243347168 -0.2098712921142578
14.905858993530273 1.260758876800537 -0.20906716585159302
14.929869651794434 1.2939995527267456 -0.2089768350124359
14.93310260772705 1.3264265060424805 -0.2095421850681305
14.935962677001953 1.357925295829773 -0.2087048888206482
14.933076858520508 1.3893661499023438 -0.20823974907398224
14.964334487915039 1.424072027206421 -0.20780044794082642
14.96788501739502 1.4557584524154663 -0.2069726288318634
14.985578536987305 1.4898020029067993 -0.20634251832962036
14.990392684936523 1.5217019319534302 -0.20599794387817383
14.99380874633789 1.5534913539886475 -0.20516899228096008
15.004547119140625 1.5870084762573242 -0.20444074273109436
15.00875473022461 1.6189550161361694 -0.20362184941768646
15.022632598876953 1.6519968509674072 -0.20293396711349487
15.038829803466797 1.68630051612854 -0.202731654047966
15.038663864135742 1.7178895473480225 -0.20185232162475586
15.065617561340332 1.7852755784988403 -0.20093151926994324
15.228533744812012 2.3909101486206055 -0.19052687287330627
15.262471199035645 2.4946517944335938 -0.18877753615379333
15.268827438354492 2.5282340049743652 -0.18797579407691956
15.270462036132812 2.5946249961853027 -0.18623775243759155
15.261363983154297 2.625675678253174 -0.1852479875087738
15.244087219238281 2.6888513565063477 -0.18376347422599792
15.24857234954834 2.722283124923706 -0.18294036388397217
15.242006301879883 2.7547221183776855 -0.1819862425327301
15.233070373535156 2.7857632637023926 -0.1810024529695511
15.22110652923584 2.816230535507202 -0.1804502308368683
15.213861465454102 2.8485164642333984 -0.17949114739894867
15.213998794555664 2.881234645843506 -0.17861998081207275
15.196325302124023 2.9105658531188965 -0.17753657698631287
15.20773696899414 2.946444034576416 -0.17679649591445923
15.19183349609375 2.976085662841797 -0.17573872208595276
15.194461822509766 3.009831428527832 -0.17489716410636902
15.19399356842041 3.043008804321289 -0.17401960492134094
15.20436954498291 3.07791805267334 -0.17373126745224
15.205205917358398 3.11191463470459 -0.17286935448646545
15.185586929321289 3.140746593475342 -0.17177358269691467
15.184625625610352 3.1734211444854736 -0.17136898636817932
15.194869995117188 3.20945405960083 -0.17061322927474976
15.195088386535645 3.242455005645752 -0.1697435975074768
15.187322616577148 3.273763656616211 -0.1687832772731781
15.195087432861328 3.309422016143799 -0.16799843311309814
15.18468189239502 3.340177059173584 -0.1670113205909729
15.190040588378906 3.3753914833068848 -0.1661994308233261
15.178224563598633 3.4058339595794678 -0.1651972532272339
15.174657821655273 3.438124895095825 -0.164754256606102
15.182476043701172 3.507183074951172 -0.1635781228542328
15.182743072509766 3.540449380874634 -0.16270771622657776
15.176451683044434 3.6064391136169434 -0.16089800000190735
15.176581382751465 3.6397593021392822 -0.1600269079208374
15.177042007446289 3.7075324058532715 -0.15732342004776
15.170365333557129 3.739774703979492 -0.15590748190879822
15.169971466064453 3.8070199489593506 -0.15415768325328827
15.175350189208984 3.9099411964416504 -0.15207251906394958
15.163936614990234 4.214498519897461 -0.14455880224704742
15.153571128845215 4.314422130584717 -0.14231836795806885
15.142486572265625 4.379795074462891 -0.1404610574245453
15.150374412536621 4.41666316986084 -0.13965582847595215
15.152713775634766 4.486668109893799 -0.13839547336101532
15.142696380615234 4.517902374267578 -0.13547487556934357
15.141351699829102 4.587032318115234 -0.13274995982646942
15.130329132080078 4.617995262145996 -0.13177266716957092
15.13262939453125 4.653046607971191 -0.1309068202972412
15.116512298583984 4.683460235595703 -0.13037745654582977
15.128618240356445 4.721641540527344 -0.1296001821756363
15.129682540893555 4.756451606750488 -0.1287241280078888
15.124124526977539 4.790229797363281 -0.12779468297958374
15.115198135375977 4.821938514709473 -0.12731331586837769
15.10191535949707 4.8527679443359375 -0.12632012367248535
15.10072135925293 4.887482643127441 -0.12542681396007538
15.095978736877441 4.92057991027832 -0.12450195103883743
15.091958045959473 4.954959869384766 -0.12358695268630981
15.10385513305664 4.993610382080078 -0.12279658019542694
15.091609954833984 5.024327754974365 -0.12181052565574646
15.093818664550781 5.060906410217285 -0.12094388157129288
15.09305477142334 5.095517158508301 -0.12054339051246643
15.09451961517334 5.130929946899414 -0.11966505646705627
15.0928955078125 5.166371822357178 -0.1187659204006195
15.099837303161621 5.203780174255371 -0.11841291189193726
15.091287612915039 5.2369279861450195 -0.11746005713939667
15.088279724121094 5.270990371704102 -0.1165439635515213
15.06591796875 5.298284530639648 -0.1154811680316925
15.088750839233398 5.342560768127441 -0.11278842389583588
15.076166152954102 5.3733391761779785 -0.10987070202827454
15.070816040039062 5.406705856323242 -0.10893497616052628
15.064321517944336 5.440726280212402 -0.10799515247344971
15.063558578491211 5.475815296173096 -0.10709263384342194
15.074007034301758 5.515583038330078 -0.10626955330371857
15.073368072509766 5.551360130310059 -0.10536688566207886
15.066884994506836 5.584507942199707 -0.1044224351644516
15.05038070678711 5.614470481872559 -0.10389295220375061
15.058414459228516 5.6892924308776855 -0.1021464541554451
15.054774284362793 5.796330451965332 -0.09991303086280823
15.050773620605469 5.90423583984375 -0.09717003256082535
15.044544219970703 6.011197090148926 -0.09489390254020691
15.044261932373047 6.121039390563965 -0.09266138821840286
15.011218070983887 6.218400955200195 -0.08624692261219025
15.007307052612305 6.327605247497559 -0.0839572548866272
14.991012573242188 6.3952250480651855 -0.0820280909538269
14.992392539978027 6.432620048522949 -0.08111204206943512
14.957603454589844 6.492420196533203 -0.07959404587745667
14.913459777832031 6.510073184967041 -0.07844218611717224
14.884003639221191 6.5345659255981445 -0.07737302780151367
14.853765487670898 6.558629989624023 -0.07679784297943115
14.81865119934082 6.579907417297363 -0.0756995901465416
14.783422470092773 6.601567268371582 -0.07460463047027588
14.713127136230469 6.6073713302612305 -0.07333457469940186
14.667903900146484 6.623674392700195 -0.07220010459423065
14.61046028137207 6.634808540344238 -0.07149585336446762
14.55195426940918 6.645236968994141 -0.07030218094587326
14.495147705078125 6.655684471130371 -0.0691227912902832
14.439062118530273 6.6673173904418945 -0.06844055652618408
14.372882843017578 6.67297887802124 -0.06722260266542435
14.296086311340332 6.6734209060668945 -0.06596571952104568
14.250350952148438 6.689184188842773 -0.06486143916845322
14.199447631835938 6.701284885406494 -0.06229809671640396
14.128471374511719 6.70419979095459 -0.059658169746398926
14.064325332641602 6.710082054138184 -0.058496493846178055
14.009315490722656 6.719562530517578 -0.05737699568271637
13.972709655761719 6.738231658935547 -0.05728518217802048
13.90559196472168 6.741992950439453 -0.056126732379198074
13.857206344604492 6.754086494445801 -0.05504599213600159
13.785208702087402 6.754953384399414 -0.05388019233942032
13.748064041137695 6.772691249847412 -0.052854906767606735
13.694905281066895 6.781855583190918 -0.05177060887217522
13.628641128540039 6.785333633422852 -0.05111163854598999
13.568537712097168 6.790582656860352 -0.05047490447759628
13.51800537109375 6.800924301147461 -0.04941633343696594
13.469320297241211 6.812009811401367 -0.04836825653910637
13.414091110229492 6.819072723388672 -0.047305166721343994
13.346319198608398 6.820024013519287 -0.046201206743717194
13.30331802368164 6.833416938781738 -0.04518672451376915
13.240652084350586 6.835991859436035 -0.04456796497106552
13.147397994995117 6.858126640319824 -0.0429956316947937
13.085725784301758 6.86104679107666 -0.041941087692976
12.925433158874512 6.880943298339844 -0.039330001920461655
12.759788513183594 6.89605712890625 -0.034536104649305344
12.532535552978516 6.944211006164551 -0.030175702646374702
12.382099151611328 6.962952613830566 -0.028182726353406906
12.238115310668945 6.983611106872559 -0.025374671444296837
12.099631309509277 7.005785942077637 -0.023471249267458916
12.046455383300781 7.008909225463867 -0.022546403110027313
11.947498321533203 7.018848419189453 -0.021571729332208633
11.911430358886719 7.030949115753174 -0.020687151700258255
11.863372802734375 7.036308288574219 -0.019790004938840866
11.823965072631836 7.046634674072266 -0.01890753209590912
11.775001525878906 7.0506086349487305 -0.018016550689935684
11.731531143188477 7.058182716369629 -0.01797076314687729
11.685405731201172 7.063986778259277 -0.016254592686891556
11.648528099060059 7.075227737426758 -0.015810104086995125
11.601287841796875 7.080019950866699 -0.014936050400137901
11.55919075012207 7.087291717529297 -0.014072692021727562
11.501131057739258 7.085058212280273 -0.013607900589704514
11.46356201171875 7.095258712768555 -0.012758336961269379
11.41285228729248 7.0966715812683105 -0.012309333309531212
11.386163711547852 7.1133646965026855 -0.011476321145892143
11.323261260986328 7.1072611808776855 -0.011018257588148117
11.29482650756836 7.122130870819092 -0.01019242312759161
11.248809814453125 7.1262617111206055 -0.009349598549306393
11.196940422058105 7.126486778259277 -0.008915613405406475
11.172242164611816 7.143866539001465 -0.008502431213855743
11.122684478759766 7.144740104675293 -0.0076692779548466206
11.073827743530273 7.1463422775268555 -0.006840042769908905
11.0450439453125 7.160754680633545 -0.0064309267327189445
10.994504928588867 7.160917282104492 -0.005611746571958065
10.947257041931152 7.162542343139648 -0.005192066077142954
10.89840030670166 7.163393974304199 -0.004380465019494295
10.866673469543457 7.175354957580566 -0.003980510868132114
10.818039894104004 7.175522804260254 -0.0035691827069967985
10.776163101196289 7.180466651916504 -0.0027690166607499123
10.70730209350586 7.199406623840332 -0.0015786680160090327
10.662679672241211 7.202051162719727 -0.001182409469038248
10.633338928222656 7.2148871421813965 -0.0003962302580475807
10.58178997039795 7.212495803833008 0.0003875102265737951
10.509809494018555 7.227973937988281 0.0011642526369541883
10.471370697021484 7.234064102172852 0.0019382955506443977
10.392837524414062 7.244656562805176 0.0030902319122105837
10.346721649169922 7.244461536407471 0.0034678748343139887
10.26934814453125 7.2549285888671875 0.004601134918630123
10.159524917602539 7.273516654968262 0.006477750837802887
10.042367935180664 7.285563945770264 0.007946387864649296
9.933223724365234 7.302133083343506 0.009401161223649979
9.858409881591797 7.3112897872924805 0.010485395789146423
9.807069778442383 7.305274963378906 0.01081603579223156
9.743326187133789 7.321328163146973 0.011155781336128712
9.713020324707031 7.33060884475708 0.011882280930876732
9.640484809875488 7.339329719543457 0.012569641694426537
9.608390808105469 7.346907138824463 0.01328670047223568
9.54069709777832 7.358559608459473 0.013970467261970043
9.504013061523438 7.3622355461120605 0.014673675410449505
9.455520629882812 7.356581687927246 0.014987897127866745
9.425506591796875 7.364678382873535 0.015328994952142239
9.381431579589844 7.362110137939453 0.01601068302989006
9.354021072387695 7.372478008270264 0.016352705657482147
9.317289352416992 7.375389099121094 0.016679860651493073
9.282052040100098 7.379340171813965 0.017368346452713013
9.241238594055176 7.378243446350098 0.017680812627077103
9.212570190429688 7.387174606323242 0.018016375601291656
9.17762565612793 7.390956878662109 0.018697280436754227
9.14995002746582 7.400486469268799 0.018673166632652283
9.113176345825195 7.4020795822143555 0.01934574916958809
9.088560104370117 7.41390323638916 0.020042795687913895
9.041200637817383 7.4070329666137695 0.01997271366417408
9.017918586730957 7.419285774230957 0.020667599514126778
8.966041564941406 7.408318996429443 0.021294355392456055
8.95145034790039 7.428037166595459 0.020232951268553734
8.898290634155273 7.415616989135742 0.020854949951171875
8.867527961730957 7.421217441558838 0.020818915218114853
8.842206954956055 7.43174409866333 0.021500810980796814
8.80381965637207 7.431168079376221 0.02179642580449581
8.765314102172852 7.42987060546875 0.022090692073106766
8.742298126220703 7.44205379486084 0.022772930562496185
8.70479965209961 7.441801071166992 0.023064399138092995
8.685745239257812 7.45722770690918 0.023406192660331726
8.647651672363281 7.455750465393066 0.024042397737503052
8.611961364746094 7.456650733947754 0.02398636005818844
8.575613021850586 7.456833362579346 0.024622365832328796
8.550580978393555 7.466742515563965 0.024941308423876762
8.511600494384766 7.463891983032227 0.025218885391950607
8.453939437866211 7.4765424728393555 0.02582993544638157
8.42634391784668 7.483356475830078 0.026480961591005325
8.370140075683594 7.496733665466309 0.027088914066553116
8.297271728515625 7.4946818351745605 0.027637477964162827
8.268983840942383 7.500349521636963 0.028276173397898674
8.200464248657227 7.5013885498046875 0.028828144073486328
8.170123100280762 7.504836082458496 0.028776271268725395
8.11558723449707 7.518002510070801 0.029370833188295364
8.024389266967773 7.52780818939209 0.030554359778761864
7.9994401931762695 7.536135196685791 0.03051985241472721
7.968669414520264 7.538880348205566 0.03113238327205181
7.940071105957031 7.5431108474731445 0.031750310212373734
7.893979072570801 7.531012535095215 0.03162921592593193
7.874953269958496 7.544598579406738 0.0322820208966732
7.842373847961426 7.544660568237305 0.03221270442008972
7.806182861328125 7.541560173034668 0.032791733741760254
7.76934289932251 7.537662029266357 0.03270360827445984
7.740832328796387 7.541709899902344 0.033310241997241974
7.7173638343811035 7.550125598907471 0.033276185393333435
7.686853408813477 7.552017688751221 0.03387055918574333
7.653841018676758 7.55132532119751 0.03379558026790619
7.628467082977295 7.5580549240112305 0.03440920636057854
7.596893310546875 7.558077812194824 0.034337759017944336
7.573571681976318 7.566676616668701 0.034957405179739
7.54496431350708 7.569906711578369 0.03522616624832153
7.51554536819458 7.571751594543457 0.035486623644828796
7.482937812805176 7.570719242095947 0.03573376685380936
7.457964897155762 7.57729959487915 0.03568888083100319
7.423086166381836 7.573699474334717 0.03559717908501625
7.391420364379883 7.573223114013672 0.03616783395409584
7.366716384887695 7.579314708709717 0.03612447530031204
7.333281993865967 7.576773643493652 0.03668174147605896
7.307981491088867 7.582516670227051 0.036635179072618484
7.290552616119385 7.595916748046875 0.03726913034915924
7.253714561462402 7.589462757110596 0.03716232627630234
7.230567932128906 7.597207069396973 0.037767089903354645
7.197221755981445 7.594128608703613 0.037675533443689346
7.177834987640381 7.605684280395508 0.038295160979032516
7.14800500869751 7.605633735656738 0.0382213220000267
7.119483947753906 7.607324600219727 0.03847306966781616
7.088653564453125 7.60642147064209 0.03870883956551552
7.063767433166504 7.611324310302734 0.038977548480033875
7.043734550476074 7.621865749359131 0.03927145525813103
7.015983581542969 7.623981952667236 0.03952275216579437
6.981009483337402 7.617641448974609 0.0397287979722023
6.962709426879883 7.629867076873779 0.04003266990184784
6.9228363037109375 7.618328094482422 0.0402083620429039
6.869444370269775 7.623369216918945 0.04070914536714554
6.845253944396973 7.628763198852539 0.04097546264529228
6.796004772186279 7.638348579406738 0.04180694743990898
6.766504287719727 7.637046813964844 0.04172348231077194
6.7095136642456055 7.637282371520996 0.04218968003988266
6.6917724609375 7.649043560028076 0.04248721897602081
6.6605634689331055 7.646268844604492 0.042703770101070404
6.63792610168457 7.652286529541016 0.04296724125742912
6.58561897277832 7.656895637512207 0.043147433549165726
6.555802822113037 7.654302597045898 0.043362922966480255
6.505886077880859 7.661091327667236 0.04385716840624809
6.481172561645508 7.664168357849121 0.044106580317020416
6.424001693725586 7.661773204803467 0.044239938259124756
6.396481513977051 7.661662578582764 0.04446796327829361
6.375929832458496 7.6698150634765625 0.04474137723445892
6.347036361694336 7.667369842529297 0.044649213552474976
6.327785968780518 7.6769700050354 0.044931940734386444
6.291810989379883 7.666155815124512 0.045093633234500885
6.274003028869629 7.676888465881348 0.04538273066282272
6.250533103942871 7.681126117706299 0.045329317450523376
6.219388008117676 7.675809383392334 0.045521799474954605
6.202597618103027 7.687647819519043 0.0458182618021965
6.17437744140625 7.685732841491699 0.04602939635515213
6.141424179077148 7.677768707275391 0.046202510595321655
6.119006156921387 7.682853698730469 0.046456366777420044
6.096524238586426 7.687787055969238 0.046408358961343765
6.070108413696289 7.687189102172852 0.04662666469812393
6.043190956115723 7.686326026916504 0.04684368148446083
6.020677089691162 7.6909637451171875 0.04679447412490845
5.996006011962891 7.692283630371094 0.04702289402484894
5.970505714416504 7.69340705871582 0.047250039875507355
5.942805290222168 7.690610408782959 0.04715714603662491
5.927887916564941 7.70429801940918 0.047460488975048065
5.895138263702393 7.695694923400879 0.047627534717321396
5.881376266479492 7.710823059082031 0.04764552414417267
5.846627712249756 7.698833465576172 0.04749433696269989
5.824774742126465 7.703680992126465 0.048038896173238754
5.799590110778809 7.703551292419434 0.04796316847205162
5.783354759216309 7.715746879577637 0.04796316847205162
5.753332138061523 7.709464073181152 0.0484347939491272
5.731007099151611 7.712889194488525 0.04838303104043007
5.704668045043945 7.7118000984191895 0.04829895496368408
5.686232566833496 7.720335960388184 0.04886239767074585
5.665241718292236 7.725855827331543 0.04882253706455231
5.634815692901611 7.718390464782715 0.048701416701078415
5.619319915771484 7.730800628662109 0.04870513081550598
5.591589450836182 7.72681188583374 0.049769558012485504
5.557082653045654 7.713271141052246 0.04960774630308151
5.5416412353515625 7.725591659545898 0.04961267113685608
5.488895893096924 7.720503807067871 0.05000931769609451
5.461085319519043 7.715239524841309 0.04990169405937195
5.450143814086914 7.734767436981201 0.04995265603065491
5.415585517883301 7.719695568084717 0.04978228360414505
5.367971420288086 7.720781326293945 0.05021706596016884
5.360899448394775 7.744851589202881 0.050301164388656616
5.323783874511719 7.726449012756348 0.05010732263326645
5.308489799499512 7.738574028015137 0.050687409937381744
5.285320281982422 7.739180088043213 0.050619661808013916
5.266108512878418 7.746529579162598 0.05059375613927841
5.239556312561035 7.741977691650391 0.05049283057451248
5.220044136047363 7.74773645401001 0.05074644088745117
5.190759658813477 7.739900588989258 0.050906017422676086
5.173437595367432 7.74878454208374 0.050892531871795654
5.141207695007324 7.735736846923828 0.05073632299900055
5.122902870178223 7.743514060974121 0.05071599781513214
5.097270965576172 7.739624977111816 0.05090554058551788
5.087489128112793 7.760814189910889 0.05125528573989868
5.051187515258789 7.74042272567749 0.051050398498773575
5.036459445953369 7.753479957580566 0.0516311377286911
5.007807731628418 7.745021343231201 0.05150405690073967
4.994549751281738 7.7597856521606445 0.05181657522916794
4.9633941650390625 7.747179985046387 0.05166221782565117
4.943219184875488 7.751574516296387 0.05162155255675316
4.917813301086426 7.747150421142578 0.051524437963962555
4.903287887573242 7.760338306427002 0.051822908222675323
4.874938011169434 7.751565933227539 0.05197574198246002
4.860910892486572 7.764970302581787 0.05199795216321945
4.838493347167969 7.765997886657715 0.05193569138646126
4.811295509338379 7.758169174194336 0.051816582679748535
4.795921325683594 7.769862174987793 0.0518268384039402
4.772342681884766 7.768210411071777 0.052025169134140015
4.751326560974121 7.770108699798584 0.05197323113679886
4.730743885040283 7.773711204528809 0.052207738161087036
4.701519966125488 7.761914253234863 0.05206267163157463
4.676774978637695 7.7573442459106445 0.051966652274131775
4.658231735229492 7.764047622680664 0.05194510146975517
4.6400299072265625 7.77021598815918 0.05192214623093605
4.617382049560547 7.768869400024414 0.05184822157025337
4.595620632171631 7.769999980926514 0.05206402391195297
4.574267387390137 7.770653247833252 0.05200528725981712
4.557806968688965 7.779575347900391 0.052278418093919754
4.530459880828857 7.770910263061523 0.052429065108299255
4.506508827209473 7.766826629638672 0.05261264741420746
4.486682891845703 7.770851135253906 0.05257461965084076
5.370392799377441 -10.152210235595703 -0.20612120628356934
5.414785385131836 -10.13339900970459 -0.2075997292995453
5.432679176330566 -10.11558723449707 -0.2081688791513443
5.482447624206543 -10.105916976928711 -0.20984762907028198
5.5148162841796875 -10.11544418334961 -0.2109871804714203
5.571527481079102 -10.117843627929688 -0.2129344344139099
5.7354044914245605 -10.112419128417969 -0.21751545369625092
5.81065034866333 -10.096644401550293 -0.2200891524553299
5.872622489929199 -10.105642318725586 -0.22225028276443481
5.896879196166992 -10.099082946777344 -0.2230881154537201
5.959631443023682 -10.108546257019043 -0.2252831757068634
5.986621856689453 -10.105623245239258 -0.2262156903743744
6.071160793304443 -10.102945327758789 -0.22844567894935608
6.09529447555542 -10.094902038574219 -0.22927281260490417
6.127524375915527 -10.100849151611328 -0.23041871190071106
6.155223369598389 -10.098491668701172 -0.23138119280338287
6.177545547485352 -10.087259292602539 -0.23214346170425415
6.212801933288574 -10.097721099853516 -0.23340493440628052
6.23765754699707 -10.090446472167969 -0.23354372382164001
6.27116060256958 -10.0970458984375 -0.23399718105793
6.293121337890625 -10.084959983825684 -0.23438826203346252
6.32136344909668 -10.083566665649414 -0.23538732528686523
6.356361389160156 -10.09211254119873 -0.23662692308425903
6.380313873291016 -10.082995414733887 -0.23745542764663696
6.404850006103516 -10.074759483337402 -0.23830696940422058
6.468863487243652 -10.082098007202148 -0.24058176577091217
6.490050315856934 -10.068412780761719 -0.2405795454978943
6.523456573486328 -10.07426643371582 -0.2417779117822647
6.5573272705078125 -10.079984664916992 -0.24297887086868286
6.572983741760254 -10.057657241821289 -0.24350720643997192
6.612758636474609 -10.072811126708984 -0.24494320154190063
6.633310317993164 -10.057884216308594 -0.2456536591053009
6.664464473724365 -10.058975219726562 -0.24602310359477997
6.6915740966796875 -10.05384635925293 -0.24697916209697723
6.724998474121094 -10.058748245239258 -0.2481793612241745
6.752854347229004 -10.054529190063477 -0.249166339635849
6.786019802093506 -10.058082580566406 -0.2503489851951599
6.814363479614258 -10.054365158081055 -0.2509852647781372
6.843986511230469 -10.053089141845703 -0.2516765296459198
6.871510028839111 -10.047967910766602 -0.25265488028526306
6.896146774291992 -10.038564682006836 -0.25352585315704346
6.931619644165039 -10.04547119140625 -0.2540639340877533
6.965201377868652 -10.048151969909668 -0.25413477420806885
6.991070747375488 -10.040903091430664 -0.25506591796875
7.058671951293945 -10.047493934631348 -0.25710880756378174
7.089265823364258 -10.046653747558594 -0.25783953070640564
7.145796775817871 -10.036771774291992 -0.2598608136177063
7.23160457611084 -10.023324012756348 -0.26219502091407776
7.328298568725586 -10.023931503295898 -0.26492688059806824
7.389742374420166 -10.01913833618164 -0.2671393156051636
7.427678108215332 -10.026946067810059 -0.26813822984695435
7.4848713874816895 -10.015690803527832 -0.2698246240615845
7.516928672790527 -10.015176773071289 -0.27099594473838806
7.580767631530762 -10.012126922607422 -0.27254194021224976
7.609176158905029 -10.0057954788208 -0.2735710144042969
7.674315452575684 -10.004365921020508 -0.27441322803497314
7.705447196960449 -10.00126838684082 -0.27438217401504517
7.736351013183594 -9.997767448425293 -0.2755051851272583
7.774888038635254 -10.00460433959961 -0.2765222191810608
7.803440093994141 -9.997819900512695 -0.27717697620391846
7.8271894454956055 -9.98482894897461 -0.27804863452911377
7.862993240356445 -9.987115859985352 -0.2789594531059265
7.898378849029541 -9.988716125488281 -0.27985838055610657
7.930912017822266 -9.987191200256348 -0.2810545265674591
7.956319808959961 -9.975977897644043 -0.2815971374511719
7.993443965911865 -9.979349136352539 -0.2825610637664795
8.026954650878906 -9.978048324584961 -0.2837830185890198
8.060831069946289 -9.977691650390625 -0.28463804721832275
8.095966339111328 -9.978130340576172 -0.2855303883552551
8.153643608093262 -9.963781356811523 -0.2868812680244446
8.184915542602539 -9.959136009216309 -0.28802695870399475
8.227185249328613 -9.967702865600586 -0.28956660628318787
8.262292861938477 -9.967413902282715 -0.29006093740463257
8.296701431274414 -9.966754913330078 -0.29133468866348267
8.326723098754883 -9.960088729858398 -0.2924436330795288
8.36282730102539 -9.960578918457031 -0.2929747700691223
8.38878059387207 -9.948871612548828 -0.293946772813797
8.423601150512695 -9.948204040527344 -0.29443860054016113
8.458887100219727 -9.9473295211792 -0.294547975063324
8.499307632446289 -9.952320098876953 -0.29442137479782104
8.527973175048828 -9.943412780761719 -0.2954905033111572
8.567845344543457 -9.948051452636719 -0.29615500569343567
8.602973937988281 -9.946403503417969 -0.29744768142700195
8.63528060913086 -9.941370010375977 -0.29824182391166687
8.66757583618164 -9.936824798583984 -0.2990476191043854
8.70053482055664 -9.931699752807617 -0.3002597391605377
8.742640495300293 -9.938079833984375 -0.30100002884864807
8.803627967834473 -9.922826766967773 -0.30246520042419434
8.842674255371094 -9.925270080566406 -0.3039136528968811
8.912622451782227 -9.919357299804688 -0.30569466948509216
9.017026901245117 -9.90953254699707 -0.3087659776210785
9.090433120727539 -9.906072616577148 -0.31066927313804626
9.130838394165039 -9.908747673034668 -0.311348021030426
9.203453063964844 -9.903528213500977 -0.31322431564331055
9.231769561767578 -9.892141342163086 -0.3143045902252197
9.309919357299805 -9.892640113830566 -0.3155573606491089
9.382448196411133 -9.885953903198242 -0.3166002035140991
9.42694091796875 -9.891643524169922 -0.31740832328796387
9.456804275512695 -9.881230354309082 -0.3185451924800873
9.501222610473633 -9.885887145996094 -0.31934183835983276
9.536588668823242 -9.88155746459961 -0.32025933265686035
9.574140548706055 -9.878750801086426 -0.3212418556213379
9.607110977172852 -9.87109661102295 -0.3220687210559845
9.652132034301758 -9.87566089630127 -0.3233024477958679
9.678266525268555 -9.86077880859375 -0.3239043056964874
9.71722412109375 -9.85945987701416 -0.32494473457336426
9.769804000854492 -9.871143341064453 -0.3264329135417938
9.79916000366211 -9.859197616577148 -0.32714182138442993
9.832569122314453 -9.851232528686523 -0.32799088954925537
9.883546829223633 -9.861292839050293 -0.3290063142776489
9.914840698242188 -9.850944519042969 -0.33021074533462524
9.950996398925781 -9.845314025878906 -0.3307231664657593
9.981882095336914 -9.834365844726562 -0.3314877152442932
10.017378807067871 -9.828454971313477 -0.3324160575866699
10.071697235107422 -9.8402099609375 -0.3339613080024719
10.105488777160645 -9.831720352172852 -0.33482563495635986
10.147098541259766 -9.830694198608398 -0.33551645278930664
10.181629180908203 -9.82326889038086 -0.3368491530418396
10.222610473632812 -9.821331024169922 -0.33665597438812256
10.260875701904297 -9.816625595092773 -0.33636707067489624
10.305412292480469 -9.817758560180664 -0.3375787138938904
10.34244155883789 -9.812173843383789 -0.33856338262557983
10.386941909790039 -9.81291389465332 -0.3393426835536957
10.43000602722168 -9.812118530273438 -0.34050634503364563
10.516618728637695 -9.810441970825195 -0.3424263298511505
10.543506622314453 -9.794683456420898 -0.3435206413269043
10.617008209228516 -9.779989242553711 -0.3445613384246826
10.697006225585938 -9.730083465576172 -0.34603503346443176
10.774808883666992 -9.677773475646973 -0.347448468208313
10.83183479309082 -9.646883010864258 -0.3488471806049347
10.859794616699219 -9.630863189697266 -0.3490942120552063
10.923055648803711 -9.605674743652344 -0.350711464881897
10.953847885131836 -9.59193229675293 -0.35104748606681824
10.997902870178223 -9.549558639526367 -0.35071247816085815
11.009017944335938 -9.518634796142578 -0.3508784770965576
11.035124778747559 -9.460859298706055 -0.35088515281677246
11.04619026184082 -9.430072784423828 -0.3510553240776062
11.06380844116211 -9.404900550842285 -0.35098570585250854
11.082456588745117 -9.380632400512695 -0.3513863682746887
11.098532676696777 -9.35418701171875 -0.3512694537639618
11.112841606140137 -9.326873779296875 -0.3515518307685852
11.123802185058594 -9.296228408813477 -0.35128217935562134
11.141841888427734 -9.27151870727539 -0.3516692817211151
11.157784461975098 -9.245100021362305 -0.3515586256980896
11.171786308288574 -9.217668533325195 -0.3518473505973816
11.17348861694336 -9.179586410522461 -0.35129356384277344
11.185699462890625 -9.15024471282959 -0.3514992594718933
11.201143264770508 -9.1241455078125 -0.35138770937919617
11.203039169311523 -9.086503982543945 -0.3508489727973938
11.217362403869629 -9.059038162231445 -0.35115110874176025
11.235357284545898 -9.034538269042969 -0.3515510559082031
11.255788803100586 -9.012016296386719 -0.351596474647522
11.270578384399414 -8.985538482666016 -0.3514767289161682
11.284782409667969 -8.958053588867188 -0.35177114605903625
11.284292221069336 -8.919002532958984 -0.351609468460083
11.312370300292969 -8.903116226196289 -0.35190194845199585
11.309078216552734 -8.862016677856445 -0.3503442108631134
11.328326225280762 -8.83867073059082 -0.35035958886146545
11.349302291870117 -8.816642761230469 -0.35086381435394287
11.375402450561523 -8.72280502319336 -0.350416898727417
11.404561996459961 -8.669139862060547 -0.35018759965896606
11.442967414855957 -8.585367202758789 -0.35058021545410156
11.474691390991211 -8.496953010559082 -0.3499049246311188
11.499185562133789 -8.440340042114258 -0.3499959707260132
11.511923789978027 -8.412454605102539 -0.34984517097473145
11.541715621948242 -8.360420227050781 -0.35012441873550415
11.55685806274414 -8.334346771240234 -0.3500532805919647
11.583505630493164 -8.28016185760498 -0.35023361444473267
11.585184097290039 -8.244564056396484 -0.3497573137283325
11.612525939941406 -8.227232933044434 -0.35005518794059753
11.605178833007812 -8.185388565063477 -0.34888556599617004
11.620004653930664 -8.159786224365234 -0.3488253355026245
11.63233757019043 -8.131919860839844 -0.3486790359020233
11.649089813232422 -8.107176780700684 -0.348666250705719
11.656654357910156 -8.076050758361816 -0.34838545322418213
11.669571876525879 -8.048694610595703 -0.34868794679641724
11.690553665161133 -8.027416229248047 -0.34881487488746643
11.68808364868164 -7.989548206329346 -0.34867802262306213
11.714611053466797 -7.9715471267700195 -0.3489709794521332
11.721532821655273 -7.940720081329346 -0.348685622215271
11.737074851989746 -7.915233612060547 -0.3486485481262207
11.739298820495605 -7.880831718444824 -0.3482256531715393
11.751077651977539 -7.852884769439697 -0.348082035779953
11.757369995117188 -7.8213348388671875 -0.3477829098701477
11.765037536621094 -7.791264533996582 -0.3475310802459717
11.771333694458008 -7.759818077087402 -0.3472334146499634
11.782510757446289 -7.73165225982666 -0.3470803499221802
11.798734664916992 -7.707317352294922 -0.34708625078201294
11.813709259033203 -7.681648254394531 -0.3470497727394104
11.826093673706055 -7.65432596206665 -0.34694117307662964
11.835147857666016 -7.62538480758667 -0.34673982858657837
11.864147186279297 -7.573553562164307 -0.3470734655857086
11.861278533935547 -7.536606311798096 -0.34652799367904663
11.89380168914795 -7.487660884857178 -0.34699609875679016
11.935914993286133 -7.409296035766602 -0.3468535542488098
11.966569900512695 -7.324512004852295 -0.3464010953903198
12.011228561401367 -7.247951030731201 -0.34636086225509644
12.039653778076172 -7.196602821350098 -0.34587472677230835
12.053633689880371 -7.170560836791992 -0.3454139232635498
12.080738067626953 -7.118463516235352 -0.3453322947025299
12.084911346435547 -7.0866899490356445 -0.3450276553630829
12.112756729125977 -7.034633636474609 -0.344974160194397
12.142143249511719 -7.018044948577881 -0.34539705514907837
12.141160011291504 -6.983402252197266 -0.34495121240615845
12.157432556152344 -6.958741664886475 -0.3449971079826355
12.167375564575195 -6.930951118469238 -0.3448692858219147
12.181509017944336 -6.904576301574707 -0.34485045075416565
12.197144508361816 -6.880034923553467 -0.34489166736602783
12.219917297363281 -6.858994007110596 -0.3451206088066101
12.235858917236328 -6.834107398986816 -0.34474438428878784
12.245990753173828 -6.806465148925781 -0.3446270227432251
12.264646530151367 -6.783061504364014 -0.3447532653808594
12.278236389160156 -6.756862163543701 -0.3447335958480835
12.272772789001465 -6.720711708068848 -0.34418877959251404
12.303041458129883 -6.703163146972656 -0.3446339964866638
12.312768936157227 -6.675364017486572 -0.34451907873153687
12.334339141845703 -6.653481960296631 -0.3442955017089844
12.332927703857422 -6.619240760803223 -0.34386542439460754
12.353022575378418 -6.597043037414551 -0.34362393617630005
12.353618621826172 -6.563959121704102 -0.34325429797172546
12.386168479919434 -6.547853946685791 -0.34377431869506836
12.383106231689453 -6.513391971588135 -0.34331372380256653
12.416420936584473 -6.464303970336914 -0.34304702281951904
12.435811996459961 -6.441144943237305 -0.3432044982910156
12.46337890625 -6.389486312866211 -0.342803418636322
12.482378005981445 -6.299961090087891 -0.34179064631462097
12.48707389831543 -6.204143524169922 -0.34041285514831543
12.534378051757812 -6.064422130584717 -0.3390910029411316
12.543088912963867 -6.03608512878418 -0.3389841318130493
12.5704345703125 -5.984637260437012 -0.3386233448982239
12.568380355834961 -5.95123815536499 -0.3382315933704376
12.580748558044434 -5.860557556152344 -0.33672189712524414
12.579023361206055 -5.795408248901367 -0.3360181450843811
12.533759117126465 -5.743051052093506 -0.33407461643218994
12.600043296813965 -5.740888595581055 -0.33508679270744324
12.612153053283691 -5.714829444885254 -0.33509278297424316
12.623300552368164 -5.655925750732422 -0.3343210220336914
12.64084243774414 -5.632315635681152 -0.33406317234039307
12.651447296142578 -5.605132102966309 -0.33403053879737854
12.67062759399414 -5.581750869750977 -0.33422768115997314
12.57028579711914 -5.506424903869629 -0.3300495743751526
12.69270133972168 -5.527765274047852 -0.33293330669403076
12.703750610351562 -5.501242637634277 -0.3329249620437622
12.701129913330078 -5.468835353851318 -0.33171284198760986
12.653627395629883 -5.4163713455200195 -0.33015525341033936
12.669075012207031 -5.391903877258301 -0.33026444911956787
12.732124328613281 -5.387086868286133 -0.33121174573898315
12.743480682373047 -5.360291481018066 -0.33078300952911377
12.761639595031738 -5.273755073547363 -0.32954511046409607
12.757801055908203 -5.241199493408203 -0.3291614353656769
12.779666900634766 -5.187386989593506 -0.32831674814224243
12.829023361206055 -5.1137189865112305 -0.32791227102279663
12.866397857666016 -5.034648895263672 -0.3276163935661316
12.941083908081055 -4.815014839172363 -0.32321590185165405
12.952792167663574 -4.788353443145752 -0.32325586676597595
12.97632884979248 -4.735033988952637 -0.3225000202655792
12.980400085449219 -4.706018924713135 -0.32235807180404663
