VERSION .7
FIELDS x y z
SIZE 4 4 4
TYPE F F F
COUNT 1 1 1
WIDTH 848
HEIGHT 1
VIEWPOINT 0 0 0 1 0 0 0
POINTS 848
DATA ascii
14.406272888183594 9.215519905090332 0.648212730884552
14.329371452331543 9.208640098571777 0.6448748111724854
14.248941421508789 9.199668884277344 0.6410941481590271
14.184849739074707 9.200052261352539 0.6387726664543152
14.102155685424805 9.189275741577148 0.6351967453956604
14.02394962310791 9.179829597473145 0.6315063834190369
13.872283935546875 9.164239883422852 0.6253929138183594
13.803983688354492 9.160322189331055 0.6221568584442139
13.72714614868164 9.151630401611328 0.6192850470542908
13.66468620300293 9.151006698608398 0.6166049242019653
13.592450141906738 9.143545150756836 0.6131990551948547
13.502371788024902 9.124908447265625 0.6097283363342285
13.44389820098877 9.12608814239502 0.6083661913871765
13.295949935913086 9.10768985748291 0.6024188995361328
13.232705116271973 9.104769706726074 0.5994250774383545
13.161059379577637 9.09696102142334 0.5967791676521301
13.087258338928223 9.086139678955078 0.5935909152030945
13.028165817260742 9.085241317749023 0.5907933712005615
12.9498291015625 9.07179069519043 0.5878430008888245
12.901638984680176 9.078001976013184 0.5858205556869507
12.814668655395508 9.056624412536621 0.5817644000053406
12.761785507202148 9.060190200805664 0.57996666431427
12.688512802124023 9.047832489013672 0.5765366554260254
12.630302429199219 9.046252250671387 0.574072003364563
12.556995391845703 9.034063339233398 0.5706638693809509
12.49518871307373 9.029006958007812 0.5684366822242737
12.431991577148438 9.023828506469727 0.5657653212547302
12.377458572387695 9.023523330688477 0.5631978511810303
12.302838325500488 9.008611679077148 0.5603936314582825
12.224987030029297 8.99145793914795 0.5567878484725952
12.186315536499023 9.002044677734375 0.5552135109901428
12.129653930664062 9.0003023147583 0.5525829792022705
12.047121047973633 8.977886199951172 0.5494083166122437
12.007468223571777 8.987152099609375 0.5475329160690308
11.932544708251953 8.970911026000977 0.5443368554115295
11.871801376342773 8.963865280151367 0.5420224666595459
11.809242248535156 8.955490112304688 0.5387283563613892
11.753620147705078 8.952598571777344 0.5367974042892456
11.69384479522705 8.945475578308105 0.5340145230293274
11.633601188659668 8.938043594360352 0.5312188863754272
11.574284553527832 8.931533813476562 0.5287332534790039
11.533161163330078 8.938047409057617 0.5274454951286316
11.462976455688477 8.922913551330566 0.5242193341255188
11.416411399841309 8.924776077270508 0.522047758102417
11.350503921508789 8.911581993103027 0.5192558765411377
11.29885482788086 8.909793853759766 0.5175058841705322
11.235297203063965 8.897550582885742 0.5145640969276428
11.18631362915039 8.89691162109375 0.512297511100769
11.134532928466797 8.894309997558594 0.5101668238639832
11.075841903686523 8.885139465332031 0.5080727934837341
11.01840877532959 8.877817153930664 0.5054418444633484
10.971429824829102 8.877578735351562 0.5032682418823242
10.863212585449219 8.865976333618164 0.4985427260398865
10.805668830871582 8.856435775756836 0.49650177359580994
10.694252014160156 8.84067153930664 0.49139314889907837
10.647551536560059 8.839324951171875 0.4892423450946808
10.582664489746094 8.823712348937988 0.4871267080307007
10.554055213928223 8.837051391601562 0.48581069707870483
10.436912536621094 8.814001083374023 0.47985661029815674
10.378912925720215 8.801982879638672 0.47743505239486694
10.28165054321289 8.794209480285645 0.47359639406204224
10.23964786529541 8.795144081115723 0.471675306558609
10.1350679397583 8.77975845336914 0.4671507179737091
10.081871032714844 8.770364761352539 0.46472007036209106
10.037677764892578 8.769659996032715 0.46331411600112915
9.992592811584473 8.766902923583984 0.46125972270965576
9.9453763961792 8.762375831604004 0.4591153860092163
9.890806198120117 8.751590728759766 0.4568757116794586
9.853496551513672 8.755102157592773 0.4551829397678375
9.802438735961914 8.74651050567627 0.4534406065940857
9.7424898147583 8.730168342590332 0.45072174072265625
9.697097778320312 8.725842475891113 0.4486641585826874
9.655135154724121 8.724714279174805 0.4467703700065613
9.61182975769043 8.722650527954102 0.44505196809768677
9.571990013122559 8.723091125488281 0.4432598352432251
9.516221046447754 8.709249496459961 0.44130563735961914
9.484733581542969 8.716669082641602 0.4398972690105438
9.435958862304688 8.708335876464844 0.4376947283744812
9.39919662475586 8.711359977722168 0.4356141984462738
9.338983535766602 8.691650390625 0.43176695704460144
9.298970222473145 8.691556930541992 0.4299916923046112
9.242727279663086 8.674994468688965 0.42822492122650146
9.214011192321777 8.684076309204102 0.4269537329673767
9.165107727050781 8.675029754638672 0.4247775077819824
9.12699031829834 8.674931526184082 0.4230716824531555
9.068831443786621 8.655845642089844 0.42045101523399353
9.032930374145508 8.658228874206543 0.4188694655895233
8.995607376098633 8.658344268798828 0.4179708957672119
8.948766708374023 8.649406433105469 0.41587400436401367
8.910310745239258 8.648829460144043 0.4141782820224762
8.86330509185791 8.638997077941895 0.41206780076026917
8.825658798217773 8.63914680480957 0.41042059659957886
8.785346984863281 8.635459899902344 0.40862637758255005
8.732165336608887 8.61888599395752 0.40623462200164795
8.699185371398926 8.623100280761719 0.4053419828414917
8.651313781738281 8.61131477355957 0.40341097116470337
8.608321189880371 8.604455947875977 0.4015027582645416
8.575387954711914 8.607938766479492 0.40007156133651733
8.534444808959961 8.602471351623535 0.39825478196144104
8.485637664794922 8.589146614074707 0.3960762619972229
8.446096420288086 8.585433006286621 0.3943428695201874
8.40304946899414 8.577207565307617 0.39295440912246704
8.370702743530273 8.580782890319824 0.3909412920475006
8.328259468078613 8.572793006896973 0.3880131244659424
8.251319885253906 8.56547737121582 0.38465219736099243
8.211694717407227 8.559822082519531 0.3834274411201477
8.13001823425293 8.546442985534668 0.3798510432243347
8.10220718383789 8.552678108215332 0.37886127829551697
8.055084228515625 8.539398193359375 0.37679415941238403
8.016132354736328 8.533514022827148 0.37508365511894226
7.9918718338012695 8.543146133422852 0.37406125664711
7.94551944732666 8.530048370361328 0.3720323145389557
7.911098480224609 8.528512954711914 0.3710465431213379
7.865133285522461 8.51432991027832 0.36901146173477173
7.839841842651367 8.523408889770508 0.36797162890434265
7.799067497253418 8.514473915100098 0.36617815494537354
7.718985080718994 8.498628616333008 0.3628927171230316
7.697476387023926 8.51036548614502 0.36200934648513794
7.652453899383545 8.496257781982422 0.36003050208091736
7.608332633972168 8.483349800109863 0.35810351371765137
7.574934959411621 8.48145580291748 0.3571624457836151
7.554765701293945 8.495332717895508 0.35637006163597107
7.505379676818848 8.475150108337402 0.35417765378952026
7.479563236236572 8.481393814086914 0.35231438279151917
7.4400434494018555 8.472997665405273 0.3501221537590027
7.40242862701416 8.465529441833496 0.348491370677948
7.368029594421387 8.46156120300293 0.3470119833946228
7.332888603210449 8.457618713378906 0.3455241620540619
7.3083906173706055 8.464791297912598 0.34451308846473694
7.268077373504639 8.453797340393066 0.34276536107063293
7.222338676452637 8.436691284179688 0.34077176451683044
7.198446273803711 8.444189071655273 0.33998483419418335
7.155109405517578 8.429763793945312 0.338112473487854
7.130590915679932 8.436300277709961 0.33758848905563354
7.091858863830566 8.425880432128906 0.33590924739837646
7.075361251831055 8.442822456359863 0.33530786633491516
7.021627426147461 8.41411018371582 0.3329191207885742
7.006931781768799 8.432306289672852 0.33238813281059265
6.9597697257995605 8.411746978759766 0.33032873272895813
6.935180187225342 8.41753101348877 0.32932358980178833
6.894440650939941 8.404603958129883 0.32757726311683655
6.869070053100586 8.409204483032227 0.3265358507633209
6.831185340881348 8.398337364196777 0.32490211725234985
6.801629066467285 8.398587226867676 0.3236888647079468
6.769639015197754 8.394644737243652 0.3223361074924469
6.742825984954834 8.396995544433594 0.32141751050949097
6.699600696563721 8.379772186279297 0.31955450773239136
6.678008079528809 8.388397216796875 0.3184235990047455
6.639171600341797 8.375222206115723 0.3167467713356018
6.6118059158325195 8.377399444580078 0.31564199924468994
6.574810028076172 8.366167068481445 0.31405436992645264
6.5517578125 8.372538566589355 0.3131331503391266
6.513607501983643 8.360523223876953 0.3115149140357971
6.490468978881836 8.366579055786133 0.3105916976928711
6.448773384094238 8.34959888458252 0.308804452419281
6.424544811248779 8.354007720947266 0.3080126643180847
6.382820129394531 8.335490226745605 0.30619925260543823
6.363639831542969 8.34732437133789 0.30549293756484985
6.32432222366333 8.33155345916748 0.303795725107193
6.305123805999756 8.34215259552002 0.3030659854412079
6.271355628967285 8.334428787231445 0.30211693048477173
6.248147964477539 8.339550018310547 0.30119553208351135
6.208165645599365 8.32211971282959 0.29946547746658325
6.178214073181152 8.318988800048828 0.2982436418533325
6.1590189933776855 8.329198837280273 0.2975192666053772
6.126593589782715 8.321414947509766 0.29615461826324463
6.093565464019775 8.313694953918457 0.2947866916656494
6.065608978271484 8.31167221069336 0.29363876581192017
6.037771224975586 8.310752868652344 0.29252344369888306
6.010797023773193 8.309833526611328 0.29142406582832336
5.971861839294434 8.29218864440918 0.28974559903144836
5.950325965881348 8.299614906311035 0.2881360650062561
5.909974098205566 8.279561996459961 0.28683584928512573
5.891659736633301 8.290233612060547 0.28616267442703247
5.856006622314453 8.27745532989502 0.2846681475639343
5.839848518371582 8.291054725646973 0.28409886360168457
5.773108005523682 8.270062446594238 0.2813117206096649
5.750088691711426 8.273614883422852 0.2804112732410431
5.730457305908203 8.283069610595703 0.27987605333328247
5.696569442749023 8.270716667175293 0.2782699763774872
5.668685436248779 8.2669038772583 0.2773067057132721
5.64166784286499 8.265303611755371 0.2762375473976135
5.616190433502197 8.26476001739502 0.2752190828323364
5.58837366104126 8.260648727416992 0.2740863859653473
5.560080528259277 8.256776809692383 0.27295544743537903
5.534346580505371 8.255487442016602 0.27192622423171997
5.50349235534668 8.246410369873047 0.2706437110900879
5.473483085632324 8.239511489868164 0.26942914724349976
5.4541850090026855 8.247544288635254 0.26871711015701294
5.41674280166626 8.228769302368164 0.2671287953853607
5.395967483520508 8.234676361083984 0.266352117061615
5.363529205322266 8.222342491149902 0.26499253511428833
5.345571517944336 8.233195304870605 0.26437443494796753
5.316875457763672 8.226325035095215 0.26320040225982666
5.286360263824463 8.216463088989258 0.2621939778327942
5.257273197174072 8.20974349975586 0.2610258162021637
5.244604110717773 8.22750473022461 0.26081836223602295
5.20700740814209 8.206046104431152 0.2592000961303711
5.180429458618164 8.202841758728027 0.25798898935317993
5.161914825439453 8.211217880249023 0.25732335448265076
5.12788724899292 8.194782257080078 0.2558823227882385
5.108230113983154 8.202282905578613 0.2551855444908142
5.081043720245361 8.196486473083496 0.2542538046836853
5.057355880737305 8.197010040283203 0.2531835734844208
5.032414436340332 8.194907188415527 0.2517828047275543
5.002970218658447 8.185001373291016 0.250573992729187
4.979982376098633 8.186643600463867 0.24971139430999756
4.947408676147461 8.171236038208008 0.24834448099136353
4.929901123046875 8.18058967590332 0.24773439764976501
4.899404048919678 8.169410705566406 0.24649736285209656
4.886027812957764 8.185568809509277 0.2460956871509552
4.851719856262207 8.166553497314453 0.2446409910917282
4.826740741729736 8.164175033569336 0.24368074536323547
4.800718307495117 8.158760070800781 0.24264276027679443
4.782285690307617 8.166977882385254 0.24200740456581116
4.746539115905762 8.14496898651123 0.2404841184616089
4.730576992034912 8.156440734863281 0.23995648324489594
4.707739353179932 8.15716552734375 0.239106684923172
4.68100118637085 8.14985466003418 0.23860682547092438
4.659641265869141 8.151788711547852 0.23780730366706848
4.638731956481934 8.155597686767578 0.23705531656742096
4.607325077056885 8.139636993408203 0.23574255406856537
4.580093860626221 8.130842208862305 0.23464204370975494
4.5603742599487305 8.136434555053711 0.23395147919654846
4.539691925048828 8.139089584350586 0.23318609595298767
4.5128068923950195 8.130502700805664 0.23210544884204865
4.488621234893799 8.127799987792969 0.23118507862091064
4.461174964904785 8.117862701416016 0.2300729751586914
4.416690349578857 8.117725372314453 0.22841164469718933
4.39857292175293 8.124544143676758 0.22778242826461792
4.362813472747803 8.099771499633789 0.22586235404014587
4.337179660797119 8.114094734191895 0.22515249252319336
5.978967189788818 -10.442755699157715 0.28071266412734985
6.008306980133057 -10.443678855895996 0.28180670738220215
6.069022178649902 -10.44717788696289 0.28480103611946106
6.093966484069824 -10.440177917480469 0.28569257259368896
6.13117790222168 -10.452576637268066 0.28712934255599976
6.154848098754883 -10.443209648132324 0.28796255588531494
6.181668281555176 -10.439129829406738 0.2891562581062317
6.21028470993042 -10.436538696289062 0.29072389006614685
6.246313095092773 -10.447689056396484 0.2921370565891266
6.266400337219238 -10.432074546813965 0.29280614852905273
6.328338146209717 -10.435371398925781 0.295346200466156
6.410966396331787 -10.423263549804688 0.2991299331188202
6.494877338409424 -10.412430763244629 0.30127835273742676
6.584719657897949 -10.410146713256836 0.3037979006767273
7.434046745300293 -10.352354049682617 0.33869364857673645
7.526242256164551 -10.342880249023438 0.3424908518791199
7.613526344299316 -10.325754165649414 0.3464127779006958
7.703205108642578 -10.311038970947266 0.35068219900131226
7.809538841247559 -10.31745433807373 0.35515913367271423
7.906026840209961 -10.309598922729492 0.3595430254936218
7.9415998458862305 -10.311601638793945 0.3609817922115326
7.96481466293335 -10.296168327331543 0.3609229028224945
8.005892753601074 -10.305013656616211 0.362046480178833
8.031490325927734 -10.293798446655273 0.3630324900150299
8.073073387145996 -10.301643371582031 0.36471712589263916
8.107854843139648 -10.301920890808105 0.366122841835022
8.13189697265625 -10.28846549987793 0.3678443431854248
8.165538787841797 -10.285786628723145 0.3691747188568115
8.202964782714844 -10.289009094238281 0.3707030713558197
8.239816665649414 -10.29134750366211 0.37221142649650574
8.302604675292969 -10.280725479125977 0.37527886033058167
8.338724136352539 -10.281726837158203 0.3769844174385071
8.406384468078613 -10.276387214660645 0.3797077536582947
8.502293586730957 -10.261319160461426 0.38414230942726135
8.611934661865234 -10.261645317077637 0.3894471824169159
9.844904899597168 -10.161771774291992 0.4400791823863983
9.92651081085205 -10.160386085510254 0.4438015818595886
9.952264785766602 -10.144193649291992 0.4448690712451935
10.0296630859375 -10.137680053710938 0.4487888813018799
10.075698852539062 -10.141678810119629 0.45077577233314514
10.14810562133789 -10.128884315490723 0.45385614037513733
10.19672966003418 -10.135261535644531 0.4562155306339264
10.274825096130371 -10.12722396850586 0.4601938724517822
10.303386688232422 -10.113306999206543 0.4614103138446808
10.34650993347168 -10.11356258392334 0.4632859230041504
10.386714935302734 -10.109563827514648 0.4650023579597473
10.423236846923828 -10.10307502746582 0.4665859341621399
10.464902877807617 -10.100542068481445 0.4683776795864105
10.503219604492188 -10.095157623291016 0.4709305763244629
10.557565689086914 -10.105327606201172 0.47331878542900085
10.580635070800781 -10.084535598754883 0.47428590059280396
10.673601150512695 -10.088583946228027 0.47514569759368896
10.800657272338867 -10.07999038696289 0.48065826296806335
10.913933753967285 -10.05808162689209 0.4865037798881531
11.048381805419922 -10.054277420043945 0.4924090504646301
11.97097110748291 -9.966063499450684 0.5312432050704956
12.119089126586914 -9.961050033569336 0.5381741523742676
12.159809112548828 -9.952309608459473 0.5400247573852539
12.255860328674316 -9.945030212402344 0.5443545579910278
12.306962966918945 -9.94386100769043 0.5466656684875488
12.352145195007324 -9.937179565429688 0.548704981803894
12.396245956420898 -9.930354118347168 0.5514135956764221
12.538008689880371 -9.9151611328125 0.557865560054779
12.59378433227539 -9.916507720947266 0.5604026913642883
12.630582809448242 -9.90219783782959 0.5620858073234558
12.678060531616211 -9.897008895874023 0.5642663240432739
12.734244346618652 -9.898053169250488 0.5668294429779053
12.789432525634766 -9.89754867553711 0.563676118850708
12.828814506530762 -9.885173797607422 0.5654923915863037
12.879861831665039 -9.881083488464355 0.5685182213783264
12.934288024902344 -9.880268096923828 0.5710077881813049
12.994645118713379 -9.883382797241211 0.5737570524215698
13.034202575683594 -9.869945526123047 0.5755780935287476
13.079792022705078 -9.861825942993164 0.5776909589767456
13.134087562561035 -9.858827590942383 0.5801589488983154
13.182882308959961 -9.852747917175293 0.5824158191680908
13.297470092773438 -9.8513822555542 0.5876626968383789
13.442646026611328 -9.82864761352539 0.5943890810012817
13.498117446899414 -9.826285362243652 0.5969576835632324
13.663082122802734 -9.815558433532715 0.6045968532562256
14.421348571777344 -9.730209350585938 0.6323420405387878
14.487669944763184 -9.731267929077148 0.635428249835968
14.654165267944336 -9.709973335266113 0.6432634592056274
14.719985961914062 -9.70839786529541 0.6463167667388916
14.76940631866455 -9.697071075439453 0.648681640625
14.838360786437988 -9.698339462280273 0.6519082188606262
14.885237693786621 -9.6836576461792 0.6541405916213989
14.952836990356445 -9.683531761169434 0.6573153138160706
15.00577163696289 -9.67367172241211 0.6598518490791321
15.074657440185547 -9.67255687713623 0.6630650758743286
15.118083000183105 -9.65618896484375 0.6651875972747803
15.180950164794922 -9.652047157287598 0.6681723594665527
15.244951248168945 -9.647068977355957 0.6711853742599487
15.308710098266602 -9.642984390258789 0.6742143034934998
15.360580444335938 -9.629884719848633 0.6748124957084656
15.422927856445312 -9.624446868896484 0.6714192628860474
15.488862991333008 -9.620988845825195 0.6745308637619019
15.567720413208008 -9.623945236206055 0.6781864762306213
15.615594863891602 -9.608810424804688 0.6805213093757629
15.74379825592041 -9.596524238586426 0.6865942478179932
15.814780235290527 -9.59483528137207 0.6891436576843262
15.8674898147583 -9.580501556396484 0.6916757822036743
15.93889045715332 -9.578533172607422 0.6947395205497742
16.000221252441406 -9.570250511169434 0.6976878643035889
16.334352493286133 -9.53872299194336 0.7136278748512268
16.536428451538086 -9.517827033996582 0.722490668296814
16.726661682128906 -9.486865997314453 0.7313595414161682
17.300676345825195 -9.431827545166016 0.7499375939369202
17.357799530029297 -9.416296005249023 0.7527775764465332
17.51322364807129 -9.405365943908691 0.7590028643608093
17.586444854736328 -9.397720336914062 0.7625524401664734
17.65478515625 -9.385809898376465 0.7658665776252747
17.742616653442383 -9.385331153869629 0.770055890083313
17.80330467224121 -9.370201110839844 0.773077666759491
17.949909210205078 -9.35103988647461 0.7789641618728638
18.039810180664062 -9.35032844543457 0.7832608222961426
18.11565399169922 -9.340599060058594 0.7869305610656738
18.187774658203125 -9.330057144165039 0.7904722690582275
18.352577209472656 -9.317179679870605 0.7975350618362427
18.42345428466797 -9.305126190185547 0.8006742000579834
18.510316848754883 -9.299423217773438 0.8048478364944458
18.569236755371094 -9.280813217163086 0.8078469038009644
18.731353759765625 -9.263453483581543 0.8112075328826904
18.822105407714844 -9.259771347045898 0.8106299638748169
18.89557647705078 -9.245834350585938 0.813306987285614
18.98911476135254 -9.242812156677246 0.8177956342697144
19.064254760742188 -9.229471206665039 0.8214827179908752
19.139036178588867 -9.216289520263672 0.8248023986816406
19.394712448120117 -9.18966007232666 0.8363112807273865
19.472042083740234 -9.176868438720703 0.8401413559913635
19.72964859008789 -9.147139549255371 0.8514143228530884
20.003395080566406 -9.120656967163086 0.8634059429168701
20.732959747314453 -9.036116600036621 0.8965190649032593
20.921302795410156 -9.0135498046875 0.8970662951469421
21.00863265991211 -8.999099731445312 0.9003984928131104
21.202285766601562 -8.976566314697266 0.90948486328125
21.29231071472168 -8.96261978149414 0.9129476547241211
21.388004302978516 -8.95069694519043 0.9176695346832275
21.488601684570312 -8.938899993896484 0.9221841096878052
21.592844009399414 -8.929746627807617 0.9272875785827637
21.68976593017578 -8.916056632995605 0.9310448169708252
21.7685546875 -8.895242691040039 0.934654951095581
21.874977111816406 -8.885798454284668 0.9398748874664307
21.963529586791992 -8.867155075073242 0.9432750940322876
22.18255615234375 -8.848687171936035 0.9536005258560181
22.297325134277344 -8.839303970336914 0.9581373333930969
22.382610321044922 -8.81941032409668 0.9624835848808289
22.493873596191406 -8.808235168457031 0.967521071434021
22.579065322875977 -8.78714656829834 0.9708141088485718
22.69742202758789 -8.77901554107666 0.9766048789024353
22.794464111328125 -8.760618209838867 0.9810413122177124
22.90333366394043 -8.747953414916992 0.9853693246841431
22.995210647583008 -8.727259635925293 0.9900285601615906
23.113601684570312 -8.716901779174805 0.995418906211853
23.218385696411133 -8.701427459716797 0.9920209050178528
23.44101333618164 -8.67245101928711 1.0014907121658325
24.790294647216797 -8.46810531616211 1.0608989000320435
25.144033432006836 -8.412312507629395 1.0769881010055542
25.392427444458008 -8.37716293334961 1.0877480506896973
25.508710861206055 -8.356379508972168 1.0931516885757446
25.749950408935547 -8.315489768981934 1.1041035652160645
25.87592124938965 -8.29691219329834 1.1099534034729004
26.123109817504883 -8.25500774383545 1.1161960363388062
26.256977081298828 -8.237420082092285 1.1211862564086914
26.379310607910156 -8.21394157409668 1.1273443698883057
26.518884658813477 -8.197073936462402 1.1325838565826416
26.654197692871094 -8.178339958190918 1.1393418312072754
26.776641845703125 -8.153364181518555 1.1438257694244385
26.935867309570312 -8.140806198120117 1.1516252756118774
27.059856414794922 -8.115745544433594 1.1561899185180664
27.190980911254883 -8.093095779418945 1.16279935836792
27.328567504882812 -8.072348594665527 1.1679644584655762
27.483169555664062 -8.054222106933594 1.17558753490448
27.614341735839844 -8.030474662780762 1.1804815530776978
27.76465606689453 -8.010419845581055 1.18794584274292
27.889249801635742 -7.983189105987549 1.1925606727600098
28.04656982421875 -7.965287685394287 1.2003626823425293
28.337894439697266 -7.919208526611328 1.2131900787353516
28.485057830810547 -7.896641731262207 1.2187875509262085
28.77629852294922 -7.847029685974121 1.231645941734314
28.93925666809082 -7.825626373291016 1.2397416830062866
29.234851837158203 -7.7749528884887695 1.2528564929962158
29.70229721069336 -7.699666500091553 1.2697272300720215
30.194435119628906 -7.623588562011719 1.2919410467147827
30.509613037109375 -7.5666303634643555 1.3059719800949097
30.67659568786621 -7.539938449859619 1.3124431371688843
31.01638412475586 -7.485651016235352 1.3275752067565918
31.195743560791016 -7.459892749786377 1.3351342678070068
21.787418365478516 -5.016840934753418 0.932955265045166
21.794898986816406 -4.9705586433410645 0.9332078695297241
21.768178939819336 -4.916967391967773 0.9326353073120117
21.805553436279297 -4.8764753341674805 0.9337871074676514
21.914804458618164 -4.853177070617676 0.9393984079360962
22.02413558959961 -4.829465389251709 0.943660318851471
25.352785110473633 -5.335822582244873 1.0861968994140625
33.91666030883789 -6.989365577697754 1.4556670188903809
34.11993408203125 -6.957475185394287 1.464377999305725
34.308074951171875 -6.9201531410217285 1.471818208694458
34.50312042236328 -6.884390354156494 1.481105089187622
34.71668243408203 -6.852120399475098 1.490275263786316
34.913841247558594 -6.813577651977539 1.498108148574829
35.10457992553711 -6.775208473205566 1.5078703165054321
35.31141662597656 -6.737550735473633 1.5161348581314087
35.720279693603516 -6.661393642425537 1.5347124338150024
35.93156814575195 -6.622044563293457 1.543182134628296
36.36114501953125 -6.544643402099609 1.5627033710479736
37.003517150878906 -6.418702125549316 1.590177297592163
37.46356201171875 -6.3360981941223145 1.6094443798065186
37.6680908203125 -6.290313243865967 1.6193374395370483
38.13597869873047 -6.203477382659912 1.638988733291626
38.808937072753906 -6.0627641677856445 1.671370029449463
39.27702331542969 -5.966550350189209 1.692859411239624
39.510066986083984 -5.917394638061523 1.7023674249649048
39.77200698852539 -5.872265338897705 1.7131247520446777
39.985443115234375 -5.817233562469482 1.7242567539215088
40.24017333984375 -5.768332004547119 1.734710931777954
40.483673095703125 -5.717525482177734 1.7446949481964111
40.72058868408203 -5.663007736206055 1.7543822526931763
40.95928955078125 -5.608861923217773 1.7666854858398438
41.242340087890625 -5.558621883392334 1.7783842086791992
41.477787017822266 -5.502009391784668 1.7880345582962036
41.73912811279297 -5.446705341339111 1.798797369003296
42.02226257324219 -5.394986152648926 1.8131098747253418
42.298763275146484 -5.340539455413818 1.8245543241500854
42.54719543457031 -5.28033971786499 1.8347816467285156
42.827056884765625 -5.224098205566406 1.8463788032531738
43.0671501159668 -5.162705421447754 1.8589116334915161
43.35980224609375 -5.104615211486816 1.8710744380950928
43.63733673095703 -5.044733047485352 1.8825876712799072
43.914363861083984 -4.982488632202148 1.894081473350525
44.20576477050781 -4.921880722045898 1.906200647354126
44.488948822021484 -4.859964370727539 1.9207117557525635
44.77011489868164 -4.794705390930176 1.9398515224456787
45.0950813293457 -4.734084606170654 1.9534995555877686
45.372718811035156 -4.668056964874268 1.9671008586883545
45.642982482910156 -4.598145484924316 1.9783896207809448
45.969200134277344 -4.533862590789795 1.9929163455963135
46.25522232055664 -4.463128566741943 2.0049004554748535
46.86214828491211 -4.322576522827148 2.0324625968933105
47.203155517578125 -4.255259990692139 2.046863079071045
47.816341400146484 -4.107602596282959 2.073516845703125
48.14461135864258 -4.035173416137695 2.0873851776123047
48.51155090332031 -3.8602609634399414 2.102560520172119
48.6805534362793 -3.6674647331237793 2.1113054752349854
48.80889129638672 -3.5744190216064453 2.116532564163208
48.93030548095703 -3.377070188522339 2.122023105621338
48.977317810058594 -3.2773337364196777 2.1237592697143555
48.933773040771484 -3.1703057289123535 2.121574878692627
48.96037292480469 -3.070013999938965 2.122448205947876
48.96265411376953 -2.967290163040161 2.124398946762085
48.98855972290039 -2.8647122383117676 2.1322436332702637
49.00404739379883 -2.7627151012420654 2.1335387229919434
49.027462005615234 -2.6598551273345947 2.1343042850494385
49.008934020996094 -2.556859016418457 2.1332623958587646
49.017784118652344 -2.4544591903686523 2.1334235668182373
49.063446044921875 -2.35255765914917 2.1351845264434814
49.06945037841797 -2.250792980194092 2.1352412700653076
49.08528137207031 -2.148578643798828 2.135727882385254
49.02645492553711 -2.0419535636901855 2.132981061935425
49.049034118652344 -1.9400653839111328 2.133784770965576
49.07072830200195 -1.8368165493011475 2.1345529556274414
49.12181091308594 -1.7366561889648438 2.1366140842437744
49.123077392578125 -1.6337658166885376 2.13651442527771
49.07966995239258 -1.5282421112060547 2.1366074085235596
49.09771728515625 -1.4259510040283203 2.1372547149658203
49.12490463256836 -1.3225901126861572 2.138310432434082
49.123348236083984 -1.2205392122268677 2.1381325721740723
49.12284851074219 -1.1176552772521973 2.138004779815674
49.172462463378906 -1.0145660638809204 2.1400632858276367
49.20390319824219 -0.807924747467041 2.141263961791992
49.23072052001953 -0.7061775326728821 2.142357587814331
49.25911331176758 -0.4991023540496826 2.1443614959716797
49.275360107421875 -0.3970024585723877 2.15028715133667
49.302459716796875 -0.29189419746398926 2.149294137954712
49.223289489746094 -0.18927505612373352 2.1458396911621094
14.249710083007812 0.48339197039604187 -0.21392682194709778
14.256089210510254 0.5733541250228882 -0.21269817650318146
14.276630401611328 0.634412944316864 -0.21191757917404175
14.28982925415039 0.6647149324417114 -0.21126076579093933
14.289897918701172 0.7250416874885559 -0.209555983543396
14.317293167114258 0.7562223076820374 -0.20936031639575958
14.320152282714844 0.8168641328811646 -0.20831730961799622
14.357952117919922 0.9096108675003052 -0.20631073415279388
14.65260124206543 1.9845043420791626 -0.18691879510879517
14.681329727172852 2.0824649333953857 -0.18540164828300476
14.701569557189941 2.1164674758911133 -0.1848057359457016
14.705479621887207 2.180284023284912 -0.1837976723909378
14.711978912353516 2.212458372116089 -0.1830279380083084
14.716960906982422 2.2453677654266357 -0.18224073946475983
14.762094497680664 2.283608913421631 -0.1819518804550171
14.729496955871582 2.3421263694763184 -0.18010811507701874
14.720434188842773 2.3720149993896484 -0.17914819717407227
14.714164733886719 2.466006278991699 -0.17717260122299194
14.709073066711426 2.5603222846984863 -0.1745680570602417
14.724773406982422 2.658534526824951 -0.17247289419174194
14.69711685180664 3.5236270427703857 -0.15235494077205658
14.702808380126953 3.557547092437744 -0.1515672653913498
14.706939697265625 3.6241774559020996 -0.14862371981143951
14.703268051147461 3.655653715133667 -0.1483917236328125
14.700277328491211 3.720716953277588 -0.1466740071773529
14.698091506958008 3.7526354789733887 -0.14579981565475464
14.713613510131836 3.82267427444458 -0.1442551612854004
14.711654663085938 3.8547720909118652 -0.1433812826871872
14.702409744262695 3.8856568336486816 -0.1424485445022583
14.701382637023926 3.9183197021484375 -0.14185556769371033
14.70526123046875 3.9520559310913086 -0.14104437828063965
14.704630851745605 3.98530912399292 -0.14018693566322327
14.709732055664062 4.019755840301514 -0.13938391208648682
14.702205657958984 4.050506591796875 -0.13912543654441833
14.700557708740234 4.116740703582764 -0.13741596043109894
14.714502334594727 4.15428352355957 -0.13668446242809296
14.706628799438477 4.21832275390625 -0.13491074740886688
14.680815696716309 4.310986518859863 -0.13211792707443237
14.709463119506836 4.420032501220703 -0.12835350632667542
14.680788040161133 5.058156490325928 -0.11364206671714783
14.658257484436035 5.153709411621094 -0.11087847501039505
14.662530899047852 5.2590155601501465 -0.10369859635829926
14.661886215209961 5.363344669342041 -0.10174965858459473
14.668729782104492 5.435704708099365 -0.10031747072935104
14.657326698303223 5.466394424438477 -0.09936267137527466
14.659026145935059 5.537166118621826 -0.0976206436753273
14.647575378417969 5.567896842956543 -0.09666523337364197
14.629751205444336 5.631453990936279 -0.09547115862369537
14.64527416229248 5.6726484298706055 -0.09468880295753479
14.64551830291748 5.707724094390869 -0.09381343424320221
14.643768310546875 5.743105888366699 -0.09291382879018784
14.625482559204102 5.770982265472412 -0.09192036092281342
14.636528015136719 5.811206817626953 -0.09137073159217834
14.613397598266602 5.837457656860352 -0.09034573286771774
14.6339111328125 5.880894660949707 -0.08958474546670914
14.620262145996094 5.911417007446289 -0.08861485123634338
14.600401878356934 5.938969135284424 -0.08829551935195923
14.585488319396973 5.968946933746338 -0.0873171016573906
14.605827331542969 6.012686729431152 -0.08514969795942307
14.588409423828125 6.0774922370910645 -0.08053791522979736
14.56938362121582 6.105077743530273 -0.07954086363315582
14.56643295288086 6.17608642578125 -0.0777239054441452
14.513627052307129 6.261627674102783 -0.07540760189294815
13.503478050231934 6.441273212432861 -0.052299853414297104
13.334110260009766 6.463693618774414 -0.049345217645168304
13.182300567626953 6.492763519287109 -0.046881332993507385
13.013790130615234 6.511743545532227 -0.04401814937591553
12.979267120361328 6.528464317321777 -0.043056875467300415
12.916001319885254 6.530971050262451 -0.04201054945588112
12.874075889587402 6.543353080749512 -0.04166627302765846
12.804727554321289 6.541858673095703 -0.0406089648604393
12.757973670959473 6.552097797393799 -0.03962714970111847
12.693668365478516 6.55239725112915 -0.03884710371494293
12.650585174560547 6.563721179962158 -0.03789036348462105
12.600139617919922 6.571469306945801 -0.03691260516643524
12.551983833312988 6.579801559448242 -0.03656512871384621
12.48423957824707 6.577351093292236 -0.035543493926525116
12.444999694824219 6.590403079986572 -0.03461240231990814
12.391151428222656 6.595125675201416 -0.03388882800936699
12.332351684570312 6.597400665283203 -0.03121306002140045
12.28420352935791 6.60446834564209 -0.0302742812782526
12.245551109313965 6.616755485534668 -0.029362544417381287
12.190489768981934 6.620412826538086 -0.028417881578207016
12.146052360534668 6.628956317901611 -0.027742184698581696
12.099007606506348 6.63686466217041 -0.0268259234726429
12.042387008666992 6.638352870941162 -0.02649172767996788
11.938876152038574 6.6470046043396 -0.024659238755702972
11.896641731262207 6.655867576599121 -0.024002747610211372
11.809000015258789 6.67228889465332 -0.02281820774078369
11.755196571350098 6.674108505249023 -0.021919090300798416
11.671797752380371 6.6919145584106445 -0.0201717596501112
11.621334075927734 6.695063591003418 -0.019520027562975883
11.477693557739258 6.708767890930176 -0.017499364912509918
10.886555671691895 6.8005805015563965 -0.007834522984921932
10.74842643737793 6.808605194091797 -0.005657126661390066
10.70405387878418 6.811664581298828 -0.005420734640210867
10.638351440429688 6.832969665527344 -0.0038585616275668144
10.595660209655762 6.836648941040039 -0.003297550603747368
10.515801429748535 6.848016738891602 -0.002297790488228202
10.471386909484863 6.850081920623779 -0.0015274580800905824
10.438802719116211 6.860652446746826 -0.0009793948847800493
10.397268295288086 6.864293098449707 -0.0007604247657582164
10.34560489654541 6.86105489730835 0.0
10.322246551513672 6.8773579597473145 0.0005416764761321247
10.271448135375977 6.874332427978516 0.0012940276646986604
10.24318790435791 6.886240005493164 0.002149745123460889
10.191987991333008 6.883477210998535 0.0018182843923568726
10.163562774658203 6.8950347900390625 0.002565546426922083
10.11578369140625 6.8935747146606445 0.0030911974608898163
10.088905334472656 6.906608581542969 0.003300280310213566
10.039505004882812 6.903430938720703 0.004031915683299303
10.011968612670898 6.916044235229492 0.004558996297419071
9.964566230773926 6.913888454437256 0.005284762009978294
9.9223051071167 6.915369033813477 0.005478722043335438
9.88214111328125 6.9185333251953125 0.006202069576829672
9.85041618347168 6.926826477050781 0.006716962903738022
9.814842224121094 6.933192729949951 0.006911132019013166
9.785564422607422 6.942996025085449 0.00763267558068037
9.733163833618164 6.936228275299072 0.0081248814240098
9.664129257202148 6.9485859870910645 0.00902502704411745
9.635544776916504 6.958410739898682 0.00973533932119608
9.54797649383545 6.956541061401367 0.010399404913187027
9.456722259521484 6.981483459472656 0.01177915744483471
9.352118492126465 6.995521068572998 0.013844221830368042
9.239925384521484 7.002618312835693 0.013131394982337952
9.134957313537598 7.014547824859619 0.014449847862124443
9.026723861694336 7.022336006164551 0.01574588008224964
8.935260772705078 7.041794300079346 0.017049714922904968
8.866713523864746 7.048509120941162 0.017861992120742798
8.833086013793945 7.051740646362305 0.018320508301258087
8.755742073059082 7.050573348999023 0.018903901800513268
8.734748840332031 7.0635986328125 0.01957750879228115
8.680325508117676 7.080257892608643 0.020206080749630928
8.624898910522461 7.06490421295166 0.020789749920368195
8.599827766418457 7.074869632720947 0.021447548642754555
8.5548677444458 7.067950248718262 0.021371964365243912
8.543463706970215 7.088412284851074 0.021479161456227303
8.498435974121094 7.081758499145508 0.020627062767744064
8.476174354553223 7.093063831329346 0.021094108000397682
8.429220199584961 7.083565711975098 0.02168501913547516
8.40742301940918 7.095946311950684 0.02166851796209812
8.37460994720459 7.098062515258789 0.022292081266641617
8.342510223388672 7.1006574630737305 0.02243421971797943
8.30313491821289 7.097786903381348 0.02284904755651951
8.286224365234375 7.113144874572754 0.02350734919309616
8.241525650024414 7.105161666870117 0.023422932252287865
8.217918395996094 7.114839553833008 0.024061180651187897
8.174898147583008 7.107327461242676 0.024639151990413666
8.157859802246094 7.123171806335449 0.024633437395095825
8.118566513061523 7.118609428405762 0.025220034644007683
8.085174560546875 7.119689464569092 0.025162696838378906
8.06402587890625 7.131080627441406 0.025797732174396515
8.025646209716797 7.126873970031738 0.02637995034456253
8.00395679473877 7.138004302978516 0.026355575770139694
7.965510368347168 7.133697032928467 0.026932746171951294
7.933792591094971 7.135016441345215 0.026874730363488197
7.87548828125 7.142802715301514 0.028078313916921616
7.846397399902344 7.146151065826416 0.028026897460222244
7.788730621337891 7.153871536254883 0.027658861130475998
7.749908447265625 7.148548126220703 0.027297303080558777
7.687326908111572 7.150350570678711 0.027821596711874008
7.669480323791504 7.164120674133301 0.02845143713057041
7.5158538818359375 7.169834136962891 0.029882077127695084
7.44300651550293 7.1902546882629395 0.03058139607310295
7.349588394165039 7.189879417419434 0.03163880109786987
7.29493522644043 7.196785926818848 0.03215812146663666
7.267559051513672 7.199848175048828 0.03255261108279228
7.203826904296875 7.196826934814453 0.03302229940891266
7.179217338562012 7.202320098876953 0.03315551578998566
7.124238014221191 7.207619667053223 0.03365962207317352
7.103494644165039 7.216525077819824 0.03381788358092308
7.066656589508057 7.209595203399658 0.03371475636959076
7.036619186401367 7.209064483642578 0.03425842896103859
7.019586563110352 7.221534252166748 0.034248463809490204
6.9918131828308105 7.22352409362793 0.03480128198862076
6.957147121429443 7.217870235443115 0.03470359370112419
6.922988414764404 7.212327003479004 0.03521768003702164
6.901575088500977 7.220582008361816 0.035186540335416794
6.878413200378418 7.2265625 0.035754792392253876
6.848092079162598 7.224669456481934 0.0356748066842556
6.8231635093688965 7.228987693786621 0.0362311452627182
6.791083335876465 7.225228309631348 0.03614118695259094
6.766218662261963 7.229408264160156 0.036694616079330444
6.738882541656494 7.230467796325684 0.03662838041782379
6.706303596496582 7.225518226623535 0.037134427577257156
6.692284107208252 7.241124153137207 0.03714170679450035
6.654025077819824 7.2300214767456055 0.03761284798383713
6.6329874992370605 7.237880706787109 0.03758074343204498
6.605232238769531 7.2376909255981445 0.037508487701416016
6.5823187828063965 7.242964744567871 0.03806183487176895
6.556087493896484 7.244885444641113 0.03799853473901749
6.531280517578125 7.247645854949951 0.03853734955191612
6.496363639831543 7.239302635192871 0.03842055797576904
6.4808197021484375 7.252839088439941 0.039013296365737915
6.449743270874023 7.248530864715576 0.03909241035580635
6.425446510314941 7.251471519470215 0.039035528898239136
6.401703834533691 7.255590915679932 0.03957613557577133
6.3493523597717285 7.257638931274414 0.04002886638045311
6.270146369934082 7.258683204650879 0.04040445387363434
6.20222282409668 7.271965980529785 0.04084182530641556
6.155828952789307 7.279439449310303 0.041321706026792526
6.129139423370361 7.278459072113037 0.04140722379088402
6.078078269958496 7.2798285484313965 0.041684187948703766
6.025444030761719 7.278878688812256 0.042108919471502304
5.998728275299072 7.2772979736328125 0.04219016060233116
5.9590630531311035 7.291526794433594 0.04253942519426346
5.925966262817383 7.281817436218262 0.042574331164360046
5.905539512634277 7.287814617156982 0.042946118861436844
5.878602981567383 7.286080360412598 0.043024368584156036
5.863803386688232 7.298678398132324 0.04433959349989891
5.8304901123046875 7.288397789001465 0.044201791286468506
5.813178062438965 7.298405647277832 0.04435092210769653
5.788744926452637 7.299018383026123 0.0446879044175148
5.765965461730957 7.302022933959961 0.04479089751839638
5.739564418792725 7.299683570861816 0.04470531642436981
5.710191249847412 7.293684959411621 0.044997312128543854
5.691397190093994 7.30150032043457 0.04513603448867798
5.677964210510254 7.315786838531494 0.045152876526117325
5.6453399658203125 7.305000305175781 0.04541211575269699
5.625344753265381 7.311092376708984 0.04553871974349022
5.59723424911499 7.306139945983887 0.04543131962418556
5.576151371002197 7.31065559387207 0.045789677649736404
5.546201705932617 7.302767276763916 0.045824505388736725
5.5294365882873535 7.312411308288574 0.04581477865576744
5.5061492919921875 7.313776969909668 0.045745667070150375
5.485890865325928 7.318424224853516 0.046265747398138046
5.455778121948242 7.310741901397705 0.046142227947711945
5.4373321533203125 7.31765604019165 0.046117182821035385
5.414587497711182 7.31898832321167 0.04660589620471001
5.386458396911621 7.313324928283691 0.04649787023663521
5.37103796005249 7.32417106628418 0.04650239646434784
5.354875564575195 7.334263801574707 0.046647652983665466
5.317353248596191 7.31536865234375 0.04685027152299881
5.298804759979248 7.321750640869141 0.048397574573755264
5.275467395782471 7.3223876953125 0.0484870970249176
5.263683795928955 7.338091850280762 0.04851984232664108
5.237436294555664 7.333585739135742 0.04881513863801956
5.206289291381836 7.322998523712158 0.04882170632481575
5.1917033195495605 7.334665298461914 0.04883018508553505
5.1443281173706055 7.3330302238464355 0.04906391352415085
5.117659568786621 7.327311038970947 0.049112942069768906
5.085095405578613 7.346399307250977 0.04909496009349823
5.056011199951172 7.336868762969971 0.04896176978945732
5.035323143005371 7.340359687805176 0.049458011984825134
5.0093674659729 7.335108280181885 0.049350664019584656
4.970393657684326 7.344263076782227 0.04927033931016922
4.945921897888184 7.340875625610352 0.049328867346048355
4.927643775939941 7.34757137298584 0.04969549551606178
4.9088897705078125 7.352544784545898 0.04965860769152641
4.88948917388916 7.356499671936035 0.04961960390210152
4.863381862640381 7.351235389709473 0.04966229200363159
4.833119869232178 7.3385419845581055 0.0495065413415432
4.822827339172363 7.356101989746094 0.04994114488363266
4.801630973815918 7.358002662658691 0.04988399147987366
4.775033473968506 7.350528717041016 0.05136987939476967
4.745965003967285 7.340058326721191 0.05122791975736618
4.739695072174072 7.36383056640625 0.051326144486665726
4.712226867675781 7.354646682739258 0.051190335303545
4.691483497619629 7.356821537017822 0.05166909843683243
4.6656365394592285 7.349890232086182 0.05155077204108238
4.653642177581787 7.364728927612305 0.051591336727142334
4.6319379806518555 7.365175247192383 0.051524847745895386
4.609130382537842 7.362768650054932 0.05144099146127701
4.590133190155029 7.36665153503418 0.0514005571603775
4.566113471984863 7.3628153800964355 0.05145639181137085
4.54805850982666 7.367794513702393 0.0518067330121994
4.53136682510376 7.375960350036621 0.051794230937957764
4.509940147399902 7.375356674194336 0.05172475427389145
4.482450485229492 7.3646955490112305 0.05158327892422676
4.462270259857178 7.3669281005859375 0.051530249416828156
4.444290637969971 7.371723175048828 0.05165140703320503
4.422903537750244 7.371817588806152 0.05158378928899765
4.404967784881592 7.376578330993652 0.05155302584171295
4.37822151184082 7.3664751052856445 0.05141777545213699
4.363273620605469 7.377161026000977 0.051429904997348785
4.337574481964111 7.368565559387207 0.051675960421562195
4.321352481842041 7.375977516174316 0.05166710168123245
4.291469097137451 7.360979080200195 0.051643773913383484
4.2797064781188965 7.375938892364502 0.05250606685876846
4.252828121185303 7.365819931030273 0.05251413211226463
13.147892951965332 -3.3481640815734863 -0.29125070571899414
13.237831115722656 -3.135451555252075 -0.2881178855895996
13.551435470581055 -2.203880786895752 -0.2676263451576233
13.61076545715332 -1.9796500205993652 -0.2639111280441284
13.60834789276123 -1.8920176029205322 -0.2619463801383972
13.809260368347168 -1.011044979095459 -0.243062362074852
13.841302871704102 -0.9259483814239502 -0.24182549118995667
13.85986328125 -0.8397040367126465 -0.23862949013710022
13.882148742675781 -0.7823907732963562 -0.23785896599292755
13.883731842041016 -0.7535804510116577 -0.23701021075248718
13.896696090698242 -0.6955999135971069 -0.23572757840156555
13.925848007202148 -0.6093197464942932 -0.23420307040214539
13.95522403717041 -0.5227294564247131 -0.23293358087539673
16.430599212646484 0.7984716892242432 -0.11827920377254486
16.447999954223633 0.9029970169067383 -0.11643166840076447
16.463659286499023 0.9734174013137817 -0.1145590990781784
16.47457504272461 1.008375644683838 -0.1136358380317688
16.499435424804688 1.07966148853302 -0.11253827065229416
16.507884979248047 1.1146228313446045 -0.1116015836596489
16.535114288330078 1.1864352226257324 -0.11051441729068756
16.560455322265625 1.2228013277053833 -0.11041010171175003
16.59374237060547 1.295546054840088 -0.1086336225271225
16.582307815551758 1.3292806148529053 -0.10755903273820877
16.618999481201172 1.402685284614563 -0.10609664022922516
16.656064987182617 1.5113271474838257 -0.10405396670103073
17.018810272216797 2.668887138366699 -0.08001594245433807
17.028669357299805 2.780229091644287 -0.07698190957307816
17.02133560180664 2.8526771068573 -0.07489849627017975
17.030658721923828 2.8905861377716064 -0.0754406675696373
17.011823654174805 2.961150646209717 -0.07330316305160522
17.01329231262207 2.9977951049804688 -0.07228238135576248
16.96224594116211 3.062509536743164 -0.07031905651092529
16.946292877197266 3.095956325531006 -0.06922724843025208
16.9444580078125 3.1694202423095703 -0.06791641563177109
16.956510543823242 3.2081079483032227 -0.06693863123655319
16.963565826416016 3.2835001945495605 -0.06491214036941528
16.950584411621094 3.3174962997436523 -0.06383313238620758
16.94878387451172 3.3913180828094482 -0.06176963448524475
16.964134216308594 3.431018352508545 -0.06110123544931412
16.96359634399414 4.558666229248047 -0.033406876027584076
16.950605392456055 4.669950485229492 -0.03177250176668167
16.949743270874023 4.784557819366455 -0.02631441503763199
16.935373306274414 4.818467617034912 -0.02523127943277359
16.923954010009766 4.853999614715576 -0.024160057306289673
16.934856414794922 4.895507335662842 -0.02310734987258911
16.936416625976562 4.934064865112305 -0.022046543657779694
16.931251525878906 4.971823215484619 -0.021292150020599365
16.924686431884766 5.00806999206543 -0.020221590995788574
16.921968460083008 5.045479774475098 -0.01915118843317032
16.936614990234375 5.089268207550049 -0.01886359229683876
16.92280387878418 5.12343168258667 -0.017784077674150467
16.93094253540039 5.164275646209717 -0.01672152429819107
16.923612594604492 5.240044116973877 -0.014575083740055561
16.91707992553711 5.277322292327881 -0.013493932783603668
16.91162109375 5.353069305419922 -0.011345237493515015
16.918306350708008 5.472435474395752 -0.008114991709589958
16.918067932128906 5.590897560119629 -0.006580578163266182
16.892597198486328 5.7005228996276855 -0.00023446371778845787
16.748620986938477 6.527012348175049 0.026620082557201385
16.593780517578125 6.587462902069092 0.029734240844845772
16.429128646850586 6.601994514465332 0.031338442116975784
