VERSION .7
FIELDS x y z
SIZE 4 4 4
TYPE F F F
COUNT 1 1 1
WIDTH 823
HEIGHT 1
VIEWPOINT 0 0 0 1 0 0 0
POINTS 823
DATA ascii
13.882078170776367 4.144103050231934 -0.14887970685958862
13.818310737609863 4.156317710876465 -0.1481943279504776
13.688875198364258 4.180331230163574 -0.14699475467205048
13.619336128234863 4.1900129318237305 -0.14634138345718384
13.56039047241211 4.203608989715576 -0.14580397307872772
13.509008407592773 4.218429088592529 -0.1453462541103363
13.419217109680176 4.220972537994385 -0.14447380602359772
13.356858253479004 4.2327351570129395 -0.14389903843402863
13.281295776367188 4.239139080047607 -0.14313410222530365
13.215751647949219 4.248457431793213 -0.14252261817455292
13.165517807006836 4.263362407684326 -0.1420791894197464
13.09371566772461 4.270151138305664 -0.14139916002750397
13.032548904418945 4.280145168304443 -0.1400410681962967
12.97567081451416 4.292196273803711 -0.13952921330928802
12.921934127807617 4.3041911125183105 -0.13904698193073273
12.855754852294922 4.312678813934326 -0.13843324780464172
12.794977188110352 4.321850776672363 -0.13787560164928436
12.733158111572266 4.3304290771484375 -0.13730646669864655
12.654633522033691 4.333905220031738 -0.13655713200569153
12.598094940185547 4.343772888183594 -0.1360449194908142
12.558002471923828 4.359128952026367 -0.13571007549762726
12.503271102905273 4.370080947875977 -0.1352197229862213
12.452635765075684 4.381402015686035 -0.13706043362617493
12.377206802368164 4.384554386138916 -0.13633184134960175
12.322149276733398 4.393896579742432 -0.13578234612941742
12.267760276794434 4.4032182693481445 -0.1352861225605011
12.196684837341309 4.407096862792969 -0.13460348546504974
12.138519287109375 4.414623737335205 -0.13406307995319366
12.091490745544434 4.425953388214111 -0.1329006403684616
12.028289794921875 4.431980133056641 -0.13226771354675293
11.985743522644043 4.444574356079102 -0.13190186023712158
11.92210865020752 4.449141979217529 -0.13130304217338562
11.88420295715332 4.463942527770996 -0.13099130988121033
11.814600944519043 4.465797424316406 -0.13032470643520355
11.762555122375488 4.474043369293213 -0.12985381484031677
11.717577934265137 4.485611915588379 -0.1294633150100708
11.64977741241455 4.487398147583008 -0.1288164108991623
11.60133171081543 4.497220993041992 -0.12838730216026306
11.542285919189453 4.50190544128418 -0.12783603370189667
11.517539978027344 4.519813060760498 -0.12766672670841217
11.456318855285645 4.524054050445557 -0.12638145685195923
11.39271068572998 4.526287078857422 -0.1257835328578949
11.344833374023438 4.534546852111816 -0.12535889446735382
11.287576675415039 4.539650917053223 -0.12483280152082443
11.22900104522705 4.543186664581299 -0.12428826838731766
11.187226295471191 4.553323745727539 -0.12389123439788818
11.139131546020508 4.5615105628967285 -0.12485969066619873
11.11120319366455 4.57702112197876 -0.12465386837720871
11.04134750366211 4.575069904327393 -0.12324526160955429
11.000360488891602 4.585643768310547 -0.12289689481258392
10.95317268371582 4.592676162719727 -0.12247566878795624
10.897846221923828 4.59687614440918 -0.1219671443104744
10.85503101348877 4.605373382568359 -0.12159320712089539
10.811909675598145 4.613577842712402 -0.12121807783842087
10.774209022521973 4.624722480773926 -0.12090670317411423
10.718038558959961 4.626975059509277 -0.12038484960794449
10.667811393737793 4.631579399108887 -0.11992733180522919
10.621376037597656 4.638410568237305 -0.11951617151498795
10.590448379516602 4.651096343994141 -0.11927653849124908
10.484528541564941 4.657347679138184 -0.1176024004817009
10.43244457244873 4.660157203674316 -0.11712641268968582
10.35401725769043 4.677528381347656 -0.116466224193573
10.315042495727539 4.685720920562744 -0.11613708734512329
10.258410453796387 4.686456680297852 -0.11561154574155807
10.23386001586914 4.700934886932373 -0.11544587463140488
10.174293518066406 4.699166297912598 -0.11488325148820877
10.145380973815918 4.712133884429932 -0.11467160284519196
10.09238052368164 4.713004112243652 -0.11353741586208344
10.060380935668945 4.723515033721924 -0.11328780651092529
10.0182466506958 4.729877471923828 -0.11289122700691223
9.958199501037598 4.726824760437012 -0.11232417076826096
9.927140235900879 4.737348556518555 -0.11208484321832657
9.879145622253418 4.740382671356201 -0.11165529489517212
9.842316627502441 4.747862339019775 -0.11135059595108032
9.799288749694824 4.7529377937316895 -0.11097882688045502
9.757997512817383 4.757948875427246 -0.10999400168657303
9.721636772155762 4.76521635055542 -0.109661765396595
9.6713228225708 4.766204357147217 -0.10920711606740952
9.633498191833496 4.772436618804932 -0.10889230668544769
9.606475830078125 4.783902168273926 -0.1087014228105545
9.560290336608887 4.7864179611206055 -0.10829160362482071
9.52042007446289 4.791191101074219 -0.10795379430055618
9.478816032409668 4.794931411743164 -0.1075938269495964
9.452766418457031 4.80714225769043 -0.1068027913570404
9.410653114318848 4.810331344604492 -0.10643807798624039
9.380976676940918 4.819741725921631 -0.10621707886457443
9.331501007080078 4.819546699523926 -0.10577090829610825
9.290420532226562 4.822777271270752 -0.10538505762815475
9.272557258605957 4.838679313659668 -0.10530193895101547
9.22249698638916 4.836932182312012 -0.10484575480222702
9.177350044250488 4.837563991546631 -0.10444621741771698
9.1638765335083 4.85550594329834 -0.10381195694208145
9.122785568237305 4.858006000518799 -0.10286320745944977
9.079628944396973 4.859236717224121 -0.10248918831348419
9.046449661254883 4.866369247436523 -0.10219869762659073
9.001510620117188 4.866307258605957 -0.10121293365955353
8.968428611755371 4.873171329498291 -0.10095752030611038
8.934064865112305 4.878577709197998 -0.10068536549806595
8.90009593963623 4.884033203125 -0.10041533410549164
8.861576080322266 4.88751745223999 -0.10009921342134476
8.82431411743164 4.890913009643555 -0.09979183971881866
8.802225112915039 4.902575492858887 -0.09962544590234756
8.774169921875 4.911536693572998 -0.09942707419395447
8.726840019226074 4.908855438232422 -0.09842704236507416
8.709874153137207 4.92313289642334 -0.0983511358499527
8.648944854736328 4.913103103637695 -0.09777996689081192
8.634060859680176 4.928374767303467 -0.09772762656211853
8.597172737121582 4.931000709533691 -0.09742539376020432
8.5396089553833 4.9222588539123535 -0.09689101576805115
8.535987854003906 4.943797588348389 -0.09696754813194275
8.487078666687012 4.939713001251221 -0.09593131393194199
8.468672752380371 4.952556610107422 -0.09583963453769684
8.439494132995605 4.959024906158447 -0.0956260934472084
8.406085014343262 4.963581562042236 -0.09536807239055634
8.373720169067383 4.967935562133789 -0.09511762857437134
8.312302589416504 4.9548468589782715 -0.09453542530536652
8.30129337310791 4.972350120544434 -0.09229309856891632
8.277097702026367 4.981225490570068 -0.09210865199565887
8.245162010192871 4.985343933105469 -0.09186761826276779
8.193741798400879 4.978185653686523 -0.09141194075345993
8.184818267822266 4.996049404144287 -0.09142875671386719
8.141295433044434 4.992701530456543 -0.09105856716632843
8.110871315002441 4.997918128967285 -0.09083704650402069
8.07943058013916 5.001706123352051 -0.09005115926265717
8.060600280761719 5.013898849487305 -0.08993080258369446
8.018969535827637 5.011113166809082 -0.08958125114440918
8.00102424621582 5.023016929626465 -0.08949795365333557
7.950062274932861 5.0147318840026855 -0.08904639631509781
7.927258491516113 5.023374080657959 -0.08890774846076965
7.88865327835083 5.021884441375732 -0.0885903388261795
7.869140148162842 5.033117771148682 -0.08795298635959625
7.821418285369873 5.025495529174805 -0.08753523975610733
7.8116559982299805 5.042797088623047 -0.08751732856035233
7.776535511016846 5.043054103851318 -0.08724028617143631
7.74510383605957 5.045533180236816 -0.08700502663850784
7.7299604415893555 5.059186935424805 -0.08695770055055618
7.6913299560546875 5.05676794052124 -0.08610835671424866
7.65974760055542 5.058801174163818 -0.08587100356817245
7.636046886444092 5.0666093826293945 -0.08572748303413391
7.621857166290283 5.080005645751953 -0.08565758913755417
7.57481575012207 5.071385860443115 -0.08313718438148499
7.5391130447387695 5.070840358734131 -0.08230921626091003
7.515614032745361 5.077718734741211 -0.0821673721075058
7.482347011566162 5.0778889656066895 -0.08191844820976257
7.453126430511475 5.081347465515137 -0.08171717822551727
7.427268028259277 5.086327075958252 -0.08155043423175812
7.41229248046875 5.09869909286499 -0.08147244900465012
7.392637729644775 5.108478546142578 -0.08137728273868561
7.3436126708984375 5.09714937210083 -0.08043554425239563
7.3318328857421875 5.112216472625732 -0.08042663335800171
7.293914318084717 5.108304977416992 -0.08012592047452927
7.271213054656982 5.114928722381592 -0.07999429106712341
7.242170810699463 5.117660999298096 -0.07979436218738556
7.230605125427246 5.132018089294434 -0.07975641638040543
7.210582256317139 5.140341281890869 -0.0791410580277443
7.16986083984375 5.13444709777832 -0.07881350070238113
7.151862621307373 5.144044876098633 -0.07873374968767166
7.107041358947754 5.134218692779541 -0.07835627347230911
7.092709541320801 5.14695930480957 -0.07831990718841553
7.054300308227539 5.1414690017700195 -0.07798481732606888
7.034615993499756 5.149508953094482 -0.07738084346055984
7.019616603851318 5.161596298217773 -0.07733840495347977
6.978459358215332 5.1536784172058105 -0.077001191675663
6.949481964111328 5.155257225036621 -0.07680302858352661
6.935887336730957 5.167520523071289 -0.07477045804262161
6.903952121734619 5.166042327880859 -0.07451415807008743
6.881300926208496 5.172060966491699 -0.07386302947998047
6.845200538635254 5.167191028594971 -0.07359081506729126
6.835905075073242 5.182478904724121 -0.07360675185918808
6.804190158843994 5.181361675262451 -0.07338383048772812
6.769097328186035 5.17686653137207 -0.07312088459730148
6.727912425994873 5.190420627593994 -0.07239288836717606
6.69118595123291 5.184272766113281 -0.07211291044950485
6.657735347747803 5.203372955322266 -0.07198894768953323
6.622156620025635 5.197739124298096 -0.0717196986079216
6.605887413024902 5.207812786102295 -0.07117750495672226
6.586860179901123 5.2150139808654785 -0.0710626021027565
6.552112579345703 5.209659099578857 -0.07080399245023727
6.518909454345703 5.206027030944824 -0.07056470215320587
6.5033979415893555 5.215779781341553 -0.07051409780979156
6.501748085021973 5.236664295196533 -0.07061441987752914
6.459355354309082 5.225308895111084 -0.0697946846485138
6.436142444610596 5.228665351867676 -0.06966056674718857
6.385097503662109 5.231987953186035 -0.06931963562965393
6.369373798370361 5.241233825683594 -0.06926684081554413
6.345249176025391 5.244155406951904 -0.06722183525562286
6.323979377746582 5.248702049255371 -0.06705930829048157
6.296977519989014 5.248398780822754 -0.06688772141933441
6.276600360870361 5.254178047180176 -0.06631729006767273
6.237658500671387 5.243632793426514 -0.06599433720111847
6.229982852935791 5.259283065795898 -0.06602878123521805
6.20659065246582 5.262284755706787 -0.06589952856302261
6.1714701652526855 5.254560470581055 -0.06564219295978546
6.157162666320801 5.264456748962402 -0.06560634076595306
6.1355671882629395 5.268723011016846 -0.06502814590930939
6.111969947814941 5.270534992218018 -0.06486785411834717
6.100192070007324 5.2824907302856445 -0.06485936045646667
6.0796661376953125 5.287485122680664 -0.06476115435361862
6.04883337020874 5.282756805419922 -0.06454944610595703
6.038657188415527 5.2966508865356445 -0.06409716606140137
6.004236221313477 5.288546085357666 -0.06384771317243576
5.98330020904541 5.292195796966553 -0.06371656805276871
5.9635210037231445 5.297450542449951 -0.06362608075141907
5.946531295776367 5.304476737976074 -0.06356176733970642
5.919577598571777 5.30253267288208 -0.06293181329965591
5.903555393218994 5.310955047607422 -0.06288221478462219
5.868870258331299 5.301828384399414 -0.0626036524772644
5.85362434387207 5.310775279998779 -0.06256227940320969
5.826900482177734 5.308650970458984 -0.06239410117268562
5.816677570343018 5.321468830108643 -0.061035241931676865
5.785641193389893 5.315788269042969 -0.06077776476740837
5.768247127532959 5.321959018707275 -0.06071147695183754
5.749063968658447 5.326388359069824 -0.06062573567032814
5.721691131591797 5.323787689208984 -0.060456618666648865
5.690587043762207 5.316921710968018 -0.05979422479867935
5.6764960289001465 5.325863361358643 -0.05973696708679199
5.656161785125732 5.329549312591553 -0.059642814099788666
5.618142127990723 5.3157782554626465 -0.059357739984989166
5.6145524978637695 5.334507465362549 -0.059436991810798645
5.604756832122803 5.348028659820557 -0.05900612846016884
5.575592994689941 5.342350006103516 -0.05879097059369087
5.55609130859375 5.345822811126709 -0.058702025562524796
5.534403324127197 5.347770690917969 -0.058593470603227615
5.518985748291016 5.355064392089844 -0.05854802951216698
5.491034984588623 5.350764751434326 -0.057929158210754395
5.464620590209961 5.347177982330322 -0.05776701495051384
5.446673393249512 5.3517866134643555 -0.05767024680972099
5.426896095275879 5.355188369750977 -0.057581834495067596
5.403355598449707 5.354135036468506 -0.05744972452521324
5.389891624450684 5.363006591796875 -0.056985240429639816
5.366820335388184 5.3629150390625 -0.05686220899224281
5.353198051452637 5.3715500831604 -0.056811604648828506
5.314762115478516 5.35516357421875 -0.056521348655223846
5.311670303344727 5.374963760375977 -0.056173767894506454
5.28878927230835 5.374070644378662 -0.055565182119607925
5.261748790740967 5.368834972381592 -0.05539766699075699
5.248465538024902 5.37821626663208 -0.05537896975874901
5.235423564910889 5.387172222137451 -0.05535955727100372
5.216440200805664 5.390631198883057 -0.05528039112687111
5.1934814453125 5.38923978805542 -0.054698530584573746
5.162932395935059 5.379838943481445 -0.05449414253234863
5.149581432342529 5.388923645019531 -0.0544746033847332
5.132308483123779 5.393210411071777 -0.05441009998321533
5.105703830718994 5.387597560882568 -0.053817007690668106
5.0936431884765625 5.39792013168335 -0.05378769338130951
5.072690963745117 5.398114204406738 -0.05368434637784958
5.035974979400635 5.404472827911377 -0.05353616550564766
5.015300750732422 5.404730319976807 -0.053009308874607086
4.979308605194092 5.411473274230957 -0.052845828235149384
4.964664936065674 5.4180803298950195 -0.05280959606170654
4.927412986755371 5.423102855682373 -0.052208416163921356
4.9042510986328125 5.420167446136475 -0.05208203196525574
4.89732551574707 5.435809135437012 -0.05213235691189766
4.861204624176025 5.418285369873047 -0.05186695232987404
4.846029758453369 5.423973083496094 -0.051824748516082764
4.837890625 5.438200950622559 -0.05139472335577011
4.825930118560791 5.447478771209717 -0.05138799548149109
4.792671203613281 5.432607173919678 -0.05115325003862381
4.78286075592041 5.444888591766357 -0.05117255076766014
4.764430522918701 5.446661949157715 -0.050654515624046326
4.751736640930176 5.455625057220459 -0.05064365267753601
4.711374759674072 5.432003974914551 -0.05033278465270996
4.697681903839111 5.43897819519043 -0.050307318568229675
4.6952104568481445 5.45965051651001 -0.050405677407979965
4.663536071777344 5.445637226104736 -0.049748800694942474
4.652435302734375 5.455549716949463 -0.049751441925764084
4.6316914558410645 5.454782962799072 -0.04965389147400856
4.604371547698975 5.445472240447998 -0.04948190972208977
4.5945234298706055 5.456751823425293 -0.04906240105628967
4.563833236694336 5.4438629150390625 -0.04885859787464142
4.564028739929199 5.467101097106934 -0.048982683569192886
4.547646999359131 5.470513343811035 -0.04892861470580101
4.526339530944824 5.46860408782959 -0.04841398447751999
4.510143756866455 5.472116470336914 -0.04833969846367836
4.4964423179626465 5.479300022125244 -0.04831835627555847
4.476190567016602 5.477762222290039 -0.04822273179888725
4.449450969696045 5.468159198760986 -0.047648604959249496
4.439026832580566 5.4792160987854 -0.04763980209827423
4.43351936340332 5.495696544647217 -0.04811181128025055
4.408638954162598 5.488121032714844 -0.04794257506728172
4.384927749633789 5.482551097869873 -0.04781181365251541
4.373059272766113 5.491034030914307 -0.047806449234485626
4.343709468841553 5.478118896484375 -0.04720882698893547
4.340943813323975 5.4980645179748535 -0.047280728816986084
4.328997611999512 5.50639009475708 -0.04727525636553764
4.3044538497924805 5.499273300170898 -0.04713532328605652
4.282706260681152 5.494980812072754 -0.04661862179636955
4.255572319030762 5.483597755432129 -0.04642398655414581
4.255186557769775 5.507314682006836 -0.046548306941986084
4.234841823577881 5.504591941833496 -0.04645099118351936
4.224234580993652 5.5144453048706055 -0.046058885753154755
4.207582473754883 5.517080307006836 -0.045983072370290756
4.195794582366943 5.525366306304932 -0.045979712158441544
4.166208744049072 5.510108947753906 -0.0457802414894104
4.153972148895264 5.518390655517578 -0.045376088470220566
4.144941806793213 5.5302414894104 -0.04538119211792946
4.125829696655273 5.528611660003662 -0.0452968031167984
4.110004901885986 5.532022476196289 -0.04525287449359894
4.090181350708008 5.529271602630615 -0.04476270452141762
4.076051712036133 5.5348615646362305 -0.04473775252699852
4.059628009796143 5.536586284637451 -0.044661667197942734
4.041118621826172 5.535395622253418 -0.044187676161527634
4.0187764167785645 5.529556751251221 -0.044862765818834305
4.004284858703613 5.533727645874023 -0.04441243037581444
3.9802138805389404 5.524566650390625 -0.04427214711904526
3.9746856689453125 5.541816711425781 -0.044342730194330215
3.9609992504119873 5.547002792358398 -0.04390236735343933
3.944789171218872 5.54861307144165 -0.04385024681687355
3.928567886352539 5.550868034362793 -0.04380150884389877
3.9056003093719482 5.542773246765137 -0.04367323964834213
3.8903439044952393 5.545526504516602 -0.04321784898638725
3.8719263076782227 5.544427871704102 -0.04314471408724785
3.8620970249176025 5.554873943328857 -0.04316391795873642
3.8366427421569824 5.568149566650391 -0.042728353291749954
3.814560890197754 5.560764312744141 -0.042611245065927505
3.7996654510498047 5.564496994018555 -0.04257701709866524
3.7815680503845215 5.562747001647949 -0.04211454465985298
3.767254114151001 5.566501617431641 -0.04206245020031929
3.7534430027008057 5.571699142456055 -0.04204091429710388
3.73535418510437 5.569757461547852 -0.04196830466389656
3.7214019298553467 5.574621200561523 -0.04155711457133293
3.7100989818573 5.582781791687012 -0.04153895378112793
3.6874513626098633 5.573760032653809 -0.04141365736722946
3.674523115158081 5.580047130584717 -0.0410161130130291
3.660661220550537 5.584229469299316 -0.04099162295460701
3.638840675354004 5.576147079467773 -0.041239652782678604
3.626718759536743 5.58355712890625 -0.040852323174476624
3.6115834712982178 5.585635662078857 -0.04081258550286293
3.5972368717193604 5.5888495445251465 -0.04078192263841629
3.581913471221924 5.591251373291016 -0.040721699595451355
3.5723724365234375 5.601917743682861 -0.040361709892749786
3.5553035736083984 5.6007561683654785 -0.0402999110519886
3.5377984046936035 5.599581241607666 -0.040236905217170715
3.530933141708374 5.6144843101501465 -0.03988698497414589
3.508455991744995 5.60523796081543 -0.03976790979504585
3.489626169204712 5.601006031036377 -0.03968602791428566
3.4704017639160156 5.5959906578063965 -0.0391961932182312
3.465815305709839 5.615341663360596 -0.03928074240684509
3.4464237689971924 5.60993766784668 -0.03919314220547676
3.4305055141448975 5.610096454620361 -0.03914449363946915
3.418966054916382 5.618155002593994 -0.03874805569648743
3.407132625579834 5.624961853027344 -0.03874606639146805
3.396596670150757 5.633918285369873 -0.03875936567783356
3.367100954055786 5.612072467803955 -0.03818035498261452
3.346947193145752 5.604813098907471 -0.038062576204538345
3.3459551334381104 5.6296586990356445 -0.03818491846323013
3.3299646377563477 5.630105018615723 -0.03776120766997337
3.312452793121338 5.627114295959473 -0.03769496828317642
3.2889513969421387 5.613806247711182 -0.037538573145866394
3.282270669937134 5.629943370819092 -0.03759998455643654
3.2631680965423584 5.62396764755249 -0.03713839873671532
3.2470619678497314 5.623809337615967 -0.03707094490528107
6.572014808654785 -12.287252426147461 -0.06065013259649277
6.641011714935303 -12.291594505310059 -0.06161731854081154
6.665616035461426 -12.276057243347168 -0.06165343150496483
6.701409339904785 -12.279444694519043 -0.06255106627941132
6.729487895965576 -12.270271301269531 -0.06257577240467072
6.759893417358398 -12.265181541442871 -0.06347604840993881
6.791302680969238 -12.260233879089355 -0.06348078697919846
6.830056190490723 -12.269963264465332 -0.06360451132059097
6.86013650894165 -12.264044761657715 -0.06369218975305557
6.9032135009765625 -12.279502868652344 -0.0646636039018631
6.925868988037109 -12.260082244873047 -0.06463724374771118
6.964770793914795 -12.269420623779297 -0.06480719894170761
6.987247943878174 -12.24799919128418 -0.0655888244509697
7.029285430908203 -12.262494087219238 -0.06574436277151108
7.055633068084717 -12.247831344604492 -0.06579131633043289
7.100167274475098 -12.266124725341797 -0.0667884573340416
7.123878479003906 -12.248394012451172 -0.06677237153053284
7.157764911651611 -12.246477127075195 -0.06689012795686722
7.193385124206543 -12.248912811279297 -0.06780685484409332
7.225505352020264 -12.245343208312988 -0.06787002086639404
7.25787878036499 -12.24047565460205 -0.06797365844249725
7.294768810272217 -12.244609832763672 -0.0680808573961258
7.327700138092041 -12.240429878234863 -0.06896983087062836
7.357804298400879 -12.232954978942871 -0.0690591037273407
7.3932414054870605 -12.234318733215332 -0.0691533237695694
7.427183628082275 -12.23146915435791 -0.0700545385479927
7.459012031555176 -12.226534843444824 -0.07016041874885559
7.497713088989258 -12.23280143737793 -0.07028540223836899
7.517934322357178 -12.207273483276367 -0.07189007848501205
7.565356254577637 -12.227288246154785 -0.0721002072095871
7.598264694213867 -12.223709106445312 -0.07217191159725189
7.632863521575928 -12.221150398254395 -0.07308648526668549
7.67179012298584 -12.226845741271973 -0.07321571558713913
7.69891881942749 -12.213708877563477 -0.07327844202518463
7.770357131958008 -12.21272087097168 -0.07430578023195267
7.794116497039795 -12.192562103271484 -0.07433011382818222
7.898144245147705 -12.18580150604248 -0.07547648996114731
8.18211841583252 -12.171363830566406 -0.07886580377817154
8.299044609069824 -12.179226875305176 -0.080152727663517
8.40114688873291 -12.163942337036133 -0.08215616643428802
8.445426940917969 -12.1739501953125 -0.08315235376358032
8.480010032653809 -12.168299674987793 -0.08328411728143692
8.51146411895752 -12.159481048583984 -0.08334465324878693
8.581930160522461 -12.150981903076172 -0.08444119244813919
8.627202033996582 -12.161362648010254 -0.08463775366544724
8.650239944458008 -12.140372276306152 -0.0854789987206459
8.698129653930664 -12.15264892578125 -0.08574328571557999
8.735175132751465 -12.150969505310059 -0.08585933595895767
8.76585578918457 -12.140410423278809 -0.08677957952022552
8.794515609741211 -12.125442504882812 -0.08680662512779236
8.843241691589355 -12.139538764953613 -0.08708642423152924
8.868629455566406 -12.11998176574707 -0.08708164095878601
8.918731689453125 -12.13544750213623 -0.0881972685456276
8.952385902404785 -12.128416061401367 -0.0883287712931633
8.984792709350586 -12.118134498596191 -0.08839327096939087
9.02501392364502 -12.11965274810791 -0.08941543847322464
9.063733100891113 -12.119064331054688 -0.08959760516881943
9.102575302124023 -12.116945266723633 -0.08972550183534622
9.149972915649414 -12.12755012512207 -0.09082354605197906
9.18187141418457 -12.117445945739746 -0.09093858301639557
9.219575881958008 -12.113358497619629 -0.0910555049777031
9.244194030761719 -12.093547821044922 -0.09369288384914398
9.295027732849121 -12.106438636779785 -0.09394621849060059
9.331082344055176 -12.101247787475586 -0.0940563902258873
9.3616361618042 -12.088911056518555 -0.09499575197696686
9.395977973937988 -12.079941749572754 -0.09513118863105774
9.443622589111328 -12.089262962341309 -0.09535908699035645
9.47402286529541 -12.076440811157227 -0.09630101919174194
9.562052726745605 -12.083511352539062 -0.0967264398932457
9.600946426391602 -12.079623222351074 -0.09775187820196152
9.683423042297363 -12.08004093170166 -0.09812917560338974
9.723012924194336 -12.076555252075195 -0.09826912730932236
9.79639720916748 -12.064769744873047 -0.09945210814476013
9.83952522277832 -12.065199851989746 -0.09962836652994156
9.919354438781738 -12.06045913696289 -0.10083204507827759
9.952837944030762 -12.048694610595703 -0.10096055269241333
10.028292655944824 -12.036438941955566 -0.10211756080389023
10.165640830993652 -12.046483993530273 -0.10370517522096634
10.281980514526367 -12.030009269714355 -0.10691527277231216
10.417769432067871 -12.034866333007812 -0.10851015150547028
10.498503684997559 -12.025490760803223 -0.10882315784692764
10.530696868896484 -12.011881828308105 -0.1098218783736229
10.618443489074707 -12.009636878967285 -0.1102599948644638
10.666205406188965 -12.013250350952148 -0.11142610758543015
10.74898910522461 -12.004278182983398 -0.11181334406137466
10.78954029083252 -11.999366760253906 -0.11290930211544037
10.83642578125 -11.99992847442627 -0.11313191056251526
10.883966445922852 -12.002327919006348 -0.11341922730207443
10.919029235839844 -11.99089527130127 -0.11446333676576614
10.96054744720459 -11.985034942626953 -0.11462991684675217
10.993897438049316 -11.97144603729248 -0.11476942896842957
11.049240112304688 -11.981703758239746 -0.11603070050477982
11.096206665039062 -11.98125171661377 -0.11625602841377258
11.135610580444336 -11.973786354064941 -0.11640807241201401
11.18081283569336 -11.972471237182617 -0.11667191982269287
11.21366024017334 -11.956415176391602 -0.11864522099494934
11.269753456115723 -11.96628475189209 -0.11897513270378113
11.318129539489746 -11.966405868530273 -0.11921650171279907
11.357274055480957 -11.957910537719727 -0.12037408351898193
11.400362968444824 -11.953502655029297 -0.12056684494018555
11.442021369934082 -11.946057319641113 -0.12073823809623718
11.489644050598145 -11.945976257324219 -0.121989406645298
11.537934303283691 -11.946464538574219 -0.12223891913890839
11.580501556396484 -11.93939208984375 -0.12241911888122559
11.63010025024414 -11.940845489501953 -0.12364576756954193
11.662736892700195 -11.924745559692383 -0.12378207594156265
11.711551666259766 -11.92359447479248 -0.12402970343828201
11.761750221252441 -11.92509937286377 -0.12429935485124588
11.794609069824219 -11.907502174377441 -0.12540020048618317
11.8524808883667 -11.916290283203125 -0.12575238943099976
11.906246185302734 -11.920764923095703 -0.1260603815317154
11.93408203125 -11.897769927978516 -0.1270609050989151
11.984728813171387 -11.898699760437012 -0.1273898184299469
12.041952133178711 -11.90461540222168 -0.12772826850414276
12.082448959350586 -11.895174026489258 -0.12887699902057648
12.12411880493164 -11.886676788330078 -0.12911146879196167
12.182496070861816 -11.893054008483887 -0.1294621080160141
12.32457160949707 -11.881351470947266 -0.13122078776359558
12.47353744506836 -11.874576568603516 -0.133006289601326
12.614974975585938 -11.858942031860352 -0.13477367162704468
12.701488494873047 -11.839903831481934 -0.13521860539913177
12.843936920166016 -11.822659492492676 -0.13695064187049866
13.01745319366455 -11.83199691772461 -0.1390800178050995
13.055255889892578 -11.816976547241211 -0.13922107219696045
13.167015075683594 -11.817632675170898 -0.14096105098724365
13.196706771850586 -11.794927597045898 -0.14101575314998627
13.259082794189453 -11.799899101257324 -0.1424964964389801
13.300315856933594 -11.787150382995605 -0.14267635345458984
13.360908508300781 -11.791434288024902 -0.1430637240409851
13.410263061523438 -11.784204483032227 -0.14332255721092224
13.467385292053223 -11.784887313842773 -0.14476348459720612
13.511602401733398 -11.772784233093262 -0.14289453625679016
13.573135375976562 -11.776936531066895 -0.14432625472545624
13.617582321166992 -11.765981674194336 -0.1445385068655014
13.678709983825684 -11.767932891845703 -0.1449202597141266
13.732666969299316 -11.76477336883545 -0.14529027044773102
13.795808792114258 -11.76931381225586 -0.14674924314022064
13.822797775268555 -11.741488456726074 -0.14676900207996368
13.891170501708984 -11.749950408935547 -0.1472930759191513
13.950297355651855 -11.750388145446777 -0.14871668815612793
14.002423286437988 -11.743329048156738 -0.14900502562522888
14.048039436340332 -11.731938362121582 -0.14923095703125
14.104822158813477 -11.72838020324707 -0.14962567389011383
14.147797584533691 -11.7145414352417 -0.15088620781898499
14.218847274780273 -11.723642349243164 -0.15138407051563263
14.269852638244629 -11.714656829833984 -0.15166041254997253
14.33100414276123 -11.715084075927734 -0.15318162739276886
14.370296478271484 -11.697540283203125 -0.15334123373031616
14.416507720947266 -11.684117317199707 -0.15356756746768951
14.483087539672852 -11.688288688659668 -0.15401813387870789
14.533770561218262 -11.67947006225586 -0.15543736517429352
14.653373718261719 -11.674363136291504 -0.15618926286697388
14.721616744995117 -11.677485466003418 -0.15779833495616913
14.82906723022461 -11.662697792053223 -0.15515395998954773
14.89238452911377 -11.661165237426758 -0.1555558145046234
15.003888130187988 -11.646881103515625 -0.15736612677574158
15.073423385620117 -11.650808334350586 -0.15784192085266113
15.177011489868164 -11.629104614257812 -0.15957914292812347
15.23763656616211 -11.62545108795166 -0.15996266901493073
15.36533260345459 -11.62082576751709 -0.16190308332443237
15.53619384765625 -11.597237586975098 -0.16299323737621307
15.734201431274414 -11.591730117797852 -0.16549566388130188
15.857563018798828 -11.579898834228516 -0.1674152910709381
15.90526008605957 -11.564199447631836 -0.1677272915840149
16.02486228942871 -11.548309326171875 -0.1696171760559082
16.087480545043945 -11.542710304260254 -0.17002543807029724
16.228382110595703 -11.540667533874512 -0.17106319963932037
16.291587829589844 -11.534706115722656 -0.16801103949546814
16.361677169799805 -11.532014846801758 -0.16847975552082062
16.43508529663086 -11.53270435333252 -0.17015033960342407
16.494909286499023 -11.52367115020752 -0.17052175104618073
16.544580459594727 -11.505934715270996 -0.17078110575675964
16.603599548339844 -11.495856285095215 -0.17120732367038727
16.680177688598633 -11.497739791870117 -0.1729227602481842
16.75052261352539 -11.493600845336914 -0.1733977496623993
16.803712844848633 -11.478803634643555 -0.17370086908340454
16.86652183532715 -11.46902084350586 -0.17416158318519592
16.935937881469727 -11.464898109436035 -0.17581573128700256
17.024961471557617 -11.47363567352295 -0.17649196088314056
17.087678909301758 -11.46297836303711 -0.17688845098018646
17.139406204223633 -11.446174621582031 -0.17724274098873138
17.208229064941406 -11.44049072265625 -0.17890402674674988
17.27669334411621 -11.432944297790527 -0.17936186492443085
17.345996856689453 -11.427038192749023 -0.1798345446586609
17.385021209716797 -11.401082992553711 -0.18005907535552979
17.43496322631836 -11.380724906921387 -0.18152903020381927
17.450117111206055 -11.33896255493164 -0.18144038319587708
17.452001571655273 -11.287320137023926 -0.18120858073234558
17.48162078857422 -11.255093574523926 -0.18133947253227234
17.490097045898438 -11.209197044372559 -0.18238601088523865
17.497772216796875 -11.161534309387207 -0.1822165548801422
17.48379898071289 -11.101643562316895 -0.17823907732963562
17.495088577270508 -11.057855606079102 -0.17805244028568268
17.49207305908203 -11.003804206848145 -0.17778243124485016
17.504762649536133 -10.96107292175293 -0.17887316644191742
17.518415451049805 -10.919079780578613 -0.17884773015975952
17.503408432006836 -10.857955932617188 -0.17845755815505981
17.50681495666504 -10.809744834899902 -0.178262859582901
17.510507583618164 -10.760502815246582 -0.17925408482551575
17.515600204467773 -10.663660049438477 -0.1789177805185318
17.51931381225586 -10.614768981933594 -0.17872405052185059
17.515275955200195 -10.511734962463379 -0.17947648465633392
17.516996383666992 -10.463385581970215 -0.17927123606204987
17.513423919677734 -10.312422752380371 -0.17980818450450897
17.526342391967773 -10.220871925354004 -0.17949727177619934
17.558252334594727 -10.092098236083984 -0.18040695786476135
17.531705856323242 -9.978850364685059 -0.17970074713230133
17.52897071838379 -9.929190635681152 -0.1771329939365387
17.554847717285156 -9.846426963806152 -0.17690829932689667
17.527929306030273 -9.78356647491455 -0.17759165167808533
17.546554565429688 -9.697271347045898 -0.17743059992790222
17.54562759399414 -9.649208068847656 -0.1772180199623108
17.563488006591797 -9.611612319946289 -0.1783534735441208
17.539831161499023 -9.550107955932617 -0.17790590226650238
17.524168014526367 -9.494409561157227 -0.17754638195037842
17.498584747314453 -9.432324409484863 -0.17714785039424896
17.48244285583496 -9.376855850219727 -0.17793311178684235
17.50330924987793 -9.341253280639648 -0.17794755101203918
17.504079818725586 -9.293749809265137 -0.1777534782886505
17.50273895263672 -9.246455192565918 -0.17760899662971497
17.482219696044922 -9.189261436462402 -0.177206888794899
17.500560760498047 -9.151314735412598 -0.17833547294139862
17.490177154541016 -9.099641799926758 -0.17803652584552765
17.49928855895996 -9.0570068359375 -0.1779322326183319
17.496231079101562 -9.009439468383789 -0.17777498066425323
17.49445343017578 -8.962570190429688 -0.1775672435760498
17.483572006225586 -8.909967422485352 -0.17839716374874115
17.481494903564453 -8.863256454467773 -0.17818781733512878
17.469026565551758 -8.811342239379883 -0.17787370085716248
17.477466583251953 -8.768885612487793 -0.17670318484306335
17.466224670410156 -8.717850685119629 -0.17740575969219208
17.4831600189209 -8.681031227111816 -0.17739461362361908
17.461637496948242 -8.623967170715332 -0.17705278098583221
17.47750473022461 -8.586662292480469 -0.17703241109848022
17.475479125976562 -8.539443969726562 -0.17682693898677826
17.472524642944336 -8.49312973022461 -0.17774061858654022
17.489540100097656 -8.45650577545166 -0.17773467302322388
17.493364334106445 -8.412364959716797 -0.17765429615974426
17.46380615234375 -8.3535737991333 -0.1771775335073471
17.488149642944336 -8.320596694946289 -0.1772487461566925
17.464670181274414 -8.263789176940918 -0.17794792354106903
17.45852279663086 -8.1722993850708 -0.17760083079338074
17.433795928955078 -8.115436553955078 -0.17717275023460388
17.393632888793945 -8.007789611816406 -0.17752604186534882
17.372499465942383 -7.954409122467041 -0.17714139819145203
17.26460838317871 -7.817226409912109 -0.17576590180397034
17.183584213256836 -7.693500518798828 -0.17569617927074432
17.196918487548828 -7.656670093536377 -0.1756698340177536
17.175634384155273 -7.560682773590088 -0.17627127468585968
17.15347671508789 -7.508472442626953 -0.1757599264383316
17.10844612121582 -7.40306282043457 -0.17605561017990112
17.094011306762695 -7.354739189147949 -0.17581063508987427
17.05451011657715 -7.21095609664917 -0.17493480443954468
17.059202194213867 -7.170087814331055 -0.17589443922042847
17.04129409790039 -7.120985507965088 -0.175617516040802
17.0347900390625 -7.076714515686035 -0.17539864778518677
17.02813148498535 -7.031396865844727 -0.17517536878585815
17.001127243041992 -6.978985786437988 -0.17474789917469025
16.969234466552734 -6.841557025909424 -0.17509135603904724
16.95382308959961 -6.752478122711182 -0.17463776469230652
16.93937873840332 -6.6642069816589355 -0.17524969577789307
16.92325782775879 -6.576824188232422 -0.17485836148262024
16.90222930908203 -6.5271897315979 -0.17449983954429626
16.885997772216797 -6.480622291564941 -0.17418962717056274
16.89910125732422 -6.44433069229126 -0.17731665074825287
16.888967514038086 -6.400353908538818 -0.17695221304893494
16.878929138183594 -6.3564605712890625 -0.17670822143554688
16.853649139404297 -6.30592679977417 -0.1763017624616623
16.855056762695312 -6.266610145568848 -0.1761806607246399
16.85367202758789 -6.226254463195801 -0.17712748050689697
16.835935592651367 -6.178921699523926 -0.176801860332489
16.807170867919922 -6.128819465637207 -0.17636585235595703
16.779218673706055 -6.038688659667969 -0.1758037507534027
16.770370483398438 -5.996160984039307 -0.17666715383529663
16.781963348388672 -5.959965705871582 -0.1766555905342102
16.760766983032227 -5.913297653198242 -0.17630283534526825
16.7525577545166 -5.871276378631592 -0.17608745396137238
16.76254653930664 -5.834662437438965 -0.17606249451637268
16.58842658996582 -5.735487937927246 -0.17511574923992157
16.70332145690918 -5.736372470855713 -0.1762644350528717
16.527374267578125 -5.636567115783691 -0.17427556216716766
16.660846710205078 -5.604943752288818 -0.17544147372245789
16.684825897216797 -5.573422908782959 -0.17557993531227112
16.678390502929688 -5.493305206298828 -0.17633159458637238
16.65118408203125 -5.446066856384277 -0.17592687904834747
16.65174674987793 -5.368728160858154 -0.17860384285449982
16.635114669799805 -5.325282573699951 -0.17831093072891235
16.629087448120117 -5.246246337890625 -0.17906880378723145
16.608993530273438 -5.163099765777588 -0.17861470580101013
16.607942581176758 -5.125001907348633 -0.1784890592098236
16.587970733642578 -5.042426586151123 -0.17804522812366486
16.562612533569336 -4.997195243835449 -0.17871613800525665
16.549697875976562 -4.917351245880127 -0.17835217714309692
16.548288345336914 -4.87958288192749 -0.17822794616222382
16.535598754882812 -4.800240993499756 -0.1778719276189804
16.521780014038086 -4.759018421173096 -0.17861008644104004
16.500761032104492 -4.714871883392334 -0.1783284991979599
16.507993698120117 -4.679906368255615 -0.17830324172973633
16.51831817626953 -4.6457624435424805 -0.17831012606620789
16.485010147094727 -4.598474025726318 -0.17784275114536285
16.494482040405273 -4.564245223999023 -0.1778423935174942
16.488937377929688 -4.525835990905762 -0.17866981029510498
16.466981887817383 -4.482062339782715 -0.17838340997695923
16.476558685302734 -4.447964191436768 -0.18035894632339478
16.443750381469727 -4.402459144592285 -0.1797851324081421
16.471166610717773 -4.372170925140381 -0.18004198372364044
16.45850944519043 -4.332211971282959 -0.17980356514453888
16.451683044433594 -4.292914390563965 -0.18061241507530212
16.428302764892578 -4.250420093536377 -0.18025654554367065
16.42626190185547 -4.213484287261963 -0.18013961613178253
16.40087127685547 -4.169707775115967 -0.17976650595664978
16.40374183654785 -4.134157657623291 -0.1796978861093521
16.391096115112305 -4.093809127807617 -0.17951804399490356
16.389137268066406 -4.057206153869629 -0.1803807020187378
16.405033111572266 -4.024972915649414 -0.18046405911445618
16.359230041503906 -3.9767606258392334 -0.17986513674259186
16.377822875976562 -3.9453024864196777 -0.17997975647449493
16.374008178710938 -3.9083943367004395 -0.1798487901687622
16.37067985534668 -3.870710849761963 -0.17972108721733093
16.34552764892578 -3.828965187072754 -0.17941166460514069
16.35276222229004 -3.794822931289673 -0.18037454783916473
16.339645385742188 -3.755068778991699 -0.18014106154441833
16.32445526123047 -3.7159292697906494 -0.17988747358322144
16.309110641479492 -3.675809144973755 -0.17963208258152008
16.29466438293457 -3.6370370388031006 -0.17938876152038574
16.254161834716797 -3.5562002658843994 -0.1787756383419037
16.23843765258789 -3.517465114593506 -0.18049663305282593
16.230470657348633 -3.4442434310913086 -0.18019075691699982
16.21464729309082 -3.4057374000549316 -0.17993618547916412
16.216428756713867 -3.334866523742676 -0.17985405027866364
16.17926788330078 -3.2922444343566895 -0.1793643683195114
16.218473434448242 -3.2641568183898926 -0.1806790679693222
16.180341720581055 -3.221559524536133 -0.18017858266830444
16.171001434326172 -3.148956060409546 -0.17992524802684784
16.17586326599121 -3.1150760650634766 -0.1799084097146988
16.150053024291992 -3.074340343475342 -0.17954647541046143
16.133859634399414 -3.0365772247314453 -0.17934969067573547
16.145498275756836 -2.968418836593628 -0.18028828501701355
16.12861442565918 -2.9307265281677246 -0.18003134429454803
16.122934341430664 -2.895090103149414 -0.17990034818649292
16.118207931518555 -2.8587663173675537 -0.17977917194366455
16.11318588256836 -2.823399066925049 -0.17965668439865112
16.087081909179688 -2.7843739986419678 -0.17929857969284058
16.091325759887695 -2.7497715950012207 -0.17933496832847595
16.09638786315918 -2.7162699699401855 -0.18027184903621674
16.091434478759766 -2.6800930500030518 -0.18015114963054657
16.084148406982422 -2.644587755203247 -0.1790667176246643
16.0787410736084 -2.6093878746032715 -0.17894574999809265
16.073347091674805 -2.5733377933502197 -0.1788242906332016
16.072370529174805 -2.504755735397339 -0.17869603633880615
16.042463302612305 -2.465057611465454 -0.17924219369888306
16.049203872680664 -2.4320130348205566 -0.17925937473773956
16.043106079101562 -2.3969883918762207 -0.17913520336151123
16.02973747253418 -2.326072931289673 -0.17892876267433167
16.004785537719727 -2.2536709308624268 -0.17854268848896027
15.990734100341797 -2.2178072929382324 -0.17833364009857178
15.990734100341797 -2.183053970336914 -0.17921479046344757
15.994930267333984 -2.149825096130371 -0.1792120784521103
15.988052368164062 -2.1141393184661865 -0.1790831983089447
15.982307434082031 -2.0796425342559814 -0.17897172272205353
15.962157249450684 -2.043344497680664 -0.17869730293750763
15.966256141662598 -2.009211778640747 -0.17874737083911896
15.959222793579102 -1.974692463874817 -0.17862236499786377
15.950825691223145 -1.940001368522644 -0.1784834861755371
15.933120727539062 -1.9033695459365845 -0.1782381683588028
15.925631523132324 -1.8689626455307007 -0.17903687059879303
15.939687728881836 -1.8370338678359985 -0.17637215554714203
15.910201072692871 -1.7992573976516724 -0.1760023832321167
15.902037620544434 -1.7649199962615967 -0.1758711189031601
15.894580841064453 -1.7297279834747314 -0.17574740946292877
15.907537460327148 -1.69774329662323 -0.17585308849811554
15.867197036743164 -1.6601427793502808 -0.17536680400371552
15.871249198913574 -1.626298427581787 -0.17537225782871246
15.872568130493164 -1.593156099319458 -0.17535167932510376
15.856877326965332 -1.5241563320159912 -0.17602553963661194
15.838114738464355 -1.4891886711120605 -0.17583340406417847
15.831267356872559 -1.4213093519210815 -0.17569111287593842
15.824718475341797 -1.3876235485076904 -0.1755855828523636
15.813920974731445 -1.3526411056518555 -0.17543314397335052
15.817129135131836 -1.3198575973510742 -0.1754380315542221
15.796135902404785 -1.28510320186615 -0.1751757711172104
15.787782669067383 -1.250480055809021 -0.1750524938106537
15.779448509216309 -1.2168742418289185 -0.174931138753891
15.770804405212402 -1.1823227405548096 -0.1757204830646515
15.772882461547852 -1.149567723274231 -0.17571602761745453
15.762974739074707 -1.1159656047821045 -0.1756317913532257
15.732595443725586 -1.080043077468872 -0.17526602745056152
15.733895301818848 -1.0473320484161377 -0.17525705695152283
15.73647689819336 -1.0146557092666626 -0.17070677876472473
15.738190650939941 -0.9810624122619629 -0.17070272564888
15.754117965698242 -0.9492396116256714 -0.17080406844615936
15.707911491394043 -0.9136925339698792 -0.1703311949968338
15.698831558227539 -0.8795702457427979 -0.1702120006084442
15.691452026367188 -0.846495509147644 -0.17011266946792603
15.691149711608887 -0.812865674495697 -0.17008978128433228
15.690314292907715 -0.7801779508590698 -0.17006418108940125
15.6845064163208 -0.7472636103630066 -0.17089104652404785
15.660270690917969 -0.7125824093818665 -0.17060938477516174
15.660778999328613 -0.680042028427124 -0.17059913277626038
15.662205696105957 -0.6474921703338623 -0.17060016095638275
15.673995971679688 -0.6144933104515076 -0.1707143485546112
15.663137435913086 -0.5815162658691406 -0.17058303952217102
15.653087615966797 -0.5485662221908569 -0.17045985162258148
15.654851913452148 -0.5151983499526978 -0.17051805555820465
15.621904373168945 -0.4158177673816681 -0.17012646794319153
15.623703002929688 -0.38342219591140747 -0.17013737559318542
15.619583129882812 -0.3499356508255005 -0.17098647356033325
15.637811660766602 -0.31787770986557007 -0.17117923498153687
15.63823127746582 -0.28537052869796753 -0.17117619514465332
15.632848739624023 -0.2519182860851288 -0.17111052572727203
15.62582778930664 -0.21937114000320435 -0.1656121164560318
15.635642051696777 -0.18610192835330963 -0.16571199893951416
15.62525463104248 -0.15354900062084198 -0.16554699838161469
15.598318099975586 -0.12091223895549774 -0.16525831818580627
15.61445140838623 -0.08767972141504288 -0.16542696952819824
15.600563049316406 -0.055226828902959824 -0.16527853906154633
15.605973243713379 -0.02280929498374462 -0.16533535718917847
18.409177780151367 0.011236071586608887 -0.050901081413030624
18.397165298461914 0.04946685954928398 -0.05086874961853027
18.383281707763672 0.08864077925682068 -0.050830066204071045
18.362071990966797 0.12664471566677094 -0.050771817564964294
18.361963272094727 0.16587184369564056 -0.05077222362160683
18.364892959594727 0.204012930393219 -0.05078202113509178
18.37663459777832 0.2422841340303421 -0.05087672919034958
18.290353775024414 0.4712660014629364 -0.0453050434589386
18.245389938354492 0.5090518593788147 -0.04519699886441231
18.21786117553711 0.5461210608482361 -0.04513096064329147
18.166732788085938 0.5834342241287231 -0.045007314532995224
18.155385971069336 0.6207872629165649 -0.04498176649212837
18.129058837890625 0.6575550436973572 -0.04492030665278435
18.117101669311523 0.6958776712417603 -0.04489391669631004
18.102859497070312 0.732956051826477 -0.044862885028123856
18.078338623046875 0.7695439457893372 -0.044805627316236496
18.06458282470703 0.8076220750808716 -0.044776551425457
18.060941696166992 0.8450177907943726 -0.04477176442742348
18.00433349609375 0.8809187412261963 -0.0446351133286953
18.01055908203125 0.9186921119689941 -0.04465629160404205
17.976146697998047 0.9543418884277344 -0.04457521066069603
17.973495483398438 0.9927093982696533 -0.044574059545993805
17.938024520874023 1.028092861175537 -0.04449102282524109
17.909561157226562 1.1021528244018555 -0.044431790709495544
17.874725341796875 1.137247920036316 -0.04538460075855255
17.867942810058594 1.2123910188674927 -0.04026763513684273
17.84198760986328 1.2478313446044922 -0.04009757563471794
17.839754104614258 1.2859771251678467 -0.0400986485183239
17.803129196166992 1.3204797506332397 -0.04002240300178528
17.788545608520508 1.356521487236023 -0.039996031671762466
17.77371597290039 1.3935866355895996 -0.03996891900897026
17.77067756652832 1.430458903312683 -0.03996884822845459
17.744524002075195 1.4654802083969116 -0.0399169959127903
17.729888916015625 1.502353310585022 -0.03989098221063614
17.70377540588379 1.5371496677398682 -0.039839476346969604
17.68816566467285 1.5728427171707153 -0.03981160745024681
17.685014724731445 1.6105891466140747 -0.039812151342630386
17.671628952026367 1.6463533639907837 -0.039789631962776184
17.663936614990234 1.6837060451507568 -0.039780810475349426
17.64015769958496 1.7183864116668701 -0.039734866470098495
17.625715255737305 1.7539108991622925 -0.03971027210354805
17.622777938842773 1.7916457653045654 -0.03971200808882713
17.594680786132812 1.8256868124008179 -0.039657291024923325
17.590415954589844 1.8621490001678467 -0.03965650126338005
17.564647674560547 1.8973723649978638 -0.039607275277376175
17.56072235107422 1.933823823928833 -0.03960737586021423
17.553464889526367 1.9709867238998413 -0.039601098746061325
17.51690101623535 2.0036990642547607 -0.039527371525764465
17.50171661376953 2.0387654304504395 -0.03650730475783348
17.484834671020508 2.07466721534729 -0.03642354533076286
17.46976661682129 2.109651803970337 -0.03628578782081604
17.46471405029297 2.1458215713500977 -0.036284439265728
17.43832778930664 2.1804049015045166 -0.03623908758163452
17.421768188476562 2.215062379837036 -0.036214280873537064
