VERSION .7
FIELDS x y z
SIZE 4 4 4
TYPE F F F
COUNT 1 1 1
WIDTH 832
HEIGHT 1
VIEWPOINT 0 0 0 1 0 0 0
POINTS 832
DATA ascii
7.309739589691162 6.524503707885742 -0.2306310534477234
7.2736358642578125 6.519449234008789 -0.2293219119310379
7.247781753540039 6.5242509841918945 -0.22835031151771545
7.2220683097839355 6.528285980224609 -0.22737160325050354
7.193246841430664 6.529742240905762 -0.22630248963832855
7.175026893615723 6.540882110595703 -0.2255706787109375
7.148173809051514 6.543615341186523 -0.22456076741218567
7.126221656799316 6.551085472106934 -0.223711758852005
7.097294807434082 6.552189826965332 -0.2256954461336136
7.080075740814209 6.563559532165527 -0.224990576505661
7.047041416168213 6.560982704162598 -0.22379979491233826
7.029149055480957 6.571608066558838 -0.22307468950748444
6.995978355407715 6.5681915283203125 -0.22187384963035583
6.979727745056152 6.580708980560303 -0.22121259570121765
6.952653408050537 6.582489967346191 -0.22020161151885986
6.928459167480469 6.587237358093262 -0.21928998827934265
6.904090881347656 6.591872215270996 -0.21837563812732697
6.883901596069336 6.5999579429626465 -0.21758747100830078
6.8548173904418945 6.600235939025879 -0.2165309488773346
6.83183479309082 6.60548210144043 -0.21565769612789154
6.801756858825684 6.60410213470459 -0.2145674228668213
6.781744003295898 6.6125383377075195 -0.2137972116470337
6.7545976638793945 6.613467693328857 -0.21279582381248474
6.725709915161133 6.612912178039551 -0.21174809336662292
6.7023162841796875 6.617793083190918 -0.21087458729743958
6.6867570877075195 6.629891395568848 -0.20990724861621857
6.655545234680176 6.627200126647949 -0.2087985873222351
6.626809120178223 6.626029014587402 -0.20775490999221802
6.6035261154174805 6.6302103996276855 -0.20688435435295105
6.592724323272705 6.647706985473633 -0.20641857385635376
6.562440872192383 6.644693374633789 -0.20533150434494019
6.5423078536987305 6.652200222015381 -0.20456887781620026
6.519828796386719 6.657393932342529 -0.20468446612358093
6.5074357986450195 6.672382354736328 -0.20548856258392334
6.477025032043457 6.669646739959717 -0.2041737139225006
6.458713531494141 6.678464889526367 -0.20346468687057495
6.432018756866455 6.6785407066345215 -0.20249319076538086
6.411509990692139 6.685771942138672 -0.20173102617263794
6.377655982971191 6.678155899047852 -0.20053821802139282
6.341673851013184 6.696717739105225 -0.1991654634475708
6.320305824279785 6.7019548416137695 -0.19836819171905518
6.270641326904297 6.705646514892578 -0.19657233357429504
6.250553607940674 6.712031841278076 -0.195818692445755
6.225503921508789 6.713832378387451 -0.1945979744195938
6.207119941711426 6.721931457519531 -0.19390085339546204
6.1647629737854 6.732729911804199 -0.19234630465507507
6.134588241577148 6.727753639221191 -0.1910516917705536
6.109776020050049 6.7293596267700195 -0.19017279148101807
6.101567268371582 6.748404502868652 -0.18979625403881073
6.075498580932617 6.74766731262207 -0.18886685371398926
6.060342788696289 6.759819030761719 -0.18828991055488586
6.027379989624023 6.751187324523926 -0.1871475875377655
6.010329246520996 6.760274887084961 -0.18650144338607788
5.987704277038574 6.763870716094971 -0.18606272339820862
5.977413177490234 6.780544281005859 -0.1865939497947693
5.941174507141113 6.768044471740723 -0.1853560507297516
5.925386905670166 6.778866767883301 -0.18475961685180664
5.901257038116455 6.779603004455566 -0.183668851852417
5.879631519317627 6.783967971801758 -0.18289804458618164
5.854002952575684 6.7827863693237305 -0.18199020624160767
5.84047794342041 6.7955756187438965 -0.1814606934785843
5.820322036743164 6.801462173461914 -0.18042081594467163
5.806062698364258 6.813371181488037 -0.1798698902130127
5.764798641204834 6.793454647064209 -0.17848369479179382
5.75315523147583 6.8091654777526855 -0.17802883684635162
5.732365608215332 6.813189506530762 -0.1772790402173996
5.710293769836426 6.815969467163086 -0.17626872658729553
5.687828540802002 6.8183393478393555 -0.17547664046287537
5.667136192321777 6.822264671325684 -0.17473536729812622
5.6482133865356445 6.829113006591797 -0.17374393343925476
5.638420104980469 6.8461503982543945 -0.17333728075027466
5.6092529296875 6.8396100997924805 -0.1723366677761078
5.5936665534973145 6.850398540496826 -0.1717676818370819
5.563050270080566 6.841836452484131 -0.1704998016357422
5.544686317443848 6.8485918045043945 -0.1698390543460846
5.515685558319092 6.842251777648926 -0.16854286193847656
5.512665748596191 6.8676252365112305 -0.16834881901741028
5.482610702514648 6.860152244567871 -0.16863739490509033
5.461028099060059 6.862298011779785 -0.16734051704406738
5.442790985107422 6.868587493896484 -0.16668324172496796
5.430289268493652 6.882967472076416 -0.16621504724025726
5.399713516235352 6.873497009277344 -0.1651809811592102
5.3785810470581055 6.875921726226807 -0.16443806886672974
5.362118244171143 6.885132312774658 -0.16385133564472198
5.348986625671387 6.897751808166504 -0.16282105445861816
5.316616058349609 6.885467529296875 -0.16173914074897766
5.307825088500977 6.904523849487305 -0.1613883525133133
5.282444477081299 6.90109920501709 -0.1605214774608612
5.239002227783203 6.90439510345459 -0.15880388021469116
5.229028224945068 6.921030044555664 -0.1580987274646759
5.20269775390625 6.916851997375488 -0.1572204977273941
5.1855316162109375 6.923893451690674 -0.1566072702407837
5.160694122314453 6.920616149902344 -0.15576359629631042
5.149186134338379 6.936053276062012 -0.15511569380760193
5.128286361694336 6.937936782836914 -0.15408529341220856
5.1096882820129395 6.94287109375 -0.15343323349952698
5.079521179199219 6.932855606079102 -0.15244679152965546
5.066943168640137 6.945876121520996 -0.1519768089056015
5.046515464782715 6.948111534118652 -0.1507476568222046
5.028169631958008 6.954047203063965 -0.15011897683143616
5.011407852172852 6.961243629455566 -0.1502678245306015
4.967247009277344 6.961545944213867 -0.14847251772880554
4.955219268798828 6.975258827209473 -0.1478053778409958
4.929436683654785 6.970457077026367 -0.14695891737937927
4.922093391418457 6.990801811218262 -0.14665019512176514
4.894050121307373 6.981706142425537 -0.14572545886039734
4.87762451171875 6.989995002746582 -0.14485687017440796
4.853515625 6.986293792724609 -0.14383523166179657
4.838134765625 6.995469093322754 -0.1432952731847763
4.816740989685059 6.996055603027344 -0.14258013665676117
4.799461364746094 7.002022743225098 -0.141678124666214
4.781875133514404 7.008423805236816 -0.14086654782295227
4.766101360321045 7.016536235809326 -0.14031264185905457
4.734724521636963 7.001559257507324 -0.13930034637451172
4.722242832183838 7.015351295471191 -0.13855598866939545
4.69525146484375 7.006597995758057 -0.13746115565299988
4.681839466094971 7.018032073974609 -0.13697953522205353
4.663089752197266 7.022374629974365 -0.13635489344596863
4.648473262786865 7.031985282897949 -0.13553950190544128
4.619797706604004 7.020232200622559 -0.1344006061553955
4.603143215179443 7.027570724487305 -0.1338396668434143
4.587684631347656 7.035780906677246 -0.13330163061618805
4.573076248168945 7.045289993286133 -0.13249003887176514
4.55068302154541 7.043693542480469 -0.13197824358940125
4.538901329040527 7.057544708251953 -0.13133467733860016
4.520932197570801 7.061773300170898 -0.1307269185781479
4.507268905639648 7.073661804199219 -0.129957377910614
4.477982044219971 7.059986114501953 -0.1290251612663269
4.466920375823975 7.075920104980469 -0.12841783463954926
4.445094585418701 7.073824882507324 -0.1277022510766983
4.4312896728515625 7.084447860717773 -0.12691977620124817
4.405849933624268 7.077358722686768 -0.12590289115905762
4.400545597076416 7.101644039154053 -0.1256621778011322
4.369167327880859 7.083796501159668 -0.1246781200170517
4.3467793464660645 7.0813093185424805 -0.12366725504398346
4.330386161804199 7.087551116943359 -0.12290017306804657
4.318103790283203 7.100525856018066 -0.12246239185333252
4.296052932739258 7.098378658294678 -0.12146522104740143
4.277885437011719 7.101588249206543 -0.12065078318119049
4.263600826263428 7.111220359802246 -0.12015710771083832
4.246718883514404 7.117494583129883 -0.11960442364215851
4.221555709838867 7.108806610107422 -0.11851160228252411
4.208311080932617 7.120117664337158 -0.11783865094184875
4.1898956298828125 7.123658180236816 -0.11724427342414856
4.173440456390381 7.129497051239014 -0.11639973521232605
4.154008865356445 7.1301984786987305 -0.11555619537830353
4.144566059112549 7.1490583419799805 -0.11521337181329727
4.119016647338867 7.139090061187744 -0.11462152004241943
4.103079795837402 7.146694183349609 -0.11359669268131256
4.085423946380615 7.150264263153076 -0.11301551759243011
4.066122531890869 7.150893688201904 -0.11238954216241837
4.04560661315918 7.1503190994262695 -0.11124098300933838
4.033816337585449 7.164128303527832 -0.1108238697052002
4.017248630523682 7.169463157653809 -0.1102752685546875
3.9992990493774414 7.173320770263672 -0.10920040309429169
3.9798293113708496 7.173357963562012 -0.1085738092660904
3.959467887878418 7.171699523925781 -0.10792483389377594
3.939545154571533 7.171780109405518 -0.10709092766046524
3.925471544265747 7.181436061859131 -0.10632219910621643
3.889047622680664 7.186548233032227 -0.10494914650917053
3.8683266639709473 7.183833599090576 -0.10400313138961792
3.846518039703369 7.2015790939331055 -0.10307453572750092
6.300680637359619 -10.054555892944336 -0.12094879895448685
6.330681800842285 -10.05520248413086 -0.12184235453605652
6.379772186279297 -10.039937019348145 -0.12373481690883636
6.416004180908203 -10.050031661987305 -0.12475384771823883
6.470137596130371 -10.042119979858398 -0.12644833326339722
6.494253158569336 -10.032974243164062 -0.12723520398139954
6.586142539978027 -10.036056518554688 -0.1299949586391449
6.644007682800293 -10.031871795654297 -0.13177120685577393
6.6682024002075195 -10.023158073425293 -0.13257291913032532
6.709797382354736 -10.03988265991211 -0.13371706008911133
6.766292095184326 -10.03325080871582 -0.13548272848129272
6.7940449714660645 -10.028890609741211 -0.1363554149866104
6.8257036209106445 -10.029966354370117 -0.13730600476264954
6.8515448570251465 -10.023157119750977 -0.13814891874790192
6.889467239379883 -10.0333251953125 -0.13923105597496033
6.911602020263672 -10.020170211791992 -0.1399933397769928
6.952233791351318 -10.034461975097656 -0.1411394476890564
7.003740310668945 -10.018409729003906 -0.143131822347641
7.026997089385986 -10.007389068603516 -0.14392922818660736
7.123661518096924 -10.010101318359375 -0.1468620002269745
7.210843563079834 -9.998945236206055 -0.14961779117584229
7.310328483581543 -10.003730773925781 -0.15264347195625305
8.170801162719727 -9.946191787719727 -0.179009348154068
8.193568229675293 -9.931095123291016 -0.17983542382717133
8.25843620300293 -9.924997329711914 -0.18192368745803833
8.297526359558105 -9.929275512695312 -0.1831130087375641
8.337013244628906 -9.934041976928711 -0.18431490659713745
8.359943389892578 -9.919488906860352 -0.18515858054161072
8.40490436553955 -9.93022346496582 -0.18648329377174377
8.428898811340332 -9.916255950927734 -0.18734857439994812
8.475563049316406 -9.928609848022461 -0.1887161135673523
8.497005462646484 -9.91200065612793 -0.18906840682029724
8.544351577758789 -9.924960136413574 -0.19045664370059967
8.568740844726562 -9.910904884338379 -0.1913338303565979
8.612421035766602 -9.919744491577148 -0.19265106320381165
8.63608455657959 -9.904891967773438 -0.19351625442504883
8.680133819580078 -9.913092613220215 -0.19483833014965057
8.709717750549316 -9.90481948852539 -0.19584017992019653
8.781729698181152 -9.902812004089355 -0.19767123460769653
8.880884170532227 -9.888691902160645 -0.2009354531764984
8.920695304870605 -9.891142845153809 -0.20217815041542053
8.992813110351562 -9.8875732421875 -0.20450472831726074
9.033489227294922 -9.890474319458008 -0.20543316006660461
9.095558166503906 -9.874595642089844 -0.20753587782382965
9.131891250610352 -9.872846603393555 -0.20871798694133759
9.917919158935547 -9.817285537719727 -0.23227155208587646
10.025946617126465 -9.800199508666992 -0.23591986298561096
10.102720260620117 -9.792387008666992 -0.23797260224819183
10.154045104980469 -9.801346778869629 -0.23956285417079926
10.232576370239258 -9.794240951538086 -0.2418079376220703
10.27384090423584 -9.79296588897705 -0.24353155493736267
10.317998886108398 -9.793075561523438 -0.2449520230293274
10.351820945739746 -9.784423828125 -0.24614132940769196
10.393220901489258 -9.78210163116455 -0.24699941277503967
10.43609619140625 -9.781192779541016 -0.24803516268730164
10.480958938598633 -9.782464027404785 -0.24949519336223602
10.509843826293945 -9.767995834350586 -0.2505674660205841
10.559743881225586 -9.773109436035156 -0.25214478373527527
10.599599838256836 -9.769237518310547 -0.25349172949790955
10.637832641601562 -9.763031005859375 -0.2542843818664551
10.68092155456543 -9.761316299438477 -0.25570398569107056
10.719755172729492 -9.756059646606445 -0.2566646635532379
10.756450653076172 -9.747528076171875 -0.2579306364059448
10.810544967651367 -9.755767822265625 -0.2596307098865509
10.83596420288086 -9.737285614013672 -0.2606355845928192
10.89765739440918 -9.751424789428711 -0.2619999647140503
10.938990592956543 -9.747610092163086 -0.2634020447731018
11.018318176269531 -9.735359191894531 -0.2657420039176941
11.157584190368652 -9.7341947555542 -0.2698056101799011
11.28450870513916 -9.720670700073242 -0.2741208076477051
11.415960311889648 -9.709552764892578 -0.2781869173049927
11.814855575561523 -9.669620513916016 -0.2903120219707489
11.954294204711914 -9.658890724182129 -0.29411911964416504
12.092525482177734 -9.645562171936035 -0.2988538146018982
12.15818977355957 -9.614437103271484 -0.3004124164581299
12.195138931274414 -9.602590560913086 -0.3017786741256714
12.237303733825684 -9.55257511138916 -0.3033194839954376
12.24009895324707 -9.513944625854492 -0.3042409420013428
12.255880355834961 -9.484281539916992 -0.305074006319046
12.249333381652832 -9.438637733459473 -0.30536502599716187
12.26488208770752 -9.410118103027344 -0.3062080442905426
12.268915176391602 -9.371644020080566 -0.3062029778957367
12.292173385620117 -9.349081039428711 -0.3068504333496094
12.287130355834961 -9.305061340332031 -0.307181715965271
12.304645538330078 -9.277032852172852 -0.3080662488937378
12.316654205322266 -9.246060371398926 -0.3088265657424927
12.324079513549805 -9.21102523803711 -0.30852392315864563
12.328413009643555 -9.17396354675293 -0.30908825993537903
12.33537483215332 -9.139432907104492 -0.30972355604171753
12.342605590820312 -9.104012489318848 -0.3103489577770233
12.363332748413086 -9.079747200012207 -0.3103964924812317
12.359554290771484 -9.037550926208496 -0.3107664883136749
12.3742094039917 -9.007761001586914 -0.31158310174942017
12.371146202087402 -8.966314315795898 -0.3119719922542572
12.393960952758789 -8.943678855895996 -0.31207987666130066
12.39714241027832 -8.90576171875 -0.3126101493835449
12.403096199035645 -8.871075630187988 -0.3132286071777344
12.403840065002441 -8.792882919311523 -0.313234806060791
12.39621639251709 -8.748885154724121 -0.3135108947753906
12.425939559936523 -8.691696166992188 -0.31610602140426636
12.430109024047852 -8.65578556060791 -0.3166763186454773
12.448209762573242 -8.591236114501953 -0.3175262212753296
12.451565742492676 -8.478487014770508 -0.3180868625640869
12.473881721496582 -8.378933906555176 -0.319134384393692
12.486419677734375 -8.273276329040527 -0.3204767107963562
12.508014678955078 -8.174899101257324 -0.3215291500091553
12.511348724365234 -8.102720260620117 -0.32203149795532227
12.531569480895996 -8.003812789916992 -0.32305845618247986
12.511402130126953 -7.954425811767578 -0.3226394057273865
12.525437355041504 -7.926453113555908 -0.32294604182243347
12.538573265075684 -7.897747993469238 -0.3245084285736084
12.529607772827148 -7.855831146240234 -0.3254425525665283
12.541717529296875 -7.826772212982178 -0.3262292146682739
12.546976089477539 -7.793300628662109 -0.3268389105796814
12.562739372253418 -7.76701021194458 -0.3272034525871277
12.553372383117676 -7.724201679229736 -0.327056884765625
12.569841384887695 -7.698419570922852 -0.3279690444469452
12.561375617980957 -7.656998634338379 -0.327701210975647
12.576841354370117 -7.630059242248535 -0.3282092809677124
12.567535400390625 -7.588780403137207 -0.32845234870910645
12.583826065063477 -7.562591552734375 -0.3288344740867615
12.590370178222656 -7.530394077301025 -0.32911109924316406
12.603039741516113 -7.502506732940674 -0.3299323618412018
12.593389511108398 -7.460371971130371 -0.32963240146636963
12.600322723388672 -7.429198265075684 -0.32993102073669434
12.58868408203125 -7.386745452880859 -0.32958894968032837
12.599361419677734 -7.357300758361816 -0.33035165071487427
12.603922843933105 -7.324933052062988 -0.3305949568748474
12.627089500427246 -7.302957534790039 -0.3311673402786255
12.615625381469727 -7.2608323097229 -0.3313524127006531
12.631600379943848 -7.164691925048828 -0.33235597610473633
12.635187149047852 -7.131689071655273 -0.3325740694999695
12.652292251586914 -7.036832809448242 -0.33539271354675293
12.653715133666992 -6.968012809753418 -0.336045503616333
12.653280258178711 -6.864461421966553 -0.33663874864578247
12.682977676391602 -6.777722358703613 -0.3375329375267029
12.683843612670898 -6.709667205810547 -0.33818644285202026
12.682252883911133 -6.674600601196289 -0.33813124895095825
12.687126159667969 -6.6096625328063965 -0.33839789032936096
12.708141326904297 -6.586541175842285 -0.33946049213409424
12.715831756591797 -6.556678771972656 -0.33980876207351685
12.70593547821045 -6.5182342529296875 -0.33954575657844543
12.711235046386719 -6.487095832824707 -0.3401886820793152
12.712128639221191 -6.420215606689453 -0.3403535485267639
12.736827850341797 -6.399551868438721 -0.34117114543914795
12.72271728515625 -6.359026908874512 -0.34079405665397644
12.728925704956055 -6.328584671020508 -0.34183332324028015
12.736438751220703 -6.29898738861084 -0.34355998039245605
12.733695983886719 -6.264776229858398 -0.3436424136161804
12.773053169250488 -6.21746301651001 -0.34485894441604614
12.732446670532227 -6.164485931396484 -0.34376925230026245
12.740121841430664 -6.135599136352539 -0.34449589252471924
12.736828804016113 -6.101088047027588 -0.34405750036239624
12.718830108642578 -6.059490203857422 -0.3440840244293213
12.716470718383789 -6.025626182556152 -0.34418046474456787
12.704030990600586 -5.987480163574219 -0.34386494755744934
12.679387092590332 -5.942795753479004 -0.3433549404144287
12.65968132019043 -5.901548385620117 -0.3428421914577484
12.650890350341797 -5.864973068237305 -0.343119740486145
12.652800559997559 -5.833601951599121 -0.3428384065628052
12.63142204284668 -5.791990756988525 -0.34278303384780884
12.63370132446289 -5.760790824890137 -0.3425140380859375
12.628332138061523 -5.726332664489746 -0.34288787841796875
12.629146575927734 -5.695134162902832 -0.3430846929550171
12.629122734069824 -5.662689685821533 -0.3431066870689392
12.642683029174805 -5.6372880935668945 -0.3436494469642639
12.614490509033203 -5.5611491203308105 -0.34343433380126953
12.611858367919922 -5.528759002685547 -0.3430517613887787
12.60053825378418 -5.460648059844971 -0.3451182246208191
12.605365753173828 -5.399797439575195 -0.3454641103744507
12.614168167114258 -5.372615814208984 -0.3453971743583679
12.605240821838379 -5.306208610534668 -0.3453747034072876
12.595307350158691 -5.271285533905029 -0.34563612937927246
12.599539756774902 -5.241454601287842 -0.34544137120246887
12.57194709777832 -5.199398040771484 -0.34521985054016113
12.576421737670898 -5.170186996459961 -0.34552857279777527
12.582432746887207 -5.141789436340332 -0.3457411229610443
12.56637954711914 -5.104822158813477 -0.34549328684806824
12.566442489624023 -5.073599815368652 -0.34553906321525574
12.55786418914795 -5.039854049682617 -0.3455004096031189
12.540603637695312 -5.0027360916137695 -0.3450784981250763
12.560357093811035 -4.979540824890137 -0.3458142578601837
12.554325103759766 -4.947026252746582 -0.345705509185791
12.546756744384766 -4.913471221923828 -0.3456903398036957
12.54483699798584 -4.88235330581665 -0.3456951975822449
12.552728652954102 -4.8554534912109375 -0.3461167812347412
12.54189395904541 -4.8204874992370605 -0.34587207436561584
12.547060012817383 -4.792612552642822 -0.3457382917404175
12.539576530456543 -4.759445667266846 -0.3460754156112671
12.536550521850586 -4.728196144104004 -0.3473520278930664
12.533854484558105 -4.697491645812988 -0.34748607873916626
12.532970428466797 -4.666650772094727 -0.34752118587493896
12.518327713012695 -4.631641387939453 -0.347328245639801
12.50364875793457 -4.596733570098877 -0.3466547727584839
12.49711799621582 -4.564051628112793 -0.34701573848724365
12.51654052734375 -4.541728973388672 -0.34729254245758057
12.497453689575195 -4.504613876342773 -0.34730708599090576
12.496868133544922 -4.47512149810791 -0.3470309376716614
12.500147819519043 -4.447051525115967 -0.34719961881637573
12.505702018737793 -4.418953895568848 -0.34756702184677124
12.478899002075195 -4.380374908447266 -0.3469023108482361
12.464808464050293 -4.31655216217041 -0.3468084931373596
12.457334518432617 -4.285033226013184 -0.3468244671821594
12.448573112487793 -4.2523016929626465 -0.34665945172309875
12.479567527770996 -4.23399019241333 -0.34774670004844666
12.462620735168457 -4.169796943664551 -0.3471146821975708
12.451784133911133 -4.137458324432373 -0.34704312682151794
12.44741439819336 -4.10650110244751 -0.34700512886047363
12.443683624267578 -4.076655864715576 -0.34713631868362427
12.447336196899414 -4.04926872253418 -0.34733307361602783
12.445894241333008 -4.019419193267822 -0.3475199043750763
12.444494247436523 -3.9904685020446777 -0.3483767807483673
12.433813095092773 -3.957770586013794 -0.34784165024757385
12.446441650390625 -3.933363199234009 -0.34876424074172974
12.432451248168945 -3.9005842208862305 -0.3481404185295105
12.426900863647461 -3.869701862335205 -0.34822118282318115
12.42770767211914 -3.841681480407715 -0.3483491539955139
12.439607620239258 -3.81709623336792 -0.3484582304954529
12.437263488769531 -3.787324905395508 -0.3489590585231781
12.434795379638672 -3.758394241333008 -0.34866923093795776
12.412607192993164 -3.7227680683135986 -0.34828877449035645
12.446099281311035 -3.704679012298584 -0.34934136271476746
12.420373916625977 -3.668640375137329 -0.34840071201324463
12.424118041992188 -3.6412482261657715 -0.34907954931259155
12.415767669677734 -3.6108391284942627 -0.3486344814300537
12.40758991241455 -3.579730987548828 -0.34865280985832214
12.40516471862793 -3.5511627197265625 -0.34870046377182007
12.428972244262695 -3.530088186264038 -0.34916362166404724
12.418030738830566 -3.498330593109131 -0.34910738468170166
12.397222518920898 -3.4647159576416016 -0.34864455461502075
12.394916534423828 -3.4360203742980957 -0.34837645292282104
12.409360885620117 -3.4118311405181885 -0.3493654131889343
12.39848518371582 -3.381182909011841 -0.3488601744174957
12.383208274841309 -3.3486123085021973 -0.3486891984939575
12.396123886108398 -3.324514865875244 -0.3491821587085724
12.386041641235352 -3.2942733764648438 -0.3498082756996155
12.379369735717773 -3.264199733734131 -0.34942251443862915
12.381423950195312 -3.237276077270508 -0.34961408376693726
12.387407302856445 -3.210584878921509 -0.3500458896160126
12.360899925231934 -3.1763546466827393 -0.34910890460014343
12.38371467590332 -3.126680374145508 -0.3501625657081604
12.347654342651367 -3.0903329849243164 -0.3489591181278229
12.357498168945312 -3.064758777618408 -0.3493725657463074
12.357011795043945 -3.0374321937561035 -0.3496367633342743
12.367890357971191 -3.0129036903381348 -0.34976667165756226
12.339544296264648 -2.978087902069092 -0.3491035997867584
12.354581832885742 -2.954599380493164 -0.3498101234436035
12.344348907470703 -2.8972463607788086 -0.34949246048927307
12.32967758178711 -2.8668203353881836 -0.3493615984916687
12.335897445678711 -2.840503215789795 -0.3493642210960388
12.316245079040527 -2.809077024459839 -0.3489590883255005
12.323308944702148 -2.7834715843200684 -0.34944719076156616
12.324828147888184 -2.756481647491455 -0.3493254780769348
12.31460952758789 -2.727375030517578 -0.3491927981376648
12.304344177246094 -2.698002815246582 -0.34919190406799316
12.316213607788086 -2.673367738723755 -0.34936779737472534
12.320762634277344 -2.647270679473877 -0.34933555126190186
12.300681114196777 -2.6158013343811035 -0.350016713142395
12.285823822021484 -2.5860049724578857 -0.3497522175312042
12.296171188354492 -2.5607643127441406 -0.3503398299217224
12.270092010498047 -2.5287773609161377 -0.34945040941238403
12.283924102783203 -2.5047426223754883 -0.3496936559677124
12.279659271240234 -2.476883888244629 -0.3501847982406616
12.288285255432129 -2.452096939086914 -0.35028332471847534
12.26776123046875 -2.421219825744629 -0.3495534360408783
12.272425651550293 -2.3952345848083496 -0.3498570919036865
12.275579452514648 -2.3694162368774414 -0.3502548336982727
12.2776460647583 -2.342621088027954 -0.3501710891723633
12.270475387573242 -2.3148727416992188 -0.3498326539993286
12.27147102355957 -2.288378953933716 -0.3500351309776306
12.255683898925781 -2.258673667907715 -0.349891722202301
12.241329193115234 -2.2032175064086914 -0.34921959042549133
12.248592376708984 -2.177839756011963 -0.34960687160491943
12.253436088562012 -2.125504970550537 -0.34993302822113037
12.232242584228516 -2.0956900119781494 -0.349514365196228
12.226654052734375 -2.067856788635254 -0.3492283821105957
12.226758003234863 -2.0417847633361816 -0.3495529890060425
12.218944549560547 -1.987622618675232 -0.3490867614746094
12.21473503112793 -1.960927963256836 -0.35066986083984375
12.197993278503418 -1.905580759048462 -0.35026758909225464
12.192200660705566 -1.8521103858947754 -0.34987443685531616
12.162038803100586 -1.8217154741287231 -0.3493475914001465
12.170538902282715 -1.796861171722412 -0.3494758605957031
12.167562484741211 -1.7701830863952637 -0.34959256649017334
12.167115211486816 -1.7440299987792969 -0.3494723439216614
12.158833503723145 -1.7171003818511963 -0.34957242012023926
12.149316787719727 -1.6896042823791504 -0.34919726848602295
12.119247436523438 -1.6594829559326172 -0.34854042530059814
12.123866081237793 -1.6340487003326416 -0.3485771417617798
12.125238418579102 -1.6083109378814697 -0.34851691126823425
12.109582901000977 -1.5802276134490967 -0.34841078519821167
12.11549186706543 -1.5554354190826416 -0.3484826385974884
12.102971076965332 -1.5279954671859741 -0.3483370542526245
12.093873977661133 -1.500915765762329 -0.3479803204536438
12.08336067199707 -1.4741560220718384 -0.3475872874259949
12.080657005310059 -1.4480818510055542 -0.3478599786758423
12.08786392211914 -1.4230668544769287 -0.3479838967323303
12.073588371276855 -1.3956823348999023 -0.347487211227417
12.067720413208008 -1.3691939115524292 -0.3475368022918701
12.047962188720703 -1.3413276672363281 -0.34688690304756165
12.0357666015625 -1.3146898746490479 -0.3482372462749481
12.030543327331543 -1.2884243726730347 -0.34800612926483154
12.013143539428711 -1.2610459327697754 -0.3474258780479431
11.995986938476562 -1.234081745147705 -0.346859335899353
11.98238468170166 -1.1817070245742798 -0.3470556139945984
11.985603332519531 -1.1564810276031494 -0.34707748889923096
11.956328392028809 -1.10285484790802 -0.3460898995399475
11.961280822753906 -1.0782830715179443 -0.34616702795028687
11.940918922424316 -1.025769591331482 -0.34588223695755005
11.949251174926758 -0.950548529624939 -0.34623903036117554
11.936543464660645 -0.8992676734924316 -0.3457644283771515
11.904315948486328 -0.8716986179351807 -0.34520530700683594
11.896232604980469 -0.8210537433624268 -0.3451663851737976
11.904617309570312 -0.7965136170387268 -0.34535929560661316
11.892107009887695 -0.7453833818435669 -0.3449035882949829
11.884175300598145 -0.7201303839683533 -0.34463024139404297
11.876702308654785 -0.6945158839225769 -0.3469802439212799
11.877037048339844 -0.6695074439048767 -0.3469458222389221
11.87222671508789 -0.6440962553024292 -0.34676432609558105
11.858741760253906 -0.6183867454528809 -0.34633323550224304
11.860228538513184 -0.5937876105308533 -0.346340537071228
11.848572731018066 -0.5681306719779968 -0.34596389532089233
11.842546463012695 -0.5429136157035828 -0.34575363993644714
11.840974807739258 -0.518220067024231 -0.34639838337898254
11.834175109863281 -0.4925958216190338 -0.3461683988571167
11.821622848510742 -0.4675006866455078 -0.3457724452018738
11.827803611755371 -0.4427385628223419 -0.345922589302063
11.80697250366211 -0.41712749004364014 -0.34528815746307373
11.807525634765625 -0.39261528849601746 -0.34527939558029175
11.80506706237793 -0.34276965260505676 -0.3451574444770813
11.788335800170898 -0.3173774480819702 -0.3446539640426636
11.77395248413086 -0.26779747009277344 -0.34419625997543335
11.764150619506836 -0.1931665688753128 -0.34416481852531433
11.651369094848633 0.0045608957298099995 -0.3417680263519287
11.6217041015625 0.053493425250053406 -0.34090346097946167
11.6109619140625 0.07753963023424149 -0.3405938744544983
11.612316131591797 0.10206400603055954 -0.3406393229961395
11.590686798095703 0.12622138857841492 -0.3400115966796875
11.588088989257812 0.15024442970752716 -0.33993998169898987
11.5946626663208 0.17510324716567993 -0.3401448130607605
11.601272583007812 0.19928458333015442 -0.3403468132019043
11.601860046386719 0.22379407286643982 -0.3406723141670227
11.594624519348145 0.24801795184612274 -0.3404781222343445
11.561314582824707 0.36876410245895386 -0.33959317207336426
11.575778007507324 0.39327311515808105 -0.34004494547843933
11.554086685180664 0.4169573187828064 -0.33942851424217224
11.539599418640137 0.4407057762145996 -0.33973610401153564
11.54396915435791 0.46486586332321167 -0.339889258146286
11.533746719360352 0.5131147503852844 -0.34006571769714355
11.55777359008789 0.5382180213928223 -0.3403918743133545
11.531852722167969 0.5856916308403015 -0.3401121497154236
11.525535583496094 0.6097668409347534 -0.3399656414985657
11.520023345947266 0.6577237844467163 -0.33987873792648315
11.507128715515137 0.7300052642822266 -0.33962804079055786
11.500347137451172 0.8021941781044006 -0.33956971764564514
11.473529815673828 0.873127818107605 -0.33893537521362305
11.468353271484375 0.9210367798805237 -0.33889082074165344
11.458234786987305 0.9930510520935059 -0.3383576273918152
11.455035209655762 1.0167274475097656 -0.33862078189849854
11.424839973449707 1.0625600814819336 -0.33785468339920044
11.43392276763916 1.0873422622680664 -0.33818966150283813
11.429128646850586 1.111236810684204 -0.338112473487854
11.417372703552246 1.1343064308166504 -0.3378375172615051
11.422805786132812 1.1587899923324585 -0.3380661904811859
11.414909362792969 1.1826300621032715 -0.3379080295562744
11.417373657226562 1.2068376541137695 -0.3380580544471741
11.419988632202148 1.2314971685409546 -0.3382102847099304
11.40157699584961 1.253743290901184 -0.3377436399459839
11.410804748535156 1.2787296772003174 -0.3380913734436035
11.411213874816895 1.303173303604126 -0.33818620443344116
11.421371459960938 1.328641414642334 -0.33856791257858276
11.394768714904785 1.3495185375213623 -0.33786511421203613
11.396389961242676 1.374403953552246 -0.33799633383750916
11.393682479858398 1.3980716466903687 -0.33800047636032104
11.402913093566895 1.4479751586914062 -0.3384557068347931
11.370473861694336 1.5165491104125977 -0.337357759475708
11.362726211547852 1.5395216941833496 -0.3369341790676117
11.358038902282715 1.5876262187957764 -0.3371570110321045
11.360100746154785 1.661207914352417 -0.3372322618961334
11.339437484741211 1.731065273284912 -0.3365201950073242
11.309181213378906 1.8481370210647583 -0.33617955446243286
11.314911842346191 1.8734824657440186 -0.33646708726882935
11.304315567016602 1.9206748008728027 -0.3361009955406189
11.28498649597168 1.9414936304092407 -0.3356460630893707
11.26057243347168 1.9861558675765991 -0.3347545266151428
11.259702682495117 2.0101046562194824 -0.3348509669303894
11.261850357055664 2.0350289344787598 -0.33504238724708557
11.258176803588867 2.05879282951355 -0.335063636302948
11.250078201293945 2.0814480781555176 -0.3349491059780121
11.25075912475586 2.1064412593841553 -0.33481335639953613
11.254491806030273 2.1313228607177734 -0.33505746722221375
11.244206428527832 2.1539735794067383 -0.33435356616973877
11.223138809204102 2.1743857860565186 -0.33385956287384033
11.232414245605469 2.2003767490386963 -0.33427149057388306
11.226598739624023 2.2238569259643555 -0.3338266909122467
11.214214324951172 2.24589204788208 -0.33359843492507935
11.207905769348145 2.2688302993774414 -0.3332619369029999
11.199799537658691 2.2921066284179688 -0.3331630825996399
11.183586120605469 2.312978982925415 -0.33282390236854553
11.160531997680664 2.3572659492492676 -0.332429438829422
11.160673141479492 2.381500005722046 -0.33217138051986694
11.145732879638672 2.403217315673828 -0.33187898993492126
11.132905006408691 2.424639940261841 -0.3316448926925659
11.130105972290039 2.4482336044311523 -0.3314250409603119
11.128995895385742 2.472925901412964 -0.33154869079589844
11.11093521118164 2.493119955062866 -0.3311624526977539
11.09454345703125 2.5140528678894043 -0.3308292329311371
11.074708938598633 2.558223247528076 -0.3301491439342499
11.028076171875 2.621004343032837 -0.32896071672439575
10.991436004638672 2.685408353805542 -0.32686254382133484
10.933971405029297 2.793323516845703 -0.32600730657577515
10.9180908203125 2.8627967834472656 -0.3253765106201172
10.906608581542969 2.883989095687866 -0.3252118229866028
10.902063369750977 2.9319655895233154 -0.32475200295448303
10.902399063110352 2.9563305377960205 -0.324944406747818
10.878263473510742 2.974452018737793 -0.3244114816188812
10.87559700012207 2.998288631439209 -0.324518084526062
10.864501953125 3.019503116607666 -0.32437407970428467
10.8480224609375 3.0399017333984375 -0.32338792085647583
10.838953018188477 3.061633586883545 -0.32330572605133057
10.836705207824707 3.0857152938842773 -0.3234328627586365
10.817106246948242 3.1047115325927734 -0.32304126024246216
10.826333999633789 3.131692409515381 -0.32282209396362305
10.798168182373047 3.1482625007629395 -0.3221791088581085
10.79720687866211 3.1726038455963135 -0.32234811782836914
10.78750228881836 3.1940860748291016 -0.32225602865219116
10.778112411499023 3.216364860534668 -0.32109007239341736
10.764520645141602 3.23665189743042 -0.3208845853805542
10.760520935058594 3.2602338790893555 -0.320969820022583
10.758264541625977 3.2842373847961426 -0.32110750675201416
10.74817180633545 3.3055548667907715 -0.32032322883605957
10.74338150024414 3.3292195796966553 -0.3203919529914856
10.708954811096191 3.342924118041992 -0.3195715546607971
10.71541976928711 3.3693618774414062 -0.3199721872806549
10.709650039672852 3.392704725265503 -0.3193293511867523
10.710865020751953 3.4175636768341064 -0.31957629323005676
10.687902450561523 3.4351119995117188 -0.3191070854663849
10.68719482421875 3.4596686363220215 -0.3193020820617676
10.690044403076172 3.4851160049438477 -0.31891578435897827
10.646989822387695 3.545703411102295 -0.31829410791397095
10.627616882324219 3.613630771636963 -0.3177022933959961
10.597698211669922 3.6779441833496094 -0.3168073296546936
10.576412200927734 3.720536231994629 -0.31595155596733093
10.555522918701172 3.7879247665405273 -0.31534796953201294
10.533645629882812 3.8552942276000977 -0.31472957134246826
10.519108772277832 3.8999838829040527 -0.3144965171813965
10.508259773254395 3.9210877418518066 -0.3140163719654083
10.496248245239258 3.9418680667877197 -0.31390511989593506
10.492408752441406 3.965290069580078 -0.31375205516815186
10.481989860534668 3.9865341186523438 -0.3132891058921814
10.464040756225586 4.005012035369873 -0.3130045533180237
10.460180282592773 4.028744697570801 -0.3128579258918762
10.45711898803711 4.052505016326904 -0.3126159906387329
10.431807518005371 4.068045616149902 -0.3121151030063629
10.424692153930664 4.090517997741699 -0.3118763267993927
10.415761947631836 4.112407684326172 -0.3118673861026764
10.410270690917969 4.135231018066406 -0.3115585446357727
10.403682708740234 4.157935619354248 -0.31133919954299927
10.400264739990234 4.182053565979004 -0.31150031089782715
10.377002716064453 4.198040962219238 -0.31066572666168213
10.377250671386719 4.223221778869629 -0.31065255403518677
10.365525245666504 4.2439775466918945 -0.31056857109069824
10.358898162841797 4.2666916847229 -0.3103538155555725
10.344438552856445 4.2858662605285645 -0.3099038004875183
10.34093952178955 4.31032133102417 -0.3096736669540405
10.322250366210938 4.327695846557617 -0.30938106775283813
10.326141357421875 4.354979515075684 -0.30948910117149353
10.300445556640625 4.369649410247803 -0.3085930645465851
10.28426742553711 4.388426780700684 -0.3083856701850891
10.279581069946289 4.411664962768555 -0.30823594331741333
10.280685424804688 4.4377336502075195 -0.3081461191177368
10.262192726135254 4.455474376678467 -0.307873010635376
10.238689422607422 4.521980285644531 -0.3073316216468811
10.225542068481445 4.567734241485596 -0.30682867765426636
10.21422290802002 4.588127136230469 -0.3067733645439148
10.18798828125 4.628005027770996 -0.30588483810424805
10.172338485717773 4.6982622146606445 -0.30561119318008423
10.132265090942383 4.757266044616699 -0.30433389544487
10.113306045532227 4.800447940826416 -0.30448639392852783
10.109045028686523 4.824469566345215 -0.3039775490760803
10.091964721679688 4.842500686645508 -0.3037719428539276
10.093097686767578 4.868837833404541 -0.3034254014492035
10.08314323425293 4.890170097351074 -0.3034326434135437
10.068755149841309 4.909472465515137 -0.30331259965896606
10.060674667358398 4.931400299072266 -0.30269142985343933
10.063360214233398 4.95896053314209 -0.3030845820903778
10.053136825561523 4.980325222015381 -0.3024062514305115
10.046964645385742 5.003577709197998 -0.30253636837005615
10.018592834472656 5.0154218673706055 -0.3019947111606598
10.025697708129883 5.045474052429199 -0.30184489488601685
10.00241756439209 5.060116767883301 -0.3014627993106842
9.997353553771973 5.0840888023376465 -0.3009490668773651
9.995695114135742 5.109379768371582 -0.30121737718582153
9.982439994812012 5.1290788650512695 -0.3011423349380493
9.96331787109375 5.145867824554443 -0.30020713806152344
9.963401794433594 5.172450065612793 -0.3005368411540985
9.9526948928833 5.193140029907227 -0.2998543977737427
9.945954322814941 5.216365337371826 -0.29998141527175903
9.933281898498535 5.236351013183594 -0.2995288372039795
9.911917686462402 5.251857757568359 -0.2989334464073181
9.911233901977539 5.278187274932861 -0.2992470860481262
9.910558700561523 5.304712772369385 -0.29968464374542236
9.896793365478516 5.323795318603516 -0.2993163466453552
9.892555236816406 5.348337173461914 -0.29912468791007996
9.871397972106934 5.363859176635742 -0.29882654547691345
9.864110946655273 5.386443138122559 -0.29825595021247864
9.8568754196167 5.40939998626709 -0.29838210344314575
9.837959289550781 5.426074028015137 -0.29786762595176697
9.829680442810059 5.448142051696777 -0.29755792021751404
9.827174186706543 5.473766326904297 -0.29754775762557983
9.815288543701172 5.494325637817383 -0.297133207321167
9.796567916870117 5.538160800933838 -0.29658329486846924
9.796689987182617 5.565089225769043 -0.29693394899368286
9.764699935913086 5.6014404296875 -0.29599088430404663
9.749279022216797 5.619515419006348 -0.2951872944831848
9.727852821350098 5.6618781089782715 -0.2949734032154083
9.711421966552734 5.7072038650512695 -0.2945159673690796
9.708587646484375 5.7326765060424805 -0.29438602924346924
9.687263488769531 5.77524471282959 -0.29378458857536316
9.66946029663086 5.792193412780762 -0.2933311462402344
9.665559768676758 5.817617416381836 -0.29438480734825134
9.638956069946289 5.828887939453125 -0.2935400903224945
9.632671356201172 5.852755069732666 -0.29343271255493164
9.626031875610352 5.876577854156494 -0.29320967197418213
9.608537673950195 5.893304347991943 -0.2927658259868622
9.57758903503418 5.902042865753174 -0.29179662466049194
9.58631420135498 5.93537712097168 -0.2921585738658905
9.558316230773926 5.945516586303711 -0.29127612709999084
9.552781105041504 5.970414161682129 -0.2912121117115021
9.534567832946777 5.986581802368164 -0.290630578994751
9.543798446655273 6.0203633308410645 -0.29101821780204773
9.530596733093262 6.04019832611084 -0.2905992865562439
9.519798278808594 6.061081886291504 -0.29036521911621094
9.508668899536133 6.082102298736572 -0.2900051176548004
9.489968299865723 6.09840726852417 -0.28953784704208374
9.482921600341797 6.121722221374512 -0.2893088459968567
9.44468879699707 6.125663757324219 -0.28784826397895813
9.423871040344238 6.139982223510742 -0.28760015964508057
9.39522647857666 6.149471759796143 -0.28642627596855164
9.370433807373047 6.161536693572998 -0.2860684096813202
9.341699600219727 6.170447826385498 -0.28489628434181213
9.291735649108887 6.165994644165039 -0.28377923369407654
9.264442443847656 6.1756134033203125 -0.2826547622680664
9.22947883605957 6.180347442626953 -0.281986266374588
9.196977615356445 6.186742782592773 -0.2817823588848114
9.149306297302246 6.182291507720947 -0.28043413162231445
9.134087562561035 6.199995040893555 -0.27997246384620667
9.08427906036377 6.194236755371094 -0.2785647511482239
9.061959266662598 6.206604957580566 -0.2778816223144531
9.020041465759277 6.206244468688965 -0.27672532200813293
8.994422912597656 6.216158866882324 -0.27566686272621155
8.962325096130371 6.221497535705566 -0.2750749886035919
8.92643928527832 6.224885940551758 -0.2737194895744324
8.897998809814453 6.232536792755127 -0.27285653352737427
8.826297760009766 6.237888336181641 -0.2708026170730591
8.808652877807617 6.252867221832275 -0.27038031816482544
8.749774932861328 6.266656875610352 -0.2687242329120636
8.715288162231445 6.269360542297363 -0.2676827013492584
8.685693740844727 6.276270866394043 -0.26652616262435913
8.641517639160156 6.271686553955078 -0.2652996778488159
8.591193199157715 6.290572166442871 -0.26391613483428955
8.564214706420898 6.298160552978516 -0.26310715079307556
8.524446487426758 6.297018051147461 -0.2620302140712738
8.501947402954102 6.30771017074585 -0.2613597512245178
8.473705291748047 6.314061641693115 -0.26025331020355225
8.440218925476074 6.317196846008301 -0.2603871524333954
8.41241455078125 6.323665618896484 -0.25955939292907715
8.39023494720459 6.334619998931885 -0.25864505767822266
8.350709915161133 6.332497596740723 -0.257840096950531
8.331060409545898 6.344870567321777 -0.25699955224990845
8.299458503723145 6.3488616943359375 -0.25643959641456604
8.260502815246582 6.346278190612793 -0.2550095021724701
8.229042053222656 6.349307060241699 -0.2538054585456848
8.214564323425293 6.366178035736084 -0.2537798285484314
8.172125816345215 6.360476493835449 -0.25224244594573975
8.139302253723145 6.362429618835449 -0.25163963437080383
8.117780685424805 6.373258113861084 -0.25076058506965637
8.090768814086914 6.379234313964844 -0.24970465898513794
8.064237594604492 6.385831356048584 -0.2492976188659668
8.033491134643555 6.389121055603027 -0.24813462793827057
8.007038116455078 6.3952531814575195 -0.24736112356185913
7.97199821472168 6.395208358764648 -0.24644461274147034
7.955963134765625 6.4095258712768555 -0.24573299288749695
7.928576469421387 6.414639949798584 -0.2453000545501709
7.897214889526367 6.417227745056152 -0.2441328465938568
7.875612258911133 6.426854610443115 -0.24351496994495392
7.832402229309082 6.419516086578369 -0.24234560132026672
7.812943458557129 6.430718421936035 -0.24153631925582886
7.777699947357178 6.428831100463867 -0.24075818061828613
7.754319667816162 6.437438011169434 -0.24045774340629578
7.732367515563965 6.4463653564453125 -0.23993608355522156
7.694237232208252 6.442021369934082 -0.2385549545288086
7.673274993896484 6.452069282531738 -0.2379733920097351
7.647815704345703 6.457801342010498 -0.23734137415885925
7.617397785186768 6.460041522979736 -0.23646917939186096
7.594175338745117 6.467490196228027 -0.2359108030796051
7.56948709487915 6.473613739013672 -0.23495399951934814
7.5365495681762695 6.473370552062988 -0.2340058982372284
7.5137939453125 6.480969429016113 -0.23346520960330963
7.4848175048828125 6.4831132888793945 -0.23237664997577667
7.462763786315918 6.4919657707214355 -0.23176945745944977
7.44028377532959 6.499583721160889 -0.23123635351657867
7.382984161376953 6.504550933837891 -0.22935806214809418
7.343256950378418 6.49666690826416 -0.2282903641462326
7.325467109680176 6.5088791847229 -0.22757019102573395
7.305742263793945 6.518532752990723 -0.22702862322330475
7.27327823638916 6.516726493835449 -0.2261863648891449
7.257518768310547 6.53061056137085 -0.22578690946102142
7.231146335601807 6.534087181091309 -0.2247905433177948
7.174715518951416 6.5381927490234375 -0.2232990860939026
7.148192405700684 6.541226863861084 -0.2225499451160431
7.1240129470825195 6.547116756439209 -0.22188709676265717
7.1021528244018555 6.554265975952148 -0.2213827222585678
7.0748796463012695 6.556334972381592 -0.220367431640625
7.043979644775391 6.555724143981934 -0.2194940447807312
7.026242256164551 6.5664801597595215 -0.2191253900527954
6.989550590515137 6.559749603271484 -0.21782617270946503
6.967981338500977 6.567225456237793 -0.21724054217338562
6.950554847717285 6.578089714050293 -0.2168838083744049
6.920501708984375 6.577730178833008 -0.21580064296722412
6.884167194366455 6.570439338684082 -0.21450763940811157
6.869938373565674 6.5841569900512695 -0.21449045836925507
6.846270561218262 6.589591026306152 -0.21360984444618225
6.825437068939209 6.596879005432129 -0.21280711889266968
6.789778709411621 6.589722156524658 -0.21178537607192993
6.7752251625061035 6.603761196136475 -0.21152549982070923
6.741802215576172 6.598522186279297 -0.2103355973958969
6.716265678405762 6.60120964050293 -0.20963628590106964
6.704468250274658 6.617493629455566 -0.2094651162624359
6.674764633178711 6.615577697753906 -0.20838531851768494
6.659884452819824 6.629092693328857 -0.20803281664848328
6.626602649688721 6.623396873474121 -0.20684975385665894
6.602069854736328 6.626321792602539 -0.20627367496490479
6.587908744812012 6.640419006347656 -0.2057027816772461
6.562328815460205 6.642147064208984 -0.20524245500564575
6.5388593673706055 6.646394729614258 -0.20437736809253693
6.5092973709106445 6.6442060470581055 -0.2033187448978424
6.491618633270264 6.653726577758789 -0.20320074260234833
6.4630656242370605 6.652833938598633 -0.20218369364738464
6.435368537902832 6.6518874168396 -0.20118150115013123
6.415949821472168 6.659414291381836 -0.2004404067993164
6.394996643066406 6.666108131408691 -0.20023325085639954
6.364112377166748 6.661531448364258 -0.19913452863693237
6.324034690856934 6.675642013549805 -0.19763310253620148
6.303215503692627 6.681382179260254 -0.1974172294139862
6.276885986328125 6.682012557983398 -0.19647812843322754
6.262223243713379 6.694186687469482 -0.19589373469352722
6.231473445892334 6.689085960388184 -0.19503939151763916
6.209877014160156 6.694520950317383 -0.1945766806602478
6.187600612640381 6.6983323097229 -0.19375696778297424
6.175814628601074 6.713470935821533 -0.19326867163181305
6.148395538330078 6.712386608123779 -0.19253699481487274
6.124829292297363 6.714581489562988 -0.19200393557548523
6.073812484741211 6.715235710144043 -0.19018150866031647
6.056089401245117 6.723635673522949 -0.18974359333515167
6.035693168640137 6.729844093322754 -0.18932181596755981
6.0065202713012695 6.725343227386475 -0.18852448463439941
5.995151519775391 6.74071741104126 -0.18773508071899414
5.965548515319824 6.736357688903809 -0.18703004717826843
5.943363666534424 6.739431858062744 -0.1862202286720276
5.924455642700195 6.746161460876465 -0.18574821949005127
5.9053850173950195 6.753487586975098 -0.18505515158176422
5.881309509277344 6.754188537597656 -0.18419241905212402
5.852850437164307 6.750571250915527 -0.18352195620536804
5.836565017700195 6.760079383850098 -0.1831354796886444
5.821783542633057 6.771315574645996 -0.18256741762161255
5.795514106750488 6.769963264465332 -0.1816524863243103
5.775763511657715 6.775301456451416 -0.18124449253082275
5.755169868469238 6.7795915603637695 -0.18049921095371246
5.731071472167969 6.780508995056152 -0.1798807978630066
