VERSION .7
FIELDS x y z
SIZE 4 4 4
TYPE F F F
COUNT 1 1 1
WIDTH 821
HEIGHT 1
VIEWPOINT 0 0 0 1 0 0 0
POINTS 821
DATA ascii
9.00726318359375 5.29177188873291 -0.14946874976158142
8.986599922180176 5.30474853515625 -0.1493181735277176
8.939682006835938 5.302232265472412 -0.1487179696559906
8.917656898498535 5.314820766448975 -0.14791026711463928
8.880538940429688 5.317704677581787 -0.1474866271018982
8.836484909057617 5.31640100479126 -0.14694756269454956
8.810725212097168 5.326437950134277 -0.14667485654354095
8.777111053466797 5.331018924713135 -0.14569026231765747
8.745926856994629 5.3370866775512695 -0.14524506032466888
8.700249671936035 5.334620952606201 -0.14452190697193146
8.672266006469727 5.342389106750488 -0.14378927648067474
8.640340805053711 5.348086357116699 -0.14339086413383484
8.595754623413086 5.3451924324035645 -0.14284129440784454
8.570144653320312 5.354091644287109 -0.1424676775932312
8.536469459533691 5.358310699462891 -0.14164124429225922
8.505937576293945 5.363783836364746 -0.14129669964313507
8.478429794311523 5.371786594390869 -0.14104820787906647
8.448460578918457 5.3774003982543945 -0.14012233912944794
8.416933059692383 5.382039546966553 -0.13978268206119537
8.381233215332031 5.384341239929199 -0.13940846920013428
8.348213195800781 5.387635231018066 -0.1390361785888672
8.326408386230469 5.398200511932373 -0.13824152946472168
8.275331497192383 5.390100479125977 -0.13756750524044037
8.266243934631348 5.408646583557129 -0.13764280080795288
8.225530624389648 5.406547546386719 -0.13655267655849457
8.19438362121582 5.411048412322998 -0.13618817925453186
8.159072875976562 5.412079811096191 -0.13580970466136932
8.098639488220215 5.4212446212768555 -0.13457512855529785
8.074975967407227 5.4298319816589355 -0.13437393307685852
8.015826225280762 5.43909215927124 -0.1331949532032013
6.632411003112793 -11.700355529785156 -0.07066570222377777
6.663334369659424 -11.69825267791748 -0.07073011249303818
6.758973598480225 -11.694595336914062 -0.07192964106798172
6.857376575469971 -11.694536209106445 -0.073675736784935
7.30364990234375 -11.655733108520508 -0.0800749883055687
7.405467987060547 -11.654736518859863 -0.08195233345031738
7.503907203674316 -11.647247314453125 -0.0832080990076065
7.547800064086914 -11.662149429321289 -0.0834280401468277
7.614596366882324 -11.657432556152344 -0.08520214259624481
7.645050525665283 -11.651174545288086 -0.08540201187133789
7.671998977661133 -11.63796615600586 -0.08612136542797089
7.719139575958252 -11.656760215759277 -0.08638982474803925
7.742015838623047 -11.63876724243164 -0.08651545643806458
7.776030540466309 -11.635923385620117 -0.08731792122125626
7.813629627227783 -11.639824867248535 -0.08761592954397202
7.849329948425293 -11.639199256896973 -0.08845794200897217
7.923549652099609 -11.644702911376953 -0.08889495581388474
7.955351829528809 -11.637910842895508 -0.08984886854887009
7.991049289703369 -11.638216018676758 -0.08998998254537582
8.060979843139648 -11.634754180908203 -0.09107829630374908
8.096916198730469 -11.634969711303711 -0.09192677587270737
8.124566078186035 -11.621670722961426 -0.0922454372048378
8.166881561279297 -11.630728721618652 -0.0926097184419632
8.199186325073242 -11.625362396240234 -0.09340924769639969
8.268898963928223 -11.6199951171875 -0.0945049524307251
8.299238204956055 -11.61154556274414 -0.09472593665122986
8.368555068969727 -11.604904174804688 -0.09568224847316742
8.483343124389648 -11.609541893005371 -0.09792743623256683
8.589305877685547 -11.600748062133789 -0.0991859957575798
8.702558517456055 -11.599272727966309 -0.10067353397607803
8.926411628723145 -11.590890884399414 -0.10409647971391678
8.990011215209961 -11.5723295211792 -0.105319544672966
9.027679443359375 -11.571173667907715 -0.10562870651483536
9.105020523071289 -11.569506645202637 -0.10684651136398315
9.136401176452637 -11.559940338134766 -0.10693326592445374
9.221111297607422 -11.566652297973633 -0.10827066749334335
9.256013870239258 -11.561129570007324 -0.10838311910629272
9.301773071289062 -11.567549705505371 -0.10955747216939926
9.341001510620117 -11.567098617553711 -0.11050666868686676
9.38636302947998 -11.574049949645996 -0.11166539788246155
9.42031478881836 -11.565324783325195 -0.1117648184299469
9.445815086364746 -11.54761028289795 -0.11192626506090164
9.485420227050781 -11.545857429504395 -0.11286227405071259
9.526772499084473 -11.547009468078613 -0.11305820941925049
9.569770812988281 -11.550214767456055 -0.11420759558677673
9.60395622253418 -11.5414457321167 -0.11431245505809784
9.640558242797852 -11.53641128540039 -0.11462768167257309
9.675378799438477 -11.529369354248047 -0.11549798399209976
9.721059799194336 -11.53367805480957 -0.11592046171426773
9.759697914123535 -11.530878067016602 -0.11685719341039658
9.803293228149414 -11.53376293182373 -0.11725912243127823
9.838836669921875 -11.525594711303711 -0.11738227307796478
9.88150691986084 -11.52705192565918 -0.11839641630649567
9.921988487243652 -11.524359703063965 -0.11888931691646576
9.966461181640625 -11.527547836303711 -0.1199013888835907
9.987784385681152 -11.503870964050293 -0.12002456933259964
10.085650444030762 -11.5182466506958 -0.12141260504722595
10.123555183410645 -11.513239860534668 -0.12175173312425613
10.205873489379883 -11.508755683898926 -0.12308862805366516
10.243691444396973 -11.502052307128906 -0.12324608117341995
10.32951545715332 -11.501704216003418 -0.12542790174484253
10.429848670959473 -11.466413497924805 -0.12667183578014374
10.575950622558594 -11.481195449829102 -0.12950807809829712
10.704788208007812 -11.47520637512207 -0.13114610314369202
10.784340858459473 -11.463552474975586 -0.13249167799949646
10.83025074005127 -11.464351654052734 -0.13276982307434082
10.917940139770508 -11.46010684967041 -0.13438433408737183
10.958550453186035 -11.455039024353027 -0.13475459814071655
11.045843124389648 -11.449365615844727 -0.13621635735034943
11.089141845703125 -11.446611404418945 -0.13643527030944824
11.136173248291016 -11.446368217468262 -0.13752232491970062
11.1835355758667 -11.447184562683105 -0.13799002766609192
11.215383529663086 -11.432228088378906 -0.1388889104127884
11.271010398864746 -11.440177917480469 -0.13945601880550385
11.309165954589844 -11.431122779846191 -0.14042937755584717
11.361215591430664 -11.435009002685547 -0.14176110923290253
11.399768829345703 -11.426054000854492 -0.1419597864151001
11.455424308776855 -11.434281349182129 -0.1425350159406662
11.538725852966309 -11.420825004577637 -0.1437707245349884
11.572566986083984 -11.406874656677246 -0.14487811923027039
11.629293441772461 -11.414149284362793 -0.14528048038482666
11.680158615112305 -11.416345596313477 -0.14582215249538422
11.711142539978027 -11.399205207824707 -0.14669516682624817
11.770992279052734 -11.40859317779541 -0.14717303216457367
11.8128662109375 -11.40173053741455 -0.14840573072433472
11.84936809539795 -11.388405799865723 -0.14853833615779877
11.91061019897461 -11.39957332611084 -0.1491866111755371
11.94998550415039 -11.389839172363281 -0.15024396777153015
12.047940254211426 -11.386756896972656 -0.15204156935214996
12.097197532653809 -11.385875701904297 -0.15237708389759064
12.18913459777832 -11.375980377197266 -0.15394200384616852
12.2423677444458 -11.37706470489502 -0.15449672937393188
12.333194732666016 -11.366205215454102 -0.15587015450000763
12.377640724182129 -11.358601570129395 -0.156305193901062
12.471633911132812 -11.348472595214844 -0.1587499976158142
12.775962829589844 -11.335061073303223 -0.16289380192756653
12.871588706970215 -11.323383331298828 -0.16454428434371948
12.920869827270508 -11.319022178649902 -0.16576680541038513
13.028728485107422 -11.317126274108887 -0.16671830415725708
13.08893871307373 -11.321617126464844 -0.16824473440647125
13.183454513549805 -11.306661605834961 -0.16882242262363434
13.223628044128418 -11.293575286865234 -0.17009469866752625
13.28516960144043 -11.297379493713379 -0.1706114113330841
13.341840744018555 -11.297710418701172 -0.17209765315055847
13.39067268371582 -11.291428565979004 -0.1724245548248291
13.440587043762207 -11.284717559814453 -0.1727410852909088
13.498544692993164 -11.2854642868042 -0.17425844073295593
13.541542053222656 -11.272591590881348 -0.17450593411922455
13.591636657714844 -11.266623497009277 -0.1750185489654541
13.605021476745605 -11.229928970336914 -0.17750883102416992
13.635780334472656 -11.206666946411133 -0.177554190158844
13.657110214233398 -11.176554679870605 -0.17855796217918396
13.673014640808105 -11.14227294921875 -0.1783980280160904
13.678906440734863 -11.098770141601562 -0.17830893397331238
13.711067199707031 -11.077519416809082 -0.1792740672826767
13.740013122558594 -11.052717208862305 -0.1792975813150406
13.746615409851074 -11.01111888885498 -0.17917615175247192
13.771978378295898 -10.984356880187988 -0.18005722761154175
13.798336029052734 -10.957473754882812 -0.18005922436714172
13.800298690795898 -10.912171363830566 -0.17987115681171417
13.82303524017334 -10.883604049682617 -0.1807021051645279
13.84309196472168 -10.851812362670898 -0.18081875145435333
13.877470016479492 -10.785829544067383 -0.18144728243350983
13.918878555297852 -10.724291801452637 -0.18236254155635834
13.943967819213867 -10.696468353271484 -0.1825171411037445
13.973268508911133 -10.626873970031738 -0.18308548629283905
14.002304077148438 -10.602062225341797 -0.18330885469913483
14.020126342773438 -10.522955894470215 -0.18369567394256592
14.057324409484863 -10.505341529846191 -0.18404465913772583
14.083685874938965 -10.432893753051758 -0.18649138510227203
14.17666244506836 -10.36437702178955 -0.1878008395433426
14.184072494506836 -10.278411865234375 -0.18716339766979218
14.211305618286133 -10.253235816955566 -0.18826638162136078
14.254464149475098 -10.19336986541748 -0.1891983449459076
14.286750793457031 -10.17147159576416 -0.1893307864665985
14.338286399841309 -10.117685317993164 -0.19044063985347748
14.335293769836426 -10.070832252502441 -0.1900627464056015
14.356122016906738 -10.039973258972168 -0.190068319439888
14.349222183227539 -9.99062728881836 -0.19050608575344086
14.358370780944824 -9.95281982421875 -0.1905784159898758
14.377485275268555 -9.920909881591797 -0.190570667386055
14.375715255737305 -9.875473022460938 -0.19108900427818298
14.390939712524414 -9.840988159179688 -0.19120638072490692
14.40320873260498 -9.805574417114258 -0.19114777445793152
14.421878814697266 -9.77430534362793 -0.19198815524578094
14.411962509155273 -9.722960472106934 -0.1917828470468521
14.455741882324219 -9.70866584777832 -0.19212818145751953
14.45346450805664 -9.619297981262207 -0.19433046877384186
14.465126037597656 -9.583566665649414 -0.1942170113325119
14.469412803649902 -9.542227745056152 -0.19504663348197937
14.493207931518555 -9.514822006225586 -0.19512124359607697
14.474703788757324 -9.459512710571289 -0.1945578157901764
14.495878219604492 -9.42945671081543 -0.1956307590007782
14.495022773742676 -9.386149406433105 -0.19536563754081726
14.497303009033203 -9.344748497009277 -0.19512037932872772
14.515374183654785 -9.312800407409668 -0.1961590200662613
14.523452758789062 -9.275260925292969 -0.1960180550813675
14.539591789245605 -9.242133140563965 -0.19599255919456482
14.552237510681152 -9.165360450744629 -0.196669802069664
14.562456130981445 -9.128637313842773 -0.19653886556625366
14.581974029541016 -9.055553436279297 -0.19732581079006195
14.600637435913086 -9.025214195251465 -0.19732218980789185
14.617508888244629 -8.950780868530273 -0.19809547066688538
14.627578735351562 -8.915263175964355 -0.1979670524597168
14.644157409667969 -8.841001510620117 -0.19873689115047455
14.675310134887695 -8.775693893432617 -0.20124222338199615
14.682940483093262 -8.73893928527832 -0.20128858089447021
14.69756031036377 -8.664027214050293 -0.20184096693992615
14.713820457458496 -8.63251781463623 -0.2020244151353836
14.730096817016602 -8.558884620666504 -0.2025793492794037
14.738239288330078 -8.522529602050781 -0.2026268094778061
14.742339134216309 -8.483152389526367 -0.20241320133209229
14.748684883117676 -8.446112632751465 -0.20312067866325378
14.754789352416992 -8.408771514892578 -0.20316585898399353
14.764740943908691 -8.372932434082031 -0.20304128527641296
14.769937515258789 -8.335197448730469 -0.20372745394706726
14.784852027893066 -8.30224323272705 -0.20390388369560242
14.801156044006348 -8.271044731140137 -0.2038932591676712
14.803085327148438 -8.231636047363281 -0.20450854301452637
14.813319206237793 -8.1961669921875 -0.20463424921035767
14.830192565917969 -8.125072479248047 -0.2052261233329773
14.837065696716309 -8.087897300720215 -0.20527318120002747
14.857172012329102 -8.05890941619873 -0.20535705983638763
14.865861892700195 -8.023523330688477 -0.20606864988803864
14.880363464355469 -7.990566730499268 -0.20623917877674103
14.893274307250977 -7.957508087158203 -0.20620881021022797
14.880763053894043 -7.910223960876465 -0.20742939412593842
14.89073371887207 -7.87593412399292 -0.2075231671333313
14.880475997924805 -7.830816745758057 -0.2079726606607437
14.880358695983887 -7.7904253005981445 -0.2077125906944275
14.876315116882324 -7.749017715454102 -0.207442507147789
14.896039009094238 -7.719819068908691 -0.20764541625976562
14.899515151977539 -7.6815032958984375 -0.20832239091396332
14.880084991455078 -7.63222599029541 -0.20777012407779694
14.87097454071045 -7.587686538696289 -0.20756852626800537
14.88551139831543 -7.556211948394775 -0.2083815634250641
14.863922119140625 -7.505361557006836 -0.20782402157783508
14.875608444213867 -7.472562789916992 -0.2079848349094391
14.88106632232666 -7.396984577178955 -0.20840857923030853
14.885334014892578 -7.360623359680176 -0.2084546685218811
14.897327423095703 -7.288635730743408 -0.2090114951133728
14.891622543334961 -7.247583389282227 -0.20869944989681244
14.90340518951416 -7.213980197906494 -0.2088620364665985
14.901325225830078 -7.174842834472656 -0.20941656827926636
14.903641700744629 -7.09879732131958 -0.20918823778629303
14.926895141601562 -7.071907043457031 -0.21014022827148438
14.919805526733398 -6.991763591766357 -0.21121160686016083
14.932801246643066 -6.96009635925293 -0.21139395236968994
14.925031661987305 -6.8801140785217285 -0.21082980930805206
14.93700122833252 -6.847874641418457 -0.2118157297372818
14.949580192565918 -6.777804374694824 -0.2116221785545349
14.93544864654541 -6.732970714569092 -0.21221581101417542
14.947155952453613 -6.700962543487549 -0.21220874786376953
14.962600708007812 -6.6704230308532715 -0.2122633457183838
14.948366165161133 -6.626040458679199 -0.21183067560195923
14.93779182434082 -6.584297180175781 -0.21250557899475098
14.952367782592773 -6.553492546081543 -0.212538480758667
14.957653045654297 -6.51795768737793 -0.21244685351848602
14.97436237335205 -6.488297939300537 -0.2135072499513626
14.94742488861084 -6.439612865447998 -0.21288220584392548
14.961548805236816 -6.408042907714844 -0.2129044234752655
14.95461368560791 -6.368378162384033 -0.21277296543121338
14.972593307495117 -6.338284492492676 -0.21366584300994873
14.974900245666504 -6.302648067474365 -0.21353818476200104
14.984451293945312 -6.269893169403076 -0.21351149678230286
14.98154067993164 -6.2313032150268555 -0.21344266831874847
14.979281425476074 -6.193932056427002 -0.21405029296875
14.996581077575684 -6.1644744873046875 -0.21413640677928925
14.988086700439453 -6.123787879943848 -0.214814692735672
14.865036964416504 -6.037545204162598 -0.21265709400177002
15.023777961730957 -5.99120569229126 -0.21562829613685608
15.008649826049805 -5.949103355407715 -0.21518030762672424
15.003255844116211 -5.873974800109863 -0.21552743017673492
15.012933731079102 -5.841862678527832 -0.2157040387392044
15.00733757019043 -5.767031669616699 -0.21524037420749664
15.018204689025879 -5.735467433929443 -0.21620416641235352
15.026643753051758 -5.666293144226074 -0.2160172462463379
15.01729965209961 -5.62720251083374 -0.21571189165115356
15.020085334777832 -5.591684341430664 -0.2165447175502777
15.020386695861816 -5.556333541870117 -0.21639670431613922
15.0441255569458 -5.493199348449707 -0.21661774814128876
15.038678169250488 -5.455867767333984 -0.2171596884727478
15.045088768005371 -5.351405143737793 -0.21698427200317383
15.065590858459473 -5.3224687576293945 -0.21793831884860992
15.067625045776367 -5.288043022155762 -0.21864230930805206
15.068164825439453 -5.252105236053467 -0.2186678946018219
15.069104194641113 -5.217387676239014 -0.21851332485675812
15.058109283447266 -5.178611755371094 -0.21898595988750458
15.066118240356445 -5.145400524139404 -0.2189590483903885
15.061799049377441 -5.109048843383789 -0.21894843876361847
14.704521179199219 -4.953664779663086 -0.21301043033599854
15.056692123413086 -5.036710739135742 -0.21930423378944397
15.05810832977295 -5.002462387084961 -0.21916234493255615
15.073140144348145 -4.971728801727295 -0.2191985547542572
15.072630882263184 -4.93690299987793 -0.21923452615737915
15.06450366973877 -4.899649143218994 -0.2197125256061554
15.087601661682129 -4.836994647979736 -0.2199314683675766
15.082771301269531 -4.800952434539795 -0.21972081065177917
15.094076156616211 -4.769063472747803 -0.2199181169271469
15.092134475708008 -4.734026908874512 -0.22052735090255737
15.114587783813477 -4.705628871917725 -0.22072672843933105
15.108200073242188 -4.669270992279053 -0.22067776322364807
15.097515106201172 -4.631667613983154 -0.22036603093147278
15.099935531616211 -4.597139835357666 -0.22101455926895142
15.111292839050293 -4.566354274749756 -0.2210591584444046
15.107455253601074 -4.530185222625732 -0.22085484862327576
15.117498397827148 -4.498837947845459 -0.22103245556354523
15.10849380493164 -4.4620490074157715 -0.22151930630207062
15.110795974731445 -4.427655220031738 -0.22216978669166565
15.127784729003906 -4.398565292358398 -0.22232772409915924
15.131762504577637 -4.365686416625977 -0.2224426418542862
15.124662399291992 -4.328660488128662 -0.22218847274780273
15.126605987548828 -4.29527473449707 -0.22288474440574646
15.104303359985352 -4.254095077514648 -0.2224045693874359
15.131237983703613 -4.227809906005859 -0.22287841141223907
15.124399185180664 -4.192082405090332 -0.22262708842754364
15.14214038848877 -4.162188529968262 -0.222760409116745
15.131473541259766 -4.125502109527588 -0.2232961356639862
15.150638580322266 -4.096968650817871 -0.2234683483839035
15.13435173034668 -4.057889938354492 -0.22324258089065552
15.131037712097168 -4.023362159729004 -0.22305229306221008
15.140693664550781 -3.991318702697754 -0.22307069599628448
15.13767147064209 -3.956944227218628 -0.2240367829799652
15.14742660522461 -3.9259302616119385 -0.22410717606544495
15.1365966796875 -3.8886349201202393 -0.22379495203495026
15.160537719726562 -3.8612661361694336 -0.22403943538665771
15.14201545715332 -3.7887144088745117 -0.22428123652935028
15.157983779907227 -3.7593021392822266 -0.22459162771701813
15.14822769165039 -3.722550392150879 -0.2243184745311737
15.141419410705566 -3.687575340270996 -0.224111407995224
15.176826477050781 -3.6628522872924805 -0.22533801198005676
15.175437927246094 -3.628228187561035 -0.22536572813987732
15.161225318908691 -3.591585636138916 -0.22502118349075317
15.175363540649414 -3.5607151985168457 -0.22592249512672424
15.140998840332031 -3.519516944885254 -0.22527045011520386
15.153213500976562 -3.489227771759033 -0.225312277674675
15.145132064819336 -3.4533143043518066 -0.2252902090549469
15.163259506225586 -3.424360752105713 -0.22545485198497772
15.161849975585938 -3.3909895420074463 -0.22610259056091309
15.159934997558594 -3.3565726280212402 -0.22593781352043152
15.163766860961914 -3.32442569732666 -0.22590366005897522
15.146341323852539 -3.286709785461426 -0.2255476415157318
15.158988952636719 -3.2565300464630127 -0.22577331960201263
15.156305313110352 -3.223064422607422 -0.22639021277427673
15.142271041870117 -3.1862845420837402 -0.226082444190979
15.139260292053223 -3.1528573036193848 -0.2261122316122055
15.147272109985352 -3.120960235595703 -0.22613462805747986
15.112936973571777 -3.0810258388519287 -0.2254592627286911
15.129311561584473 -3.0516767501831055 -0.22564420104026794
15.089452743530273 -3.0101051330566406 -0.22579443454742432
15.096633911132812 -2.978976249694824 -0.2258414477109909
15.111770629882812 -2.9493954181671143 -0.22603502869606018
15.09394645690918 -2.9124579429626465 -0.2256368100643158
15.09781265258789 -2.8807196617126465 -0.22558891773223877
15.096359252929688 -2.8470325469970703 -0.2264489233493805
15.110926628112793 -2.817318916320801 -0.22738242149353027
15.095696449279785 -2.782076597213745 -0.2270500659942627
15.085233688354492 -2.7468414306640625 -0.22676612436771393
15.087065696716309 -2.682529926300049 -0.22665458917617798
15.079700469970703 -2.648000717163086 -0.2266312688589096
15.08327865600586 -2.616374969482422 -0.2273581624031067
15.074728965759277 -2.5817320346832275 -0.22714000940322876
15.064528465270996 -2.5478177070617676 -0.22690477967262268
15.070433616638184 -2.483579158782959 -0.22686699032783508
15.087285995483398 -2.4542078971862793 -0.2272656112909317
15.062712669372559 -2.385140895843506 -0.22744762897491455
15.076303482055664 -2.3552324771881104 -0.22760628163814545
15.049781799316406 -2.3181657791137695 -0.2271008938550949
15.059136390686035 -2.2876250743865967 -0.2271612584590912
15.08481216430664 -2.258744239807129 -0.22753557562828064
15.073161125183105 -2.2248520851135254 -0.22821044921875
15.054444313049316 -2.1901776790618896 -0.22783982753753662
15.048837661743164 -2.156543731689453 -0.2276543825864792
15.051614761352539 -2.125074863433838 -0.22765684127807617
15.059478759765625 -2.061537027359009 -0.2291497141122818
15.04387092590332 -2.0276052951812744 -0.228826105594635
15.0416841506958 -1.994779109954834 -0.22891461849212646
15.050071716308594 -1.9639437198638916 -0.22898533940315247
15.049965858459473 -1.9321749210357666 -0.22893130779266357
15.054009437561035 -1.9001893997192383 -0.22891536355018616
15.051095008850098 -1.8679231405258179 -0.22881703078746796
15.046250343322754 -1.83486807346344 -0.22942331433296204
15.047999382019043 -1.803222417831421 -0.2293877899646759
15.035778045654297 -1.7701154947280884 -0.2292955368757248
15.024225234985352 -1.704636573791504 -0.22897985577583313
15.035003662109375 -1.6742647886276245 -0.22911685705184937
15.035585403442383 -1.6419939994812012 -0.22906866669654846
15.01955795288086 -1.6085362434387207 -0.2294919639825821
15.010031700134277 -1.5752650499343872 -0.22930586338043213
15.010570526123047 -1.543661117553711 -0.22927695512771606
15.024998664855957 -1.5136418342590332 -0.22944986820220947
15.016240119934082 -1.480536937713623 -0.22926455736160278
15.010544776916504 -1.4483551979064941 -0.22929196059703827
15.011566162109375 -1.4170180559158325 -0.22927606105804443
15.01858139038086 -1.3853178024291992 -0.22937017679214478
14.973711013793945 -1.3498470783233643 -0.22933492064476013
14.989652633666992 -1.287667155265808 -0.23099976778030396
15.023375511169434 -1.2591630220413208 -0.23149949312210083
14.988920211791992 -1.1927292346954346 -0.23101924359798431
14.989887237548828 -1.1292985677719116 -0.23097914457321167
15.002388000488281 -1.098935604095459 -0.231196790933609
14.979537963867188 -1.0338572263717651 -0.2314477264881134
14.971073150634766 -1.0020616054534912 -0.23125295341014862
14.978926658630371 -0.939239501953125 -0.2313639521598816
14.960959434509277 -0.9062039852142334 -0.23102569580078125
14.967265129089355 -0.8752432465553284 -0.23126059770584106
14.955536842346191 -0.8434193134307861 -0.23104584217071533
14.975530624389648 -0.8126301765441895 -0.23119649291038513
14.962060928344727 -0.7805898785591125 -0.23094160854816437
14.953457832336426 -0.7490285634994507 -0.2307681143283844
14.95930290222168 -0.7172879576683044 -0.23158228397369385
14.95423698425293 -0.6859438419342041 -0.23147350549697876
14.946884155273438 -0.6537847518920898 -0.23132342100143433
14.949966430664062 -0.622666597366333 -0.2313375324010849
14.94639778137207 -0.5914500951766968 -0.23127150535583496
14.957712173461914 -0.560069739818573 -0.23142686486244202
14.946133613586426 -0.5284067392349243 -0.23217058181762695
14.958000183105469 -0.4970071613788605 -0.23232631385326385
14.949348449707031 -0.4654926061630249 -0.23290540277957916
14.961505889892578 -0.4347950220108032 -0.2330819070339203
14.94053840637207 -0.4024163484573364 -0.23273098468780518
14.953363418579102 -0.3715375065803528 -0.23291462659835815
14.942363739013672 -0.3394981324672699 -0.23271703720092773
14.948443412780762 -0.3086009621620178 -0.23276588320732117
14.943991661071777 -0.2773129343986511 -0.2327413707971573
14.931482315063477 -0.24534615874290466 -0.23250094056129456
14.961503028869629 -0.2146114856004715 -0.2330126166343689
14.943382263183594 -0.18333560228347778 -0.23265425860881805
14.953094482421875 -0.15167966485023499 -0.23285137116909027
14.939456939697266 -0.12036442011594772 -0.23278196156024933
14.940876960754395 -0.05745116248726845 -0.23335403203964233
14.92950439453125 -0.026425542309880257 -0.2331814467906952
16.576744079589844 0.2490607500076294 -0.16858956217765808
16.531606674194336 0.6300746202468872 -0.16844718158245087
16.51340675354004 0.6637021899223328 -0.16829033195972443
16.518539428710938 0.7335994839668274 -0.16920728981494904
16.494028091430664 0.7669579386711121 -0.16897253692150116
16.53319549560547 0.8040292859077454 -0.16937147080898285
16.496994018554688 0.8710618019104004 -0.1690278947353363
16.47844123840332 0.9052380919456482 -0.16882680356502533
16.469581604003906 0.9390363097190857 -0.16877995431423187
16.442873001098633 0.9727575778961182 -0.16936710476875305
16.386240005493164 1.0376719236373901 -0.16885700821876526
16.386749267578125 1.0728553533554077 -0.16860410571098328
16.37270736694336 1.106062889099121 -0.16847844421863556
16.360008239746094 1.1744385957717896 -0.16840146481990814
16.338226318359375 1.20695960521698 -0.1681758165359497
16.29612159729004 1.2728755474090576 -0.1678367257118225
16.2630615234375 1.37320876121521 -0.16757604479789734
16.22167205810547 1.4724764823913574 -0.167254239320755
16.160724639892578 1.67305326461792 -0.16769304871559143
16.130111694335938 1.7724428176879883 -0.16750891506671906
16.107175827026367 1.8724771738052368 -0.16725417971611023
16.077770233154297 1.9377182722091675 -0.16702625155448914
16.045330047607422 1.9675978422164917 -0.16676411032676697
16.03362274169922 2.0685555934906006 -0.16677772998809814
16.005695343017578 2.133519172668457 -0.16660156846046448
15.980884552001953 2.1639740467071533 -0.16640177369117737
15.955900192260742 2.2290592193603516 -0.1662062406539917
15.964524269104004 2.264050245285034 -0.16635659337043762
15.936148643493652 2.294764518737793 -0.16527222096920013
15.924266815185547 2.3267953395843506 -0.16606152057647705
15.90784740447998 2.3581230640411377 -0.16593754291534424
15.927682876586914 2.3958475589752197 -0.1662149727344513
15.899578094482422 2.4253716468811035 -0.16595423221588135
15.903739929199219 2.460782766342163 -0.1660568118095398
15.88809585571289 2.492133140563965 -0.1659667193889618
15.876558303833008 2.524092197418213 -0.1659165322780609
15.870644569396973 2.5579240322113037 -0.1658858358860016
15.843514442443848 2.5872955322265625 -0.16568371653556824
15.835809707641602 2.6197874546051025 -0.1656918227672577
15.830848693847656 2.6537232398986816 -0.1655375361442566
15.814042091369629 2.6846566200256348 -0.16526201367378235
15.766336441040039 2.744919776916504 -0.16491761803627014
15.75795841217041 2.7771658897399902 -0.16487689316272736
15.747135162353516 2.8436875343322754 -0.16489115357398987
15.736379623413086 2.8754777908325195 -0.16480983793735504
15.701960563659668 2.9375782012939453 -0.16464203596115112
15.66047477722168 3.031834840774536 -0.16433419287204742
15.649818420410156 3.131969451904297 -0.16444358229637146
15.62758731842041 3.2308249473571777 -0.16442102193832397
15.555296897888184 3.317984104156494 -0.16392183303833008
15.55588150024414 3.4204909801483154 -0.16401425004005432
14.0646390914917 4.912101745605469 -0.14970384538173676
14.010425567626953 4.925812244415283 -0.14854829013347626
13.94417667388916 4.93601655960083 -0.14785465598106384
13.88176155090332 4.946363925933838 -0.14737381041049957
13.805384635925293 4.95241117477417 -0.14669819176197052
13.7390718460083 4.960826873779297 -0.14611658453941345
13.679668426513672 4.971490859985352 -0.14557355642318726
13.61461067199707 4.980798244476318 -0.1442582756280899
13.547795295715332 4.988255500793457 -0.14364975690841675
13.492359161376953 5.000450134277344 -0.1430504024028778
13.433798789978027 5.010627269744873 -0.14251410961151123
13.35753059387207 5.0137810707092285 -0.14182786643505096
13.286508560180664 5.01953125 -0.14122071862220764
13.226285934448242 5.02816915512085 -0.14067783951759338
13.156370162963867 5.032861709594727 -0.13933393359184265
13.111161231994629 5.04770040512085 -0.13880854845046997
13.032021522521973 5.04831075668335 -0.13812242448329926
12.983196258544922 5.0604071617126465 -0.13770298659801483
12.91892147064209 5.067172050476074 -0.13699838519096375
12.865625381469727 5.077098846435547 -0.1365453600883484
12.805095672607422 5.0847086906433105 -0.13531340658664703
12.741521835327148 5.090244770050049 -0.13473458588123322
12.677802085876465 5.0953216552734375 -0.13421157002449036
12.576763153076172 5.116339206695557 -0.13321051001548767
12.518427848815918 5.12291145324707 -0.1327192634344101
11.897873878479004 5.193270683288574 -0.12584255635738373
11.757156372070312 5.220224857330322 -0.12392251938581467
11.595139503479004 5.235799789428711 -0.12244915962219238
11.476749420166016 5.240503311157227 -0.1208159327507019
11.435324668884277 5.250430107116699 -0.12050274014472961
11.387138366699219 5.25694465637207 -0.11996185034513474
11.329116821289062 5.2594122886657715 -0.11949275434017181
11.285993576049805 5.26802396774292 -0.11915689706802368
11.240678787231445 5.275308609008789 -0.11815683543682098
11.182634353637695 5.277246952056885 -0.1176786869764328
11.132607460021973 5.281913757324219 -0.11715026199817657
11.084729194641113 5.287406921386719 -0.11675243079662323
11.064050674438477 5.306585311889648 -0.11664023995399475
11.001007080078125 5.304457187652588 -0.11609901487827301
10.946915626525879 5.307228088378906 -0.11505317687988281
10.887312889099121 5.306264400482178 -0.11443214863538742
10.856698989868164 5.319252967834473 -0.11420323699712753
10.805004119873047 5.322577953338623 -0.11379551887512207
10.76537036895752 5.330843448638916 -0.11349909752607346
10.712749481201172 5.333181381225586 -0.11243849247694016
10.683513641357422 5.346452236175537 -0.11213663965463638
10.636180877685547 5.350393295288086 -0.11173848807811737
10.589038848876953 5.354923248291016 -0.11114320904016495
10.545954704284668 5.360777378082275 -0.11019550263881683
10.506328582763672 5.368100166320801 -0.10993005335330963
10.449094772338867 5.36703634262085 -0.10943794995546341
10.40832805633545 5.373424530029297 -0.10917268693447113
10.363739967346191 5.377673625946045 -0.10807973146438599
10.314847946166992 5.380302906036377 -0.10773084312677383
10.277966499328613 5.388225555419922 -0.10741446167230606
10.250102996826172 5.401434898376465 -0.107240691781044
10.162041664123535 5.409165382385254 -0.10584831237792969
10.123580932617188 5.4163498878479 -0.1055908352136612
10.030933380126953 5.420578956604004 -0.10485117137432098
9.912776947021484 5.438179016113281 -0.10328216105699539
9.712568283081055 5.461767196655273 -0.10112960636615753
9.601449966430664 5.479012489318848 -0.09943549335002899
9.493669509887695 5.496912002563477 -0.09868933260440826
9.44662094116211 5.496004581451416 -0.09769017994403839
9.376276969909668 5.508062362670898 -0.09717719256877899
9.318442344665527 5.500129222869873 -0.09670679271221161
9.308747291564941 5.521129608154297 -0.09615970402956009
9.250688552856445 5.512800693511963 -0.09558923542499542
9.224594116210938 5.523222923278809 -0.09543418884277344
9.188387870788574 5.528120040893555 -0.09463054686784744
9.15533447265625 5.534266948699951 -0.0944342389702797
9.112396240234375 5.534163951873779 -0.09397979080677032
9.082895278930664 5.54284143447876 -0.09378057718276978
9.048857688903809 5.5478739738464355 -0.09302455931901932
9.004501342773438 5.546422004699707 -0.09269075095653534
8.977524757385254 5.5562944412231445 -0.09243214130401611
8.942309379577637 5.560197830200195 -0.09218798577785492
8.893411636352539 5.55604887008667 -0.09129142761230469
8.869668960571289 5.566963195800781 -0.09104710072278976
8.832013130187988 5.568909645080566 -0.09079021960496902
8.797615051269531 5.573522090911865 -0.0900123342871666
7.841424942016602 -11.628747940063477 -0.012327270582318306
8.125341415405273 -11.624032974243164 -0.01576775684952736
9.487554550170898 -11.549403190612793 -0.03166653588414192
9.5932035446167 -11.529467582702637 -0.03273281455039978
9.671551704406738 -11.524565696716309 -0.03375690430402756
9.80599308013916 -11.536696434020996 -0.03500752151012421
9.918911933898926 -11.521965980529785 -0.03686201944947243
11.343768119812012 -11.418366432189941 -0.05412591993808746
11.480257034301758 -11.411369323730469 -0.055408407002687454
11.532960891723633 -11.416275978088379 -0.05549801141023636
11.578104972839355 -11.412096977233887 -0.05581340938806534
11.621744155883789 -11.407658576965332 -0.0567069910466671
11.705713272094727 -11.393684387207031 -0.05789043754339218
11.761920928955078 -11.400956153869629 -0.05821382254362106
13.456266403198242 -11.202535629272461 -0.07805533707141876
13.592389106750488 -11.171940803527832 -0.07946959137916565
13.631866455078125 -11.15707015991211 -0.0795140266418457
13.68405818939209 -11.1510591506958 -0.0805271565914154
13.734050750732422 -11.144452095031738 -0.08078914880752563
13.836668014526367 -11.131409645080566 -0.08184613287448883
13.880748748779297 -11.119505882263184 -0.08210084587335587
13.959489822387695 -11.086393356323242 -0.08324436843395233
15.968599319458008 -10.725988388061523 -0.10639043152332306
16.037704467773438 -10.722760200500488 -0.10676446557044983
16.069717407226562 -10.695978164672852 -0.10781687498092651
16.077552795410156 -10.653114318847656 -0.10772527754306793
16.076433181762695 -10.603019714355469 -0.10760326683521271
16.102035522460938 -10.572021484375 -0.10876161605119705
16.12173843383789 -10.48806095123291 -0.10865181684494019
16.129364013671875 -10.445449829101562 -0.10970044881105423
16.427215576171875 -9.22542953491211 -0.12106055021286011
16.446735382080078 -9.100865364074707 -0.12380948662757874
16.450849533081055 -9.01285457611084 -0.12376904487609863
16.463478088378906 -8.9754056930542 -0.12464713305234909
16.486473083496094 -8.943611145019531 -0.12466998398303986
16.4769229888916 -8.848822593688965 -0.1244257315993309
16.480594635009766 -8.806778907775879 -0.12524288892745972
16.5009765625 -8.772407531738281 -0.12541648745536804
16.486488342285156 -8.720870971679688 -0.1252150535583496
16.514558792114258 -8.646906852722168 -0.1260681450366974
16.533506393432617 -8.613158226013184 -0.1262374222278595
16.538915634155273 -8.527613639831543 -0.1269509345293045
16.766977310180664 -7.559512138366699 -0.13534832000732422
16.790178298950195 -7.443321704864502 -0.13621923327445984
16.808359146118164 -7.367013931274414 -0.13624903559684753
16.81385040283203 -7.327690601348877 -0.1361760050058365
16.82686424255371 -7.207827568054199 -0.13897277414798737
16.821687698364258 -7.121918201446533 -0.13869400322437286
16.814847946166992 -7.07790994644165 -0.13869085907936096
16.77728271484375 -7.020115375518799 -0.1392652988433838
16.781776428222656 -6.9809370040893555 -0.13919520378112793
16.768035888671875 -6.934436798095703 -0.1389702707529068
16.757476806640625 -6.847572326660156 -0.1397581398487091
16.767932891845703 -6.811272144317627 -0.1398765742778778
16.756742477416992 -5.841651439666748 -0.14491084218025208
16.75556182861328 -5.723194599151611 -0.1447458565235138
16.7957706451416 -5.658219337463379 -0.14580273628234863
16.78263282775879 -5.614877223968506 -0.14556561410427094
16.81136703491211 -5.546039581298828 -0.1466929167509079
16.820194244384766 -5.510110378265381 -0.14667300879955292
16.825443267822266 -5.433474540710449 -0.1466573178768158
16.792356491088867 -5.384334087371826 -0.14716993272304535
16.815956115722656 -5.352474212646484 -0.1483013778924942
16.814260482788086 -5.313369274139404 -0.1481553316116333
16.819068908691406 -5.276525497436523 -0.14821109175682068
16.8217830657959 -5.238093376159668 -0.14814625680446625
16.842092514038086 -5.205941200256348 -0.1491355299949646
16.834623336791992 -5.165383338928223 -0.14899960160255432
16.832670211791992 -5.087320804595947 -0.14893025159835815
16.84697151184082 -5.052552700042725 -0.14991290867328644
16.84507179260254 -4.975715160369873 -0.14969946444034576
16.877273559570312 -4.148226261138916 -0.15451394021511078
16.880449295043945 -4.073855400085449 -0.1545249968767166
16.86990737915039 -4.034125328063965 -0.15452829003334045
16.85651397705078 -3.9561047554016113 -0.1551739126443863
16.86057472229004 -3.9200031757354736 -0.15511265397071838
16.850906372070312 -3.8431813716888428 -0.1550716757774353
16.856929779052734 -3.8076157569885254 -0.15503865480422974
16.855737686157227 -3.7696757316589355 -0.15586772561073303
16.86197280883789 -3.7341887950897217 -0.1558408886194229
16.875083923339844 -3.7003726959228516 -0.1560152769088745
16.843473434448242 -3.655902862548828 -0.1556696593761444
16.86269187927246 -3.623292922973633 -0.15578657388687134
16.84871482849121 -3.5837273597717285 -0.15559440851211548
16.86101722717285 -3.548868179321289 -0.15649183094501495
16.855979919433594 -3.5111401081085205 -0.15635818243026733
16.850788116455078 -3.3996713161468506 -0.1571241021156311
16.84067153930664 -3.3603601455688477 -0.15698841214179993
16.866443634033203 -3.2917041778564453 -0.15710985660552979
16.751861572265625 -2.616837978363037 -0.15912818908691406
16.739961624145508 -2.507277250289917 -0.15994229912757874
16.740795135498047 -2.4717416763305664 -0.15986961126327515
16.723051071166992 -2.3973536491394043 -0.15963910520076752
16.745235443115234 -2.364929437637329 -0.16079586744308472
16.7340087890625 -2.327045440673828 -0.16065767407417297
16.73552894592285 -2.291865825653076 -0.16062282025814056
16.73004150390625 -2.255603790283203 -0.16054141521453857
16.741497039794922 -2.2208964824676514 -0.1605658382177353
16.73055648803711 -2.148672103881836 -0.16039106249809265
16.71615982055664 -2.110685348510742 -0.1602334976196289
16.732221603393555 -2.077296495437622 -0.1611456274986267
16.718563079833984 -2.0394949913024902 -0.16101278364658356
16.723756790161133 -2.004915952682495 -0.16116861999034882
16.721750259399414 -1.9693337678909302 -0.16114626824855804
16.72121238708496 -1.9332141876220703 -0.1610729694366455
16.718463897705078 -1.8615808486938477 -0.160971999168396
16.710338592529297 -1.8255772590637207 -0.1617274284362793
16.698822021484375 -1.7531861066818237 -0.16259461641311646
16.686613082885742 -1.64591383934021 -0.1632358431816101
16.685659408569336 -1.5399672985076904 -0.16312949359416962
16.639122009277344 -1.113560676574707 -0.16344739496707916
16.643842697143555 -1.0088173151016235 -0.1642729640007019
16.62691879272461 -0.9029188752174377 -0.16578857600688934
16.63146209716797 -0.8684055805206299 -0.1658349484205246
16.613325119018555 -0.8320238590240479 -0.1656595766544342
16.62511444091797 -0.7980310916900635 -0.16574257612228394
16.61591148376465 -0.7628836035728455 -0.16578848659992218
16.61398696899414 -0.7273809909820557 -0.16573487222194672
16.620155334472656 -0.6929492950439453 -0.16581396758556366
16.631437301635742 -0.6588493585586548 -0.16590169072151184
16.621135711669922 -0.6230301856994629 -0.16665373742580414
16.619489669799805 -0.5882857441902161 -0.1664673388004303
16.616348266601562 -0.55278480052948 -0.16639600694179535
16.615638732910156 -0.5182446241378784 -0.16637998819351196
16.61687469482422 -0.4827535152435303 -0.1663828343153
16.614574432373047 -0.4481808841228485 -0.16638436913490295
16.60927963256836 -0.3780462145805359 -0.1662738174200058
16.605361938476562 -0.34348100423812866 -0.1662818342447281
16.616548538208008 -0.27370887994766235 -0.1665201187133789
16.595273971557617 -0.16901099681854248 -0.16720622777938843
16.573137283325195 -0.06459075957536697 -0.16787397861480713
10.525772094726562 5.462153434753418 -0.09401416778564453
10.061070442199707 5.519259452819824 -0.09027589857578278
8.774728775024414 5.662768840789795 -0.08002322912216187
8.649120330810547 5.659040451049805 -0.079202800989151
8.561708450317383 5.679033279418945 -0.07872466742992401
8.46578311920166 5.6923651695251465 -0.07754777371883392
8.404949188232422 5.703006267547607 -0.07710397988557816
8.366806030273438 5.702517509460449 -0.07686254382133484
8.305766105651855 5.7122907638549805 -0.07652127742767334
8.262304306030273 5.7076921463012695 -0.07623090595006943
8.19908332824707 5.715175628662109 -0.07525835186243057
8.107959747314453 5.727729797363281 -0.07475180178880692
7.288127899169922 5.818746566772461 -0.06785096228122711
7.198007583618164 5.8218674659729 -0.0673544853925705
7.119971752166748 5.833172798156738 -0.06650131195783615
7.065690517425537 5.8380022048950195 -0.06612415611743927
7.030342102050781 5.833987712860107 -0.0654471218585968
7.016892910003662 5.847458362579346 -0.06543365120887756
6.98625373840332 5.846658229827881 -0.06516726315021515
6.965151786804199 5.854219913482666 -0.06508444249629974
6.939947128295898 5.857654094696045 -0.06496341526508331
6.908932685852051 5.856795310974121 -0.0647909939289093
6.885714054107666 5.861713886260986 -0.064686119556427
6.865030765533447 5.868844032287598 -0.06414967030286789
6.81831169128418 5.854038238525391 -0.06373560428619385
6.7967529296875 5.860073089599609 -0.06364832818508148
6.776554584503174 5.867343425750732 -0.06357311457395554
6.754591941833496 5.873496055603027 -0.06348368525505066
6.723801612854004 5.871394634246826 -0.06330963224172592
6.694578647613525 5.8704071044921875 -0.06269745528697968
6.655040740966797 5.885498046875 -0.06246659532189369
6.585480690002441 5.898175239562988 -0.06216057389974594
6.506043434143066 5.901157379150391 -0.06122347339987755
6.137438774108887 5.929621696472168 -0.05844135954976082
6.066890716552734 5.9356560707092285 -0.0576058104634285
5.995354175567627 5.939891815185547 -0.05719197541475296
5.962088108062744 5.956898212432861 -0.05668649449944496
5.929387092590332 5.948863983154297 -0.05649440363049507
5.892726421356201 5.962091445922852 -0.0562950074672699
5.865799903869629 5.95953369140625 -0.0557323582470417
5.843350410461426 5.962024688720703 -0.05572802945971489
5.823519229888916 5.966631889343262 -0.055656831711530685
5.814056873321533 5.981721878051758 -0.055682968348264694
5.772442817687988 5.9642229080200195 -0.054899975657463074
5.758935451507568 5.975153923034668 -0.05489038676023483
5.736976623535156 5.977749824523926 -0.054803501814603806
5.719610691070557 5.984590530395508 -0.0547538660466671
5.693496227264404 5.982069969177246 -0.05462504178285599
5.670630931854248 5.98346471786499 -0.05402347818017006
5.6504926681518555 5.987176895141602 -0.05394912511110306
5.624452114105225 5.984414577484131 -0.05382029712200165
5.601195812225342 5.9852399826049805 -0.0537206195294857
5.590938091278076 5.999184608459473 -0.053654108196496964
5.559189796447754 5.989992141723633 -0.05305502936244011
5.540950775146484 5.995977878570557 -0.05300489440560341
5.527410507202148 6.006283760070801 -0.05299491807818413
5.481941223144531 6.007454872131348 -0.052714213728904724
5.458797931671143 6.007081031799316 -0.05220148712396622
5.417618751525879 6.012446880340576 -0.05204920843243599
5.388346195220947 6.004971504211426 -0.05188709497451782
5.350221633911133 6.01323938369751 -0.051272228360176086
5.326793670654297 6.011984348297119 -0.051250651478767395
5.263716220855713 6.0167012214660645 -0.050604138523340225
5.166800022125244 6.032556533813477 -0.04979337751865387
5.099225997924805 6.030596733093262 -0.04902738705277443
5.047210693359375 6.045760631561279 -0.04881037026643753
4.98616361618042 6.049538612365723 -0.048107925802469254
4.947089672088623 6.053274154663086 -0.04797245189547539
4.92620849609375 6.053942680358887 -0.04789499193429947
4.9052205085754395 6.053768634796143 -0.047420091927051544
4.8827900886535645 6.051846981048584 -0.047244466841220856
4.868638038635254 6.060624122619629 -0.04723115637898445
4.84083366394043 6.051691055297852 -0.04685337096452713
4.826943397521973 6.060823917388916 -0.046762578189373016
4.8180437088012695 6.075479030609131 -0.046795185655355453
4.794663429260254 6.071965217590332 -0.04669484868645668
4.772789478302002 6.070754051208496 -0.04621434584259987
4.745070457458496 6.061342239379883 -0.04598896950483322
4.7396626472473145 6.08051872253418 -0.04605790227651596
4.7060160636901855 6.063894748687744 -0.04585905000567436
4.694422245025635 6.075073719024658 -0.04586606100201607
4.679357528686523 6.081620693206787 -0.04537297040224075
4.653929710388184 6.075250625610352 -0.045254919677972794
4.638296604156494 6.081073760986328 -0.045223429799079895
4.6260457038879395 6.091824531555176 -0.04522901028394699
4.5951433181762695 6.077274322509766 -0.044587358832359314
4.5843586921691895 6.08936882019043 -0.044606518000364304
4.561775207519531 6.086254596710205 -0.04451097920536995
4.55231237411499 6.10009765625 -0.044542841613292694
4.536099910736084 6.104762077331543 -0.044428735971450806
4.503269672393799 6.087568283081055 -0.04385160282254219
4.491833686828613 6.098670959472656 -0.043864648789167404
4.4772233963012695 6.105976104736328 -0.043847642838954926
4.453644275665283 6.100325584411621 -0.043663449585437775
4.444286346435547 6.114243984222412 -0.043313268572092056
4.413834095001221 6.099570274353027 -0.04314345866441727
4.3971638679504395 6.103295803070068 -0.04280092567205429
4.380605220794678 6.106993675231934 -0.042764581739902496
4.348320484161377 6.116207599639893 -0.04261999949812889
4.327812194824219 6.114188194274902 -0.042542021721601486
4.30648946762085 6.1117095947265625 -0.04208444803953171
4.294040203094482 6.120979309082031 -0.042006999254226685
4.260533809661865 6.127946853637695 -0.04193232208490372
4.243304252624512 6.130270004272461 -0.041508693248033524
4.201573848724365 6.124941825866699 -0.041277673095464706
4.180516719818115 6.121439456939697 -0.04119514301419258
4.151010036468506 6.133540153503418 -0.04070444032549858
4.1223249435424805 6.118470668792725 -0.040551599115133286
4.104036331176758 6.119495868682861 -0.04049926623702049
4.0961761474609375 6.135260581970215 -0.04009753093123436
4.083152770996094 6.143322944641113 -0.040094152092933655
4.058660507202148 6.134860038757324 -0.039983391761779785
4.037174224853516 6.129989147186279 -0.039896056056022644
4.025127410888672 6.140073299407959 -0.039828747510910034
4.011030197143555 6.146488666534424 -0.03944380581378937
3.9937708377838135 6.147879600524902 -0.03940083086490631
3.9717564582824707 6.142675399780273 -0.039015885442495346
3.946185350418091 6.130993843078613 -0.03881867602467537
3.939781665802002 6.149045944213867 -0.03887774050235748
3.915050506591797 6.139279365539551 -0.03876475989818573
3.9089300632476807 6.157832145690918 -0.038460150361061096
3.888340473175049 6.154415130615234 -0.038308825343847275
3.8735294342041016 6.15924072265625 -0.03829025477170944
3.8496527671813965 6.149555206298828 -0.03818213939666748
3.831447124481201 6.149644374847412 -0.037688061594963074
3.8198602199554443 6.159489631652832 -0.037699926644563675
3.8002941608428955 6.156426429748535 -0.037631575018167496
3.781533718109131 6.155415058135986 -0.03757724538445473
3.7700982093811035 6.1654510498046875 -0.03751462325453758
3.747197151184082 6.156668663024902 -0.03704972565174103
3.7306370735168457 6.159048080444336 -0.037015702575445175
3.712556838989258 6.1579999923706055 -0.03688818961381912
3.6968655586242676 6.161703586578369 -0.036863263696432114
3.6827468872070312 6.167144775390625 -0.0364883691072464
3.6692628860473633 6.173633098602295 -0.03640470653772354
3.654090404510498 6.178116798400879 -0.03638460487127304
