VERSION .7
FIELDS x y z
SIZE 4 4 4
TYPE F F F
COUNT 1 1 1
WIDTH 852
HEIGHT 1
VIEWPOINT 0 0 0 1 0 0 0
POINTS 852
DATA ascii
32.15776443481445 2.4399962425231934 0.4571308493614197
32.018333435058594 2.496253490447998 0.45489799976348877
31.135807037353516 2.8217060565948486 0.43768757581710815
29.756542205810547 3.3908708095550537 0.41327375173568726
29.435209274291992 3.543226957321167 0.41090884804725647
29.317874908447266 3.5908396244049072 0.40902379155158997
28.771072387695312 3.8308401107788086 0.39877498149871826
28.69169807434082 3.8808836936950684 0.3974410891532898
28.579389572143555 3.927879810333252 0.39568081498146057
28.471755981445312 3.973304033279419 0.3940114974975586
28.36098861694336 4.0178632736206055 0.3921722173690796
28.253883361816406 4.064275741577148 0.3904779553413391
28.14716339111328 4.108560562133789 0.38755881786346436
28.05695915222168 4.156195640563965 0.38615256547927856
27.94663429260254 4.19956636428833 0.3844396770000458
27.850067138671875 4.244172096252441 0.38299718499183655
27.758270263671875 4.290877342224121 0.3814423680305481
27.681903839111328 4.337908744812012 0.3803054690361023
27.560951232910156 4.377572059631348 0.3782713711261749
27.4251651763916 4.416089057922363 0.3748893737792969
27.29464340209961 4.453199863433838 0.3725629448890686
27.2096004486084 4.497738838195801 0.37137794494628906
27.14293098449707 4.545882225036621 0.37140944600105286
26.9952449798584 4.578757286071777 0.37134379148483276
26.81171417236328 4.606571197509766 0.3679274916648865
26.631999969482422 4.632610321044922 0.3646973967552185
26.44817543029785 4.657198905944824 0.36027371883392334
26.259248733520508 4.681786060333252 0.3568722903728485
26.107046127319336 4.710567474365234 0.3540952205657959
25.595102310180664 4.7845258712768555 0.3451160192489624
25.074464797973633 4.850532531738281 0.33477795124053955
23.806625366210938 5.021605491638184 0.31156235933303833
23.387332916259766 5.086938381195068 0.30430448055267334
23.218708038330078 5.1018171310424805 0.30198928713798523
22.91950225830078 5.137349605560303 0.29883113503456116
22.756052017211914 5.150331020355225 0.29653623700141907
22.606155395507812 5.166152000427246 0.29437917470932007
22.472524642944336 5.185745716094971 0.29276716709136963
22.33064079284668 5.201834201812744 0.290596067905426
22.16632652282715 5.213505268096924 0.28863972425460815
22.030385971069336 5.229801177978516 0.2856132686138153
21.875286102294922 5.240959644317627 0.28373241424560547
21.752166748046875 5.260621070861816 0.28182452917099
21.57917594909668 5.266207695007324 0.27945566177368164
21.436519622802734 5.2785515785217285 0.27766555547714233
21.297212600708008 5.292527198791504 0.27553626894950867
21.166767120361328 5.306771755218506 0.2729167938232422
21.026309967041016 5.3193230628967285 0.2710692882537842
20.873308181762695 5.326727867126465 0.2690432667732239
20.734914779663086 5.337265491485596 0.26688024401664734
20.598176956176758 5.34901237487793 0.2652648091316223
20.484127044677734 5.364794731140137 0.26364755630493164
20.333511352539062 5.370844841003418 0.2606412172317505
20.2131404876709 5.384888648986816 0.2591142952442169
20.069713592529297 5.3913068771362305 0.2571641802787781
19.9432315826416 5.40210485458374 0.2555667757987976
19.815353393554688 5.412552356719971 0.2548639178276062
19.678062438964844 5.41895866394043 0.2523881196975708
19.557605743408203 5.430760860443115 0.25061675906181335
19.446834564208984 5.44349479675293 0.2492547482252121
19.318817138671875 5.451287269592285 0.24740636348724365
19.08014488220215 5.470427989959717 0.24344351887702942
18.75230598449707 5.504244327545166 0.23943452537059784
18.438068389892578 5.538500785827637 0.2345580756664276
17.908132553100586 5.58493709564209 0.2267915904521942
17.629886627197266 5.62001371383667 0.2235516756772995
17.54120635986328 5.63270378112793 0.22256596386432648
17.336637496948242 5.646839618682861 0.21906758844852448
17.22233009338379 5.649983882904053 0.21818476915359497
17.025127410888672 5.664815425872803 0.2140597701072693
16.925228118896484 5.670614719390869 0.21280165016651154
16.828136444091797 5.677294731140137 0.21150174736976624
16.722782135009766 5.681229114532471 0.2101062536239624
16.634328842163086 5.689709663391113 0.20838241279125214
16.53997802734375 5.696932792663574 0.20709703862667084
16.445558547973633 5.702615261077881 0.20595841109752655
16.35489273071289 5.709223747253418 0.2048361748456955
16.264169692993164 5.716559886932373 0.20369404554367065
16.18577766418457 5.726772308349609 0.2021118700504303
16.093103408813477 5.7319207191467285 0.2008056491613388
16.00054931640625 5.73716926574707 0.1996752917766571
15.904836654663086 5.740127086639404 0.1984093189239502
15.837339401245117 5.753271579742432 0.19768624007701874
15.746566772460938 5.758073806762695 0.19582633674144745
15.653671264648438 5.761289596557617 0.19471104443073273
15.569068908691406 5.7676167488098145 0.19354522228240967
15.493741989135742 5.776305198669434 0.19268588721752167
15.389436721801758 5.7741475105285645 0.19128593802452087
15.32889175415039 5.788491725921631 0.19018802046775818
15.239124298095703 5.790754795074463 0.18888132274150848
15.157917022705078 5.79624605178833 0.1880326271057129
15.076314926147461 5.80166482925415 0.1874735802412033
15.002817153930664 5.809476852416992 0.18522900342941284
14.83376693725586 5.815652370452881 0.18259739875793457
14.74695873260498 5.817273139953613 0.18163521587848663
14.602167129516602 5.831022262573242 0.17910584807395935
14.400463104248047 5.855708122253418 0.1768588423728943
14.169059753417969 5.86599588394165 0.17337971925735474
13.954557418823242 5.880224704742432 0.17041581869125366
13.81678581237793 5.890812873840332 0.1687076985836029
13.60895824432373 5.903583526611328 0.16559678316116333
13.55158519744873 5.912817478179932 0.1650334745645523
13.40580940246582 5.91586971282959 0.16327272355556488
13.345476150512695 5.923032760620117 0.16206784546375275
13.28793716430664 5.930837154388428 0.1604669839143753
13.215803146362305 5.932226657867432 0.15959875285625458
13.160272598266602 5.940144062042236 0.15878473222255707
13.08511734008789 5.939239978790283 0.15802732110023499
13.023845672607422 5.944713592529297 0.15676280856132507
12.95733642578125 5.946877479553223 0.15610629320144653
12.911813735961914 5.958754539489746 0.15560069680213928
12.841609954833984 5.95936393737793 0.15476885437965393
12.780101776123047 5.963383674621582 0.15404154360294342
12.708820343017578 5.962916374206543 0.15254510939121246
12.652162551879883 5.968399524688721 0.15210916101932526
12.583000183105469 5.9680256843566895 0.15127283334732056
12.53891372680664 5.979663372039795 0.1509450525045395
12.463130950927734 5.975595474243164 0.14954523742198944
12.404823303222656 5.979331016540527 0.14885647594928741
12.352445602416992 5.986341953277588 0.148281067609787
12.30083179473877 5.993176460266113 0.14789286255836487
12.234575271606445 5.99297571182251 0.14648674428462982
12.202518463134766 6.008702754974365 0.1462395042181015
12.130337715148926 6.004761695861816 0.14534057676792145
12.094608306884766 6.018983840942383 0.14508837461471558
12.019219398498535 6.012617588043213 0.14421261847019196
11.971205711364746 6.019981384277344 0.1430942267179489
11.905345916748047 6.01846981048584 0.14212095737457275
11.856356620788574 6.024919033050537 0.14118432998657227
11.793375015258789 6.023740291595459 0.1398952454328537
11.738666534423828 6.027160167694092 0.1392744481563568
11.684799194335938 6.0304646492004395 0.1388494372367859
11.588190078735352 6.0422539710998535 0.13727682828903198
11.523941040039062 6.039489269256592 0.13663546741008759
11.442852020263672 6.058554649353027 0.13584694266319275
11.280882835388184 6.063902854919434 0.1340028941631317
11.179123878479004 6.0700249671936035 0.13243591785430908
11.124503135681152 6.0702924728393555 0.1320018172264099
11.035232543945312 6.08203125 0.13092173635959625
10.954947471618652 6.068049430847168 0.12962685525417328
10.865843772888184 6.0780439376831055 0.12875996530056
10.820924758911133 6.083022594451904 0.1284332424402237
10.761747360229492 6.079459190368652 0.12723451852798462
10.726356506347656 6.088864326477051 0.12697558104991913
10.671856880187988 6.087828159332275 0.12560437619686127
10.632905960083008 6.095167636871338 0.12458115816116333
10.578506469726562 6.093184947967529 0.12422676384449005
10.537710189819336 6.099424362182617 0.12385357171297073
10.485223770141602 6.098405361175537 0.12356412410736084
10.444578170776367 6.1043853759765625 0.12257696688175201
10.39947509765625 6.107288837432861 0.12207706272602081
10.345887184143066 6.104728698730469 0.12158498167991638
10.29969310760498 6.106895446777344 0.12112933397293091
10.256641387939453 6.110447883605957 0.12031197547912598
10.213600158691406 6.114130973815918 0.1199355199933052
10.170234680175781 6.117149829864502 0.11946920305490494
10.12276554107666 6.117239952087402 0.11910121142864227
10.076367378234863 6.118351459503174 0.1181267723441124
10.029717445373535 6.1188225746154785 0.11763504892587662
9.98369026184082 6.119209289550781 0.11726396530866623
9.938994407653809 6.120786666870117 0.11632459610700607
9.904956817626953 6.12848424911499 0.1160244569182396
9.865004539489746 6.132110595703125 0.11567620187997818
9.83518123626709 6.142465591430664 0.11529466509819031
9.77273941040039 6.1319684982299805 0.11431727558374405
9.749330520629883 6.146073341369629 0.1143120527267456
9.6930513381958 6.139011859893799 0.1137518435716629
9.65753173828125 6.144632339477539 0.11358564347028732
9.61637020111084 6.14707088470459 0.11194898188114166
9.57015323638916 6.145809173583984 0.11190963536500931
34.553646087646484 -5.474608421325684 0.5052914023399353
35.46659851074219 -5.390937805175781 0.5138462781906128
44.154048919677734 -3.2380611896514893 0.6691371202468872
44.67136764526367 -3.086897850036621 0.6801522970199585
44.942562103271484 -3.0119330883026123 0.6853535175323486
45.50828170776367 -2.8573672771453857 0.6971907019615173
45.78573989868164 -2.779405117034912 0.7027084827423096
46.35315704345703 -2.617948293685913 0.7150229215621948
46.656368255615234 -2.5379457473754883 0.7213546633720398
47.25357437133789 -2.3708653450012207 0.7339468002319336
47.55794906616211 -2.287198066711426 0.7379443645477295
48.178733825683594 -2.1137073040008545 0.7506481409072876
48.526615142822266 -2.02807354927063 0.7577929496765137
49.191307067871094 -1.8483437299728394 0.7711169123649597
48.23075485229492 -1.5086956024169922 0.7565860152244568
46.24567413330078 -1.1551827192306519 0.7177411317825317
44.416831970214844 -0.8301509022712708 0.6798562407493591
29.573993682861328 1.3716822862625122 0.26568683981895447
29.278858184814453 1.542509913444519 0.26183366775512695
28.724838256835938 1.815887212753296 0.2566339671611786
28.396671295166016 1.9744441509246826 0.2535131871700287
25.531686782836914 3.617978811264038 0.2261359989643097
25.313520431518555 3.7495412826538086 0.22433067858219147
25.12193489074707 3.88271164894104 0.22173593938350677
24.973464965820312 3.9675207138061523 0.22048017382621765
24.708349227905273 4.084812641143799 0.21810831129550934
24.53195571899414 4.214254379272461 0.21561995148658752
20.38418960571289 4.884496212005615 0.17682678997516632
20.0418701171875 4.935900688171387 0.1732465922832489
19.685951232910156 4.979714393615723 0.1716320812702179
19.344158172607422 5.022852420806885 0.1680719256401062
19.1436824798584 5.056951522827148 0.16656823456287384
18.818241119384766 5.097753047943115 0.16315938532352448
15.553679466247559 5.430166721343994 0.13280729949474335
15.339693069458008 5.463886737823486 0.12996308505535126
15.070744514465332 5.475094318389893 0.1283167451620102
14.927486419677734 5.494322776794434 0.12732595205307007
14.837961196899414 5.496359825134277 0.12595736980438232
14.691585540771484 5.512610912322998 0.12488159537315369
14.612728118896484 5.517641067504883 0.12425616383552551
14.463382720947266 5.530956745147705 0.12251517176628113
12.475312232971191 5.726200103759766 0.10427392274141312
12.297775268554688 5.738581657409668 0.10253208130598068
12.132488250732422 5.754606246948242 0.10062907636165619
12.083734512329102 5.762229919433594 0.10033448785543442
12.030084609985352 5.768220901489258 0.09996926039457321
11.971384048461914 5.770660400390625 0.09909112751483917
11.853811264038086 5.775630950927734 0.09822776168584824
11.810813903808594 5.785041332244873 0.0980454534292221
11.700166702270508 5.792067527770996 0.0967608243227005
11.641880989074707 5.793323993682861 0.09635904431343079
10.204303741455078 5.906939506530762 0.08318471908569336
10.066095352172852 5.9117302894592285 0.08254639059305191
9.94709587097168 5.926257133483887 0.08141568303108215
6.092820167541504 6.216278553009033 0.06265462189912796
6.020408630371094 6.2201433181762695 0.061927955597639084
5.954456329345703 6.229901313781738 0.06124505028128624
5.901830673217773 6.227136135101318 0.06073480471968651
5.879021167755127 6.228908061981201 0.06025482714176178
5.840896129608154 6.240959644317627 0.06009729951620102
5.755185127258301 6.227389335632324 0.05890815332531929
5.082604885101318 6.273039817810059 0.050888027995824814
5.015224933624268 6.270057678222656 0.050442300736904144
4.953982830047607 6.273947238922119 0.04955542832612991
4.9070329666137695 6.268587112426758 0.049322303384542465
4.886013984680176 6.268493175506592 0.04894280061125755
4.840455055236816 6.264275550842285 0.048457395285367966
4.82596492767334 6.272383213043213 0.04846867546439171
4.804783344268799 6.272025108337402 0.04803410544991493
4.790643215179443 6.281031608581543 0.04745955765247345
4.767088413238525 6.277117729187012 0.04691595211625099
4.723177909851074 6.273983001708984 0.04652052000164986
4.699491500854492 6.269554138183594 0.04639028385281563
4.670596122741699 6.285991668701172 0.04602530226111412
4.658307075500488 6.2969970703125 0.046052236109972
4.608983039855957 6.285223007202148 0.04546869918704033
4.589710235595703 6.2865471839904785 0.04512292146682739
4.554876804351807 6.294033050537109 0.044845569878816605
4.5340800285339355 6.29304313659668 0.04480800777673721
4.187320232391357 6.300579071044922 0.04018229618668556
4.134516716003418 6.306777000427246 0.03971916809678078
4.095931053161621 6.305677890777588 0.039571210741996765
4.077472686767578 6.305868148803711 0.03915444761514664
4.040694236755371 6.3070855140686035 0.038779355585575104
4.021569728851318 6.306005477905273 0.03875589370727539
4.006625175476074 6.312274932861328 0.03844630345702171
3.9893152713775635 6.313925743103027 0.0383758582174778
3.9688096046447754 6.310434341430664 0.03801950439810753
3.9522547721862793 6.314000606536865 0.03800944238901138
3.9350411891937256 6.315603733062744 0.03761671856045723
3.9199867248535156 6.320629119873047 0.03766215592622757
3.9003148078918457 6.31900691986084 0.037239521741867065
3.8778839111328125 6.3119354248046875 0.036630600690841675
3.8638195991516113 6.319269180297852 0.03658367693424225
3.8481802940368652 6.323138236999512 0.03629657253623009
3.829869270324707 6.322556495666504 0.036244917660951614
3.8101067543029785 6.32036018371582 0.03588187322020531
3.794156551361084 6.323543071746826 0.03582917898893356
3.770266056060791 6.313942909240723 0.035461194813251495
3.7560205459594727 6.320163726806641 0.035462379455566406
3.738379955291748 6.32030725479126 0.03509378433227539
3.719261407852173 6.318749904632568 0.03500673174858093
3.707115411758423 6.328119277954102 0.03479550778865814
3.686307191848755 6.322646141052246 0.03469764068722725
3.650005340576172 6.321415901184082 0.03425970673561096
6.122128009796143 6.679850101470947 0.1368514448404312
6.057644367218018 6.665632247924805 0.13565976917743683
5.985355377197266 6.669856548309326 0.13464228808879852
5.914872169494629 6.675262451171875 0.13368362188339233
5.840567588806152 6.675483703613281 0.1321442723274231
5.779705047607422 6.690330505371094 0.13142524659633636
5.010626792907715 6.684638023376465 0.1185130774974823
4.99566650390625 6.693578720092773 0.11819685995578766
4.9508466720581055 6.692138671875 0.11746890842914581
4.921722412109375 6.68172550201416 0.11705430597066879
4.885959625244141 6.692012786865234 0.11659036576747894
4.859861373901367 6.6853532791137695 0.11590400338172913
4.839346408843994 6.686573028564453 0.11578856408596039
4.819866180419922 6.689389705657959 0.1153579130768776
4.806299209594727 6.699831008911133 0.1147225871682167
4.781036376953125 6.694211483001709 0.11443688720464706
4.754777908325195 6.68729305267334 0.1137872040271759
4.735565185546875 6.689624786376953 0.11370746791362762
4.692395210266113 6.6881914138793945 0.1129792258143425
4.672976016998291 6.690312385559082 0.11249017715454102
4.634246349334717 6.694429397583008 0.11190272122621536
4.575657844543457 6.699719429016113 0.1112130805850029
4.50540018081665 6.686722755432129 0.11004326492547989
4.158708572387695 6.70554780960083 0.1043315902352333
4.101305961608887 6.706759452819824 0.10336712002754211
4.080235958099365 6.703519344329834 0.10331068933010101
4.044395446777344 6.708083152770996 0.1028127670288086
4.029786109924316 6.715327262878418 0.10252462327480316
4.005178451538086 6.706752300262451 0.10224331170320511
3.984400510787964 6.703521728515625 0.10174821317195892
3.9644017219543457 6.702093601226807 0.101580910384655
3.950652599334717 6.710931777954102 0.10130906105041504
3.928156852722168 6.704504013061523 0.1010773628950119
3.9093148708343506 6.704801559448242 0.10063476860523224
3.894346237182617 6.711440086364746 0.10063280165195465
3.8752880096435547 6.71063756942749 0.10026275366544724
3.8564095497131348 6.711009502410889 0.09946129471063614
3.8433566093444824 6.720539569854736 0.09953256696462631
3.8167166709899902 6.706212043762207 0.09886275231838226
3.8054094314575195 6.719696044921875 0.09894917905330658
3.781987428665161 6.710776329040527 0.09834463894367218
3.7709827423095703 6.724184036254883 0.09848394989967346
3.742478370666504 6.706548690795898 0.0977216362953186
3.7296736240386963 6.716319561004639 0.09783010184764862
3.7093377113342285 6.713448524475098 0.09730633348226547
3.686892509460449 6.705661773681641 0.0970909595489502
3.681058168411255 6.728083610534668 0.09702832996845245
3.6590497493743896 6.721919536590576 0.09678889811038971
3.6394104957580566 6.719008445739746 0.09633222967386246
3.6166563034057617 6.710571765899658 0.09613770246505737
5.18940544128418 6.404853820800781 0.07972341030836105
5.075953483581543 6.401061058044434 0.07791721075773239
5.018688201904297 6.411225318908691 0.07699108868837357
4.948283672332764 6.4038214683532715 0.07564721256494522
4.267818450927734 6.422245979309082 0.0648294985294342
4.211981296539307 6.425487518310547 0.06379391998052597
4.175371170043945 6.428522109985352 0.06301897019147873
4.159907817840576 6.43390417098999 0.06301041692495346
4.118855953216553 6.4296369552612305 0.061993297189474106
4.096780300140381 6.424489974975586 0.06188887357711792
4.082417964935303 6.4316840171813965 0.06159203127026558
4.056235313415527 6.420392990112305 0.061076924204826355
4.036478519439697 6.418581008911133 0.061017416417598724
4.006363868713379 6.430633544921875 0.06022965908050537
3.982450008392334 6.421902656555176 0.06004010885953903
3.9454345703125 6.422443866729736 0.05922449752688408
3.9276437759399414 6.423654556274414 0.05903335288167
3.8920679092407227 6.425802230834961 0.05836565047502518
3.878847599029541 6.434391021728516 0.05831605941057205
3.8409759998321533 6.43235969543457 0.05758313462138176
3.8252296447753906 6.436620235443115 0.0573580302298069
3.7883241176605225 6.436084270477295 0.056646548211574554
5.200164794921875 6.847378730773926 0.14980070292949677
5.128471374511719 6.841855049133301 0.14845959842205048
5.061043739318848 6.841094017028809 0.1470651477575302
5.016563415527344 6.841038703918457 0.14622116088867188
4.954679012298584 6.846493721008301 0.1448974758386612
4.241247177124023 6.839230060577393 0.12990102171897888
4.181262493133545 6.838109016418457 0.12868084013462067
4.160426616668701 6.835866451263428 0.1281736195087433
4.126147747039795 6.844281196594238 0.12751039862632751
4.103346347808838 6.838512897491455 0.1268850415945053
4.085467338562012 6.841198444366455 0.1265169233083725
4.063722610473633 6.837582588195801 0.1262449473142624
4.044310092926025 6.837185859680176 0.12580035626888275
4.02336311340332 6.835052967071533 0.12527212500572205
4.005415439605713 6.836977005004883 0.1251351535320282
3.994349718093872 6.850645065307617 0.12476901710033417
3.9434735774993896 6.829323768615723 0.12376777827739716
3.930723190307617 6.84033203125 0.12332494556903839
3.8899178504943848 6.835451126098633 0.1226651519536972
3.87410831451416 6.841008186340332 0.12230831384658813
3.834782838821411 6.838572025299072 0.12163907289505005
3.8194680213928223 6.844516277313232 0.12132789939641953
3.7801642417907715 6.841637134552002 0.12045460939407349
3.723907947540283 6.841070175170898 0.11943092942237854
61.7805290222168 0.015916578471660614 1.540868878364563
62.171932220458984 0.14882251620292664 1.5529098510742188
62.52798080444336 0.27942442893981934 1.5635186433792114
63.671363830566406 0.6848092675209045 1.5992276668548584
50.43708801269531 2.3451344966888428 1.2346631288528442
49.94301986694336 2.4260425567626953 1.220804214477539
49.10340118408203 2.5925912857055664 1.198650598526001
48.59508514404297 2.66689395904541 1.1828938722610474
47.7576789855957 2.8227245807647705 1.1612672805786133
47.397579193115234 2.9001598358154297 1.1517118215560913
46.954376220703125 2.9737377166748047 1.1405010223388672
46.63099670410156 3.050427198410034 1.132503867149353
46.25412368774414 3.1229164600372314 1.1226948499679565
45.933441162109375 3.1991281509399414 1.1140315532684326
45.63227081298828 3.2733240127563477 1.1062766313552856
45.271549224853516 3.344675064086914 1.0967304706573486
44.97038650512695 3.4162726402282715 1.089294195175171
44.65003967285156 3.4851465225219727 1.0810956954956055
44.34128189086914 3.5563647747039795 1.0712300539016724
44.00758361816406 3.621530055999756 1.0628302097320557
43.77736282348633 3.696047067642212 1.0570685863494873
43.48426055908203 3.7629036903381348 1.0495469570159912
43.1866569519043 3.8274600505828857 1.0415394306182861
42.90593719482422 3.8949780464172363 1.0343825817108154
42.633670806884766 3.959482431411743 1.0275999307632446
42.37697219848633 4.026275157928467 1.019303798675537
42.08933639526367 4.087789058685303 1.011939525604248
41.824684143066406 4.149718284606934 1.005378007888794
41.060733795166016 4.334766864776611 0.9856348037719727
38.303932189941406 5.105466842651367 0.9144476056098938
38.12312698364258 5.161909580230713 0.9101808071136475
37.7582893371582 5.274534702301025 0.8990490436553955
37.55786895751953 5.326021194458008 0.8942371010780334
37.38964080810547 5.381988525390625 0.890290379524231
37.219207763671875 5.437990665435791 0.8860529661178589
37.021484375 5.488238334655762 0.8814998865127563
36.84999465942383 5.5426483154296875 0.8758086562156677
36.67718505859375 5.594514846801758 0.8718111515045166
36.51484680175781 5.647955894470215 0.8680417537689209
36.31751251220703 5.696261405944824 0.8624334335327148
36.154151916503906 5.748172760009766 0.8571313619613647
35.92681884765625 5.7884979248046875 0.8513033986091614
35.757102966308594 5.83891487121582 0.847489595413208
35.651222229003906 5.898240566253662 0.8451725244522095
35.38911056518555 5.931942939758301 0.8400092124938965
35.0642204284668 5.9523210525512695 0.8295745253562927
34.799591064453125 5.982348918914795 0.8229209184646606
34.50322341918945 6.0066914558410645 0.8154036402702332
34.230506896972656 6.032429218292236 0.8084878921508789
33.91514205932617 6.051580905914307 0.7988395094871521
33.55785369873047 6.059711456298828 0.7905617952346802
33.26172637939453 6.078155040740967 0.7835452556610107
32.955482482910156 6.094364166259766 0.7757226228713989
32.654319763183594 6.108778476715088 0.7674551010131836
32.342247009277344 6.120491027832031 0.7601140141487122
32.02079391479492 6.129945755004883 0.7524456977844238
31.734458923339844 6.143426895141602 0.7455464601516724
31.41443634033203 6.151126384735107 0.7366685271263123
31.156238555908203 6.167732238769531 0.7306420803070068
30.886402130126953 6.18153190612793 0.724348247051239
30.642269134521484 6.200202941894531 0.7181603908538818
30.369586944580078 6.210659503936768 0.7106009125709534
30.106412887573242 6.223872184753418 0.7043794393539429
29.852249145507812 6.235954284667969 0.6986790895462036
29.557056427001953 6.238330841064453 0.6916136145591736
29.310766220092773 6.251782417297363 0.6847779154777527
29.054283142089844 6.2601399421691895 0.6781952381134033
28.8223876953125 6.274635314941406 0.6730056405067444
28.58547592163086 6.285219192504883 0.6675173044204712
28.331134796142578 6.290959358215332 0.6616648435592651
28.108489990234375 6.304556846618652 0.6566579937934875
27.868976593017578 6.31160831451416 0.6498663425445557
27.63481330871582 6.3188934326171875 0.6440725326538086
27.433637619018555 6.334591388702393 0.6396932601928711
27.21783447265625 6.3442840576171875 0.6347922682762146
26.991846084594727 6.3524322509765625 0.6285080909729004
26.767181396484375 6.35821008682251 0.6233001351356506
26.52134895324707 6.357986927032471 0.6175882816314697
26.32100486755371 6.369448661804199 0.6112580895423889
26.102258682250977 6.373881816864014 0.606805682182312
25.92182731628418 6.386851787567139 0.6029073596000671
25.7083740234375 6.392542839050293 0.5980271100997925
25.50222396850586 6.397506237030029 0.591731071472168
25.309274673461914 6.406095504760742 0.5873602032661438
25.117637634277344 6.413586139678955 0.5830930471420288
24.92095184326172 6.41848087310791 0.5775196552276611
24.722469329833984 6.423708438873291 0.5729993581771851
24.550212860107422 6.433365345001221 0.5692082643508911
24.388742446899414 6.446268558502197 0.5641822814941406
24.20850372314453 6.452895164489746 0.5600349307060242
24.020069122314453 6.456085205078125 0.5557278394699097
23.834712982177734 6.4608917236328125 0.5506014823913574
23.65523338317871 6.464965343475342 0.5464717745780945
23.468109130859375 6.467252731323242 0.5419470071792603
23.311080932617188 6.476536750793457 0.5383142828941345
23.155302047729492 6.485047340393066 0.5340518951416016
22.98855209350586 6.490863800048828 0.5302258133888245
22.83283233642578 6.498558044433594 0.527044415473938
22.669185638427734 6.502866744995117 0.5223743319511414
22.51857566833496 6.511289119720459 0.5186136960983276
22.371129989624023 6.519456386566162 0.5153265595436096
22.209821701049805 6.523488998413086 0.5106134414672852
22.04947853088379 6.5265913009643555 0.506963312625885
21.911888122558594 6.535350799560547 0.5044630169868469
21.75518226623535 6.538792610168457 0.49959900975227356
21.58999252319336 6.538481712341309 0.49602001905441284
21.15716552734375 6.552886009216309 0.48534053564071655
20.713254928588867 6.558383941650391 0.47486934065818787
20.439579010009766 6.566567897796631 0.4680768847465515
20.019943237304688 6.570882797241211 0.45783865451812744
19.756975173950195 6.576869010925293 0.45131149888038635
19.631349563598633 6.580333709716797 0.4483664631843567
19.389968872070312 6.590388774871826 0.44246459007263184
19.252708435058594 6.589223861694336 0.43967634439468384
19.16095733642578 6.602273941040039 0.4369167983531952
19.020801544189453 6.59859037399292 0.4334990978240967
18.89198112487793 6.598730087280273 0.4308180809020996
18.770389556884766 6.5999956130981445 0.4275157153606415
18.65981674194336 6.605940341949463 0.42567169666290283
18.544307708740234 6.608384132385254 0.4219490885734558
18.442569732666016 6.615706443786621 0.4200272560119629
18.341754913330078 6.62338924407959 0.41800689697265625
18.230045318603516 6.625845909118652 0.4148653447628021
18.156585693359375 6.642242908477783 0.4136069416999817
18.044845581054688 6.6446990966796875 0.4100877046585083
17.944608688354492 6.650108814239502 0.40818360447883606
17.822023391723633 6.648014068603516 0.4056014120578766
17.70704460144043 6.647014617919922 0.40232089161872864
17.583717346191406 6.642784118652344 0.3998280167579651
17.483592987060547 6.647274494171143 0.39669322967529297
17.36454200744629 6.64328670501709 0.3941493332386017
17.271514892578125 6.649212837219238 0.3915826678276062
17.170082092285156 6.651917934417725 0.3894769251346588
17.052547454833984 6.647115707397461 0.38670119643211365
16.9395809173584 6.644800186157227 0.38360199332237244
16.853755950927734 6.651524543762207 0.3818897008895874
16.75554656982422 6.653372764587402 0.379292368888855
16.643592834472656 6.649726390838623 0.37695255875587463
16.57028579711914 6.660345077514648 0.3751332461833954
16.362327575683594 6.65693473815918 0.37023597955703735
16.274734497070312 6.660694599151611 0.3677735924720764
15.994096755981445 6.663533687591553 0.36113712191581726
15.014009475708008 6.666835784912109 0.3376443684101105
14.767187118530273 6.668688774108887 0.33192405104637146
14.529354095458984 6.671568393707275 0.32569995522499084
14.449224472045898 6.671115875244141 0.3241882920265198
14.359889030456543 6.667121410369873 0.32177039980888367
14.287163734436035 6.669430732727051 0.3204464316368103
14.206768989562988 6.667842388153076 0.3179124593734741
14.14085578918457 6.6738057136535645 0.3166886568069458
14.078681945800781 6.680220603942871 0.31499722599983215
13.9814453125 6.6703596115112305 0.3129867911338806
13.904297828674316 6.669360160827637 0.3108944296836853
13.835651397705078 6.671786785125732 0.3094177544116974
13.747536659240723 6.665529727935791 0.3069917559623718
13.672370910644531 6.664163589477539 0.30555713176727295
13.619773864746094 6.673540115356445 0.30467042326927185
13.559337615966797 6.6798858642578125 0.30276060104370117
13.476461410522461 6.673846244812012 0.3011114299297333
13.398187637329102 6.670416831970215 0.29898759722709656
13.323380470275879 6.668054580688477 0.2976321876049042
13.260934829711914 6.671247482299805 0.29544931650161743
13.201789855957031 6.6765289306640625 0.29388368129730225
13.13615608215332 6.677947044372559 0.29282453656196594
12.997224807739258 6.676349639892578 0.28935950994491577
12.935513496398926 6.678612232208252 0.28757616877555847
12.806427001953125 6.680423736572266 0.28475382924079895
12.73100471496582 6.67472505569458 0.28301969170570374
11.469718933105469 6.673496723175049 0.25281861424446106
11.366334915161133 6.677574157714844 0.2502292990684509
11.30710506439209 6.674378871917725 0.2487146556377411
11.2014741897583 6.675797462463379 0.24622096121311188
11.150630950927734 6.677499294281006 0.2452845573425293
11.0474853515625 6.678497314453125 0.24231413006782532
10.990832328796387 6.676034450531006 0.24140001833438873
10.941387176513672 6.677437782287598 0.23983155190944672
10.876505851745605 6.668858051300049 0.2386290431022644
10.823809623718262 6.668089866638184 0.2372940182685852
10.778952598571777 6.671667098999023 0.23663954436779022
10.724735260009766 6.669523239135742 0.23483063280582428
10.667402267456055 6.664607524871826 0.2338559329509735
10.63987922668457 6.678462982177734 0.2330613136291504
10.573637008666992 6.668102264404297 0.231935515999794
10.521625518798828 6.666170120239258 0.23026084899902344
10.419662475585938 6.662919998168945 0.22762849926948547
10.386459350585938 6.672405242919922 0.22638022899627686
10.277585983276367 6.6634674072265625 0.22408998012542725
10.231291770935059 6.6639580726623535 0.2233283817768097
10.142288208007812 6.666680812835693 0.22073571383953094
9.162853240966797 6.648046493530273 0.19789856672286987
9.043668746948242 6.649305820465088 0.19504909217357635
8.926526069641113 6.650034427642822 0.19230344891548157
8.849334716796875 6.650114059448242 0.19025689363479614
8.803735733032227 6.645026206970215 0.1891631782054901
8.723273277282715 6.641598701477051 0.1873171627521515
8.687444686889648 6.643389701843262 0.18643027544021606
8.615483283996582 6.646045684814453 0.18492960929870605
8.584577560424805 6.650667190551758 0.18443068861961365
8.543672561645508 6.647687911987305 0.18333767354488373
8.488725662231445 6.633800029754639 0.18193873763084412
8.463338851928711 6.642295837402344 0.18149106204509735
8.376169204711914 6.631075859069824 0.17935802042484283
8.343713760375977 6.633594512939453 0.17865891754627228
8.276793479919434 6.637472629547119 0.17702317237854004
8.24093246459961 6.6368608474731445 0.17659249901771545
7.244272232055664 6.627758026123047 0.1534016728401184
7.152822494506836 6.627176284790039 0.15135467052459717
7.053228855133057 6.617788314819336 0.14905859529972076
7.0277791023254395 6.621387004852295 0.14867737889289856
6.967912673950195 6.620595932006836 0.14715436100959778
6.9365553855896 6.618246555328369 0.14655038714408875
6.8988494873046875 6.610481262207031 0.1456901729106903
6.870785713195801 6.610994338989258 0.144981250166893
6.821103096008301 6.61873722076416 0.1439090371131897
6.787788391113281 6.6138153076171875 0.1435060352087021
6.702182292938232 6.613045692443848 0.14161522686481476
6.613741874694824 6.608352184295654 0.13965825736522675
5.791396141052246 6.593249320983887 0.12132596969604492
5.718145370483398 6.592991828918457 0.11978267878293991
5.669323921203613 6.592589378356934 0.11851293593645096
5.643739700317383 6.590452194213867 0.11778523772954941
5.600836753845215 6.596381664276123 0.117178775370121
5.57099723815918 6.588902473449707 0.11662499606609344
5.523870468139648 6.589249610900879 0.11559264361858368
5.502475738525391 6.591464042663574 0.11524802446365356
5.450054168701172 6.584839820861816 0.11402904987335205
5.387030124664307 6.592634201049805 0.11266552656888962
5.315737724304199 6.589502334594727 0.1108207106590271
5.246097564697266 6.587492942810059 0.10944603383541107
4.633614540100098 6.577047348022461 0.09643161296844482
4.565822124481201 6.568133354187012 0.09471122920513153
4.508525371551514 6.573502540588379 0.09357801824808121
4.447881698608398 6.573297500610352 0.09235604107379913
4.405725479125977 6.5704450607299805 0.09126290678977966
4.391490936279297 6.578690528869629 0.09098592400550842
4.34912109375 6.575014114379883 0.09014624357223511
4.33397102355957 6.581752777099609 0.08980032801628113
4.288721084594727 6.5731353759765625 0.0886620432138443
4.263780117034912 6.56463623046875 0.08807795494794846
4.2346038818359375 6.580217361450195 0.08779165148735046
12.797647476196289 -10.789939880371094 0.30446091294288635
12.940671920776367 -10.772075653076172 0.30729517340660095
13.088732719421387 -10.75674819946289 0.31085205078125
13.19149112701416 -10.748440742492676 0.3128698170185089
13.250843048095703 -10.75112533569336 0.3143894076347351
13.34012222290039 -10.730712890625 0.31647178530693054
13.504638671875 -10.723918914794922 0.3205116391181946
14.881983757019043 -10.59465217590332 0.35096752643585205
15.050966262817383 -10.57301139831543 0.354763925075531
15.227295875549316 -10.55368423461914 0.3579888939857483
15.351875305175781 -10.545452117919922 0.3609723448753357
15.41650390625 -10.541966438293457 0.3627721667289734
15.53164291381836 -10.525838851928711 0.3651637136936188
15.59149169921875 -10.518388748168945 0.3660026788711548
15.6512451171875 -10.510979652404785 0.36800089478492737
15.705506324768066 -10.500194549560547 0.369515597820282
15.771925926208496 -10.496443748474121 0.37051913142204285
15.834572792053223 -10.49026107788086 0.3721727728843689
15.898061752319336 -10.484049797058105 0.37323224544525146
15.965568542480469 -10.48109245300293 0.375474214553833
16.023788452148438 -10.47126579284668 0.3763507008552551
16.091524124145508 -10.467072486877441 0.3781241178512573
16.155807495117188 -10.460708618164062 0.3790610134601593
16.216533660888672 -10.452332496643066 0.3808004558086395
16.348445892333984 -10.440166473388672 0.38395512104034424
16.547775268554688 -10.421586990356445 0.3878591060638428
16.752124786376953 -10.403778076171875 0.3925747275352478
16.951749801635742 -10.380653381347656 0.3969309628009796
17.6047420501709 -10.32770824432373 0.4120659828186035
17.824058532714844 -10.306303977966309 0.4168815016746521
18.05917739868164 -10.291312217712402 0.42243361473083496
18.20404815673828 -10.272549629211426 0.4261716306209564
18.28557586669922 -10.268585205078125 0.4275832176208496
18.446887969970703 -10.25722599029541 0.4316565990447998
18.526958465576172 -10.251470565795898 0.43315041065216064
18.629249572753906 -10.256153106689453 0.43594053387641907
18.691537857055664 -10.239956855773926 0.436792254447937
18.778621673583984 -10.237056732177734 0.43919095396995544
18.858901977539062 -10.228622436523438 0.44107604026794434
18.949783325195312 -10.22707748413086 0.44281628727912903
20.088977813720703 -10.571076393127441 0.47373223304748535
20.254924774169922 -10.54971694946289 0.47789469361305237
20.592430114746094 -10.507548332214355 0.48555266857147217
20.682798385620117 -10.499042510986328 0.4876527786254883
20.76566505432129 -10.485955238342285 0.4891032576560974
20.86627960205078 -10.482476234436035 0.49187320470809937
21.035043716430664 -10.456547737121582 0.4961443543434143
21.13066864013672 -10.448867797851562 0.49797067046165466
21.3185977935791 -10.43088150024414 0.5022125840187073
21.60770034790039 -10.404487609863281 0.5084481835365295
21.881282806396484 -10.366683006286621 0.5147553086280823
22.173418045043945 -10.334908485412598 0.5219851732254028
22.464920043945312 -10.298312187194824 0.5287696719169617
22.67328453063965 -10.279559135437012 0.5335186123847961
22.774904251098633 -10.267644882202148 0.5354228019714355
22.974740982055664 -10.242602348327637 0.5401673913002014
23.07891845703125 -10.23061752319336 0.5420734286308289
23.395397186279297 -10.195415496826172 0.5500962138175964
23.49665069580078 -10.180953025817871 0.5529971718788147
23.613426208496094 -10.172313690185547 0.5553468465805054
23.707500457763672 -10.154563903808594 0.5569205284118652
23.815181732177734 -10.141624450683594 0.560067355632782
23.92340087890625 -10.128019332885742 0.5626212358474731
24.03253936767578 -10.11483383178711 0.564747154712677
24.131439208984375 -10.09646224975586 0.5664790868759155
24.245901107788086 -10.085281372070312 0.569732129573822
24.357681274414062 -10.071900367736816 0.5718570351600647
24.470203399658203 -10.057907104492188 0.5740249156951904
24.59119415283203 -10.048035621643066 0.5773398876190186
24.697921752929688 -10.031244277954102 0.5793297290802002
24.809526443481445 -10.015527725219727 0.5824391841888428
24.93209457397461 -10.004242897033691 0.5849421620368958
25.281112670898438 -9.960229873657227 0.5932775139808655
25.394760131835938 -9.943038940429688 0.5954713821411133
25.50674057006836 -9.925232887268066 0.5986976623535156
25.635295867919922 -9.914052963256836 0.6012081503868103
25.759492874145508 -9.8995361328125 0.6036460399627686
25.878372192382812 -9.882976531982422 0.6069896221160889
26.00453758239746 -9.869373321533203 0.6108040809631348
26.123638153076172 -9.851445198059082 0.6129683256149292
26.25490951538086 -9.838101387023926 0.6156132221221924
26.515161514282227 -9.80847454071045 0.6224943399429321
26.62697410583496 -9.787066459655762 0.6245795488357544
26.88125991821289 -9.752225875854492 0.6306751370429993
27.160369873046875 -9.724244117736816 0.636325478553772
27.29560089111328 -9.708802223205566 0.6401539444923401
27.556026458740234 -9.670896530151367 0.6453291177749634
27.690570831298828 -9.653621673583984 0.6490805149078369
27.825231552124023 -9.633951187133789 0.6517561078071594
27.969192504882812 -9.618842124938965 0.6546536684036255
28.118989944458008 -9.605152130126953 0.6588790416717529
28.25847625732422 -9.585436820983887 0.6623015999794006
28.40324592590332 -9.568864822387695 0.6652822494506836
28.53829574584961 -9.547233581542969 0.6679059863090515
28.683143615722656 -9.52884292602539 0.6720078587532043
28.828346252441406 -9.510700225830078 0.6750023365020752
28.966663360595703 -9.48776626586914 0.6777108311653137
29.123476028442383 -9.472253799438477 0.6809220314025879
29.270538330078125 -9.452962875366211 0.6864076256752014
29.422624588012695 -9.432717323303223 0.6894669532775879
29.564159393310547 -9.410481452941895 0.6924270987510681
29.729541778564453 -9.393954277038574 0.695885181427002
29.884145736694336 -9.373912811279297 0.6989558339118958
30.040874481201172 -9.354644775390625 0.7034517526626587
30.192108154296875 -9.331033706665039 0.7064905166625977
30.352436065673828 -9.311624526977539 0.7097975015640259
30.501399993896484 -9.286822319030762 0.7127710580825806
30.68804931640625 -9.273362159729004 0.7178944945335388
30.839134216308594 -9.24921989440918 0.7215898036956787
31.014820098876953 -9.229743957519531 0.7253488898277283
31.179195404052734 -9.208271026611328 0.7286534309387207
31.346162796020508 -9.186902046203613 0.7333712577819824
31.497032165527344 -9.158099174499512 0.7363801002502441
31.680828094482422 -9.140280723571777 0.7401937246322632
31.84212875366211 -9.11528205871582 0.7435325384140015
32.022518157958984 -9.0929536819458 0.7472898960113525
32.20124435424805 -9.071534156799316 0.7523706555366516
32.74419403076172 -9.002691268920898 0.7639199495315552
33.99525833129883 -8.81093692779541 0.7941700220108032
34.17097473144531 -8.780843734741211 0.7978307008743286
29.783035278320312 -7.452073574066162 0.7443466782569885
30.139535903930664 -7.3402509689331055 0.7550328373908997
30.334335327148438 -7.1859869956970215 0.7625669240951538
30.508987426757812 -7.160528659820557 0.7665494084358215
30.696292877197266 -7.1368231773376465 0.770788311958313
36.7852897644043 -8.389952659606934 0.8554111123085022
37.001739501953125 -8.356204986572266 0.861495852470398
37.2123908996582 -8.322652816772461 0.8659403324127197
37.431949615478516 -8.290231704711914 0.8707238435745239
37.65321350097656 -8.25489616394043 0.8753575086593628
37.870338439941406 -8.22016716003418 0.8799964189529419
31.792484283447266 -6.831364631652832 0.8015885949134827
32.74481201171875 -6.89182710647583 0.8193531036376953
32.369049072265625 -6.741081714630127 0.8162828683853149
32.34077072143555 -6.665198802947998 0.8177555799484253
32.609989166259766 -6.649677753448486 0.8234761953353882
32.77659606933594 -6.611243724822998 0.8274666666984558
32.94864273071289 -6.574819564819336 0.8319776058197021
33.09104919433594 -6.529763221740723 0.8356597423553467
21.13307762145996 -4.07858419418335 0.4888918995857239
21.205549240112305 -4.046098709106445 0.4903301000595093
21.234224319458008 -4.005918502807617 0.489678293466568
21.172119140625 -3.948221206665039 0.4872211217880249
21.268638610839844 -3.919724941253662 0.4901852607727051
21.358449935913086 -3.8904659748077393 0.4920656085014343
34.89875793457031 -5.979032039642334 0.8877293467521667
36.94915771484375 -5.693705081939697 0.9370468854904175
36.04386520385742 -5.321932792663574 0.9082174897193909
36.27659606933594 -5.277656555175781 0.9136272668838501
45.26161193847656 -6.488945007324219 1.03389310836792
45.557350158691406 -6.433813571929932 1.0420868396759033
45.86430358886719 -6.378342628479004 1.0487370491027832
37.405845642089844 -5.122923851013184 0.9393349885940552
37.6019172668457 -5.069762706756592 0.9448117613792419
37.79075622558594 -5.013594150543213 0.9500182867050171
37.994319915771484 -4.959847450256348 0.9556084871292114
38.41291427612305 -4.850597858428955 0.9669987559318542
38.74018859863281 -4.809722900390625 0.9743766784667969
38.98056411743164 -4.755583763122559 0.9804736375808716
48.84416198730469 -5.854941368103027 1.1124053001403809
49.19548797607422 -5.793524742126465 1.122090458869934
49.52759552001953 -5.7265520095825195 1.129122257232666
49.898155212402344 -5.663320541381836 1.1374117136001587
50.24988555908203 -5.597644329071045 1.143950343132019
50.61852264404297 -5.530445575714111 1.1520291566848755
50.98681640625 -5.462443828582764 1.160081386566162
51.36305236816406 -5.392995357513428 1.1684694290161133
51.74984359741211 -5.323846817016602 1.1768913269042969
52.53179931640625 -5.182039260864258 1.1939607858657837
52.921607971191406 -5.108386516571045 1.2026715278625488
53.32966613769531 -5.0340576171875 1.211820363998413
53.722694396972656 -4.958702087402344 1.2204338312149048
54.050804138183594 -4.874629020690918 1.2285234928131104
53.939537048339844 -4.749706745147705 1.2307453155517578
53.72509765625 -4.505007743835449 1.236037015914917
53.755306243896484 -4.393108367919922 1.2392158508300781
53.6795654296875 -4.159417629241943 1.246690034866333
53.893836975097656 -3.8353381156921387 1.262349247932434
53.99861145019531 -3.5017547607421875 1.2763266563415527
54.648616790771484 -2.968161106109619 1.3067653179168701
54.80848693847656 -2.861800193786621 1.3137197494506836
55.17497253417969 -2.6489763259887695 1.3274171352386475
55.39674758911133 -2.5434529781341553 1.3354356288909912
55.607120513916016 -2.435045003890991 1.3433423042297363
55.828956604003906 -2.3277485370635986 1.3514317274093628
56.04817581176758 -2.220397472381592 1.3597649335861206
56.2899284362793 -2.1095573902130127 1.3680753707885742
56.542545318603516 -2.001542568206787 1.3743031024932861
56.77384948730469 -1.8917853832244873 1.3826758861541748
57.01902770996094 -1.7780319452285767 1.3909460306167603
57.26154708862305 -1.6666691303253174 1.399775505065918
57.56697463989258 -1.5533921718597412 1.4094607830047607
57.860504150390625 -1.440267562866211 1.418981909751892
58.14115524291992 -1.3265416622161865 1.4286391735076904
58.437713623046875 -1.2084221839904785 1.4384335279464722
58.72055435180664 -1.0923782587051392 1.4481796026229858
59.04497146606445 -0.9758560657501221 1.4579215049743652
59.37078857421875 -0.8543899059295654 1.4682800769805908
59.74064254760742 -0.7357257604598999 1.4788486957550049
60.10350799560547 -0.6154606938362122 1.4900293350219727
60.43059539794922 -0.48971688747406006 1.5010911226272583
60.7380256652832 -0.36616677045822144 1.5108354091644287
61.09978103637695 -0.2378297746181488 1.5220645666122437
61.44739532470703 -0.1116752177476883 1.530090570449829
68.222900390625 0.01665598154067993 2.187391757965088
68.42891693115234 0.15991488099098206 2.1977040767669678
68.65029907226562 0.3058779835700989 2.2088327407836914
68.83389282226562 0.4507216513156891 2.2197554111480713
69.14422607421875 0.5962345004081726 2.2337746620178223
69.46931457519531 0.7462810277938843 2.2482666969299316
69.87910461425781 0.8968683481216431 2.2649178504943848
72.07380676269531 1.9844666719436646 2.3587117195129395
72.34825134277344 2.1433510780334473 2.3728275299072266
72.64683532714844 2.3030803203582764 2.3865084648132324
73.45426940917969 2.638352394104004 2.416959285736084
73.88612365722656 2.807389259338379 2.434579849243164
74.7668685913086 3.156210422515869 2.4696145057678223
75.24274444580078 3.3363046646118164 2.4922828674316406
77.61681365966797 4.25840950012207 2.5852017402648926
73.69879913330078 4.509299278259277 2.4471309185028076
69.30789947509766 4.6782002449035645 2.2859690189361572
66.25067901611328 4.751287460327148 2.1777896881103516
65.30733489990234 4.820819854736328 2.144763469696045
63.33476638793945 4.943493843078613 2.0734236240386963
62.53416442871094 5.011593341827393 2.0457684993743896
61.738929748535156 5.076832294464111 2.017714500427246
60.94038391113281 5.142261505126953 1.9900089502334595
60.12400436401367 5.199059963226318 1.9620012044906616
59.44135284423828 5.267082214355469 1.9385669231414795
58.72821044921875 5.327645301818848 1.914133071899414
58.13460159301758 5.395456314086914 1.8911765813827515
57.492027282714844 5.459723472595215 1.8718618154525757
56.946475982666016 5.527184009552002 1.8533934354782104
56.42292785644531 5.597179412841797 1.8352665901184082
55.819000244140625 5.6551513671875 1.811678171157837
55.32220458984375 5.720830917358398 1.7950255870819092
54.86884307861328 5.792443752288818 1.7801337242126465
54.335472106933594 5.850178241729736 1.7621195316314697
53.89286422729492 5.915687561035156 1.7474182844161987
53.46125793457031 5.983923435211182 1.7329192161560059
53.02538299560547 6.046581745147705 1.7157878875732422
