VERSION .7
FIELDS x y z
SIZE 4 4 4
TYPE F F F
COUNT 1 1 1
WIDTH 854
HEIGHT 1
VIEWPOINT 0 0 0 1 0 0 0
POINTS 854
DATA ascii
8.848623275756836 8.590001106262207 0.30895888805389404
8.766340255737305 8.58212947845459 0.3058467209339142
8.733474731445312 8.585519790649414 0.3045729398727417
8.654738426208496 8.58008861541748 0.3018774688243866
8.611812591552734 8.573042869567871 0.30025872588157654
8.541030883789062 8.57449722290039 0.2980278730392456
8.495656967163086 8.564813613891602 0.29633423686027527
8.418883323669434 8.558815956115723 0.2934376895427704
8.375070571899414 8.550087928771973 0.2920811176300049
8.341789245605469 8.5521879196167 0.2908204197883606
8.302520751953125 8.547342300415039 0.28979402780532837
8.264471054077148 8.54396915435791 0.28836488723754883
8.227055549621582 8.541332244873047 0.2869637608528137
8.186379432678223 8.534872055053711 0.28544706106185913
8.161376953125 8.544227600097656 0.28447145223617554
8.111047744750977 8.527542114257812 0.2826259136199951
8.086454391479492 8.537487983703613 0.2819462716579437
8.046314239501953 8.530495643615723 0.2808920741081238
8.013195991516113 8.531431198120117 0.27964988350868225
7.972652435302734 8.524038314819336 0.27858877182006836
7.94343376159668 8.528852462768555 0.27748510241508484
7.905179977416992 8.523175239562988 0.276056170463562
7.867129325866699 8.517928123474121 0.2753509283065796
7.825848579406738 8.509239196777344 0.2738288640975952
7.799964427947998 8.516496658325195 0.2728356719017029
7.760005950927734 8.508645057678223 0.2713586091995239
7.7277727127075195 8.509346961975098 0.2701576352119446
7.68049430847168 8.493026733398438 0.2684279680252075
7.6610212326049805 8.507560729980469 0.2676759362220764
7.614107131958008 8.49083137512207 0.26595538854599
7.582541465759277 8.491411209106445 0.26477935910224915
7.559168338775635 8.501327514648438 0.2638952136039734
7.52360200881958 8.496770858764648 0.26326853036880493
7.48737096786499 8.491687774658203 0.2619323134422302
7.449509620666504 8.484824180603027 0.26054489612579346
7.41691780090332 8.483144760131836 0.2593320608139038
7.389230728149414 8.48735237121582 0.2582989037036896
7.342222213745117 8.469429016113281 0.2565961480140686
7.311459541320801 8.469389915466309 0.2554515302181244
7.274768829345703 8.462722778320312 0.2541079521179199
7.245137691497803 8.464369773864746 0.25301671028137207
7.180816650390625 8.461095809936523 0.25149956345558167
7.144160747528076 8.453401565551758 0.2504098415374756
7.079444408416748 8.448741912841797 0.24804016947746277
7.055716514587402 8.456007957458496 0.24715010821819305
6.9923810958862305 8.452211380004883 0.24483677744865417
6.960479736328125 8.449288368225098 0.24366489052772522
6.894087791442871 8.440881729125977 0.24150371551513672
6.828880310058594 8.43328857421875 0.23913618922233582
6.793950080871582 8.425844192504883 0.23786383867263794
6.738361358642578 8.42930793762207 0.2362501323223114
6.703081130981445 8.420945167541504 0.23496803641319275
6.638134002685547 8.411813735961914 0.23262208700180054
6.619588851928711 8.42420482635498 0.2319304645061493
6.581108093261719 8.412160873413086 0.230558842420578
6.560916900634766 8.422307968139648 0.22981151938438416
6.520852088928223 8.406803131103516 0.2283688187599182
6.499357223510742 8.416153907775879 0.22759628295898438
6.462224960327148 8.40406608581543 0.226258784532547
6.435995101928711 8.40639877319336 0.22571304440498352
6.405032157897949 8.402681350708008 0.22484815120697021
6.37400484085083 8.39806842803955 0.22372621297836304
6.342453956604004 8.393009185791016 0.22259455919265747
6.310939788818359 8.388099670410156 0.22146883606910706
6.2829203605651855 8.387029647827148 0.220456063747406
6.252205848693848 8.382628440856934 0.21935635805130005
6.2245097160339355 8.38239574432373 0.21836790442466736
6.197779655456543 8.382688522338867 0.21740376949310303
6.171817779541016 8.384984970092773 0.21648503839969635
6.144181251525879 8.383825302124023 0.2154906988143921
6.10738468170166 8.369989395141602 0.21417610347270966
6.081937313079834 8.372620582580566 0.21327842772006989
6.042393684387207 8.354589462280273 0.2118695080280304
6.024141788482666 8.36585807800293 0.21120843291282654
5.997420787811279 8.366382598876953 0.21026943624019623
5.965855598449707 8.358927726745605 0.20914363861083984
5.941342353820801 8.361223220825195 0.20826542377471924
5.90824556350708 8.352375984191895 0.20710542798042297
5.877320289611816 8.3453369140625 0.2060050219297409
5.849946975708008 8.343603134155273 0.20503664016723633
5.816896438598633 8.333873748779297 0.20387420058250427
5.796976566314697 8.342166900634766 0.20316234230995178
5.760327339172363 8.32733154296875 0.20188212394714355
5.735429763793945 8.328225135803223 0.20099781453609467
5.712327003479004 8.331637382507324 0.20017695426940918
5.683650016784668 8.327901840209961 0.19917915761470795
5.656942367553711 8.325822830200195 0.19823390245437622
5.631728172302246 8.32582950592041 0.19734174013137817
5.604033946990967 8.323144912719727 0.19638100266456604
5.58242654800415 8.328306198120117 0.1956169754266739
5.544395446777344 8.309897422790527 0.19429585337638855
5.525945663452148 8.319586753845215 0.19364362955093384
5.496784210205078 8.31306266784668 0.19261816143989563
5.474206924438477 8.317485809326172 0.19184079766273499
5.442326545715332 8.306530952453613 0.190720796585083
5.421192169189453 8.311850547790527 0.189978688955307
5.386594772338867 8.297489166259766 0.18878279626369476
5.356410026550293 8.288603782653809 0.18772482872009277
5.335178375244141 8.293453216552734 0.1869814097881317
5.311640739440918 8.295758247375488 0.18617551028728485
5.282574653625488 8.288187980651855 0.18515944480895996
5.253420829772949 8.28030776977539 0.18414032459259033
5.238958835601807 8.29664134979248 0.1836552619934082
5.205296993255615 8.281349182128906 0.18248000741004944
5.183948516845703 8.285497665405273 0.18173712491989136
5.158463001251221 8.284070014953613 0.18086805939674377
5.130521774291992 8.277429580688477 0.17989560961723328
5.107630252838135 8.279945373535156 0.17874962091445923
5.082989692687988 8.278399467468262 0.17767059803009033
5.057814598083496 8.275863647460938 0.17679858207702637
5.022116661071777 8.257043838500977 0.1755763441324234
5.007420063018799 8.271492004394531 0.17507214844226837
4.978357315063477 8.262138366699219 0.17406588792800903
4.952042102813721 8.258322715759277 0.17317461967468262
4.929539203643799 8.25960922241211 0.17239920794963837
4.900455474853516 8.249732971191406 0.17139500379562378
4.875641345977783 8.248037338256836 0.17055776715278625
4.856146812438965 8.254112243652344 0.16989000141620636
4.8354878425598145 8.258161544799805 0.1691822111606598
4.806606769561768 8.249202728271484 0.16784264147281647
4.777087688446045 8.237792015075684 0.1668270230293274
4.754504203796387 8.238195419311523 0.16605429351329803
5.343945503234863 -10.100157737731934 0.16530346870422363
5.363446235656738 -10.08540153503418 0.1659444272518158
5.384816646575928 -10.07509708404541 0.1670888364315033
5.410275936126709 -10.071837425231934 0.16792082786560059
5.435633659362793 -10.067951202392578 0.1687457412481308
5.456442832946777 -10.056516647338867 0.16970649361610413
5.512843132019043 -10.059170722961426 0.17197692394256592
5.557190895080566 -10.090351104736328 0.17340973019599915
5.586498260498047 -10.092485427856445 0.17462259531021118
5.607569694519043 -10.081119537353516 0.17576849460601807
5.631861686706543 -10.074967384338379 0.17657122015953064
5.672059059143066 -10.096725463867188 0.17786946892738342
5.696386337280273 -10.090932846069336 0.17895090579986572
5.715712070465088 -10.075721740722656 0.17960064113140106
5.750370025634766 -10.087091445922852 0.18116864562034607
5.774459362030029 -10.080669403076172 0.18197722733020782
5.800899505615234 -10.077738761901855 0.1831226795911789
5.827297210693359 -10.074301719665527 0.18399406969547272
5.8635334968566895 -10.088584899902344 0.1856316775083542
5.8869218826293945 -10.08008098602295 0.18508701026439667
5.914851188659668 -10.078937530517578 0.18519723415374756
5.935986518859863 -10.066503524780273 0.18591073155403137
5.965446472167969 -10.068649291992188 0.18760764598846436
5.99867057800293 -10.076112747192383 0.188698410987854
6.023037910461426 -10.068917274475098 0.1895160973072052
6.043185234069824 -10.05517292022705 0.19020918011665344
6.079316139221191 -10.067049026489258 0.19183996319770813
6.107477188110352 -10.06589126586914 0.1930534541606903
6.1303911209106445 -10.055681228637695 0.19382447004318237
6.157547950744629 -10.053228378295898 0.1947428435087204
6.18816614151001 -10.055784225463867 0.1957644373178482
6.217501640319824 -10.055784225463867 0.1974632292985916
6.2331624031066895 -10.034500122070312 0.19802004098892212
6.271876811981201 -10.049715995788574 0.1993027925491333
6.298927307128906 -10.045736312866211 0.2002113163471222
6.327486991882324 -10.04490852355957 0.20190569758415222
6.388771057128906 -10.048112869262695 0.20396310091018677
6.407540321350098 -10.031594276428223 0.2046239674091339
6.470704078674316 -10.037054061889648 0.20747670531272888
6.500454425811768 -10.03740119934082 0.20849257707595825
6.521905899047852 -10.023529052734375 0.20922338962554932
6.555750846862793 -10.029952049255371 0.2090103030204773
6.6068525314331055 -10.015774726867676 0.20992422103881836
6.6412458419799805 -10.022603034973145 0.211089625954628
6.696125030517578 -10.013580322265625 0.2136981040239334
6.73260498046875 -10.02305793762207 0.2149355411529541
6.785133361816406 -10.009922981262207 0.21674108505249023
6.822912693023682 -10.020819664001465 0.21876360476016998
6.8744611740112305 -10.005688667297363 0.22054560482501984
6.905550003051758 -10.006383895874023 0.22161884605884552
6.967876434326172 -10.0062894821167 0.22449815273284912
7.0022807121276855 -10.010835647583008 0.22567513585090637
7.058667182922363 -10.001995086669922 0.22763529419898987
7.087497711181641 -9.998247146606445 0.22938424348831177
7.120115280151367 -9.999408721923828 0.2305053025484085
7.146512031555176 -9.99252700805664 0.23143810033798218
7.178187370300293 -9.992436408996582 0.23253567516803741
7.209738731384277 -9.991731643676758 0.23437777161598206
7.233859062194824 -9.981441497802734 0.2352408468723297
7.264374732971191 -9.979411125183105 0.23443330824375153
7.294395923614502 -9.976278305053711 0.23433160781860352
7.3267502784729 -9.976524353027344 0.23545387387275696
7.368940353393555 -9.990449905395508 0.23718824982643127
7.4225687980651855 -9.974943161010742 0.23954981565475464
7.457901954650879 -9.979121208190918 0.2407820224761963
7.512917995452881 -9.964942932128906 0.24301400780677795
7.549474239349365 -9.96953296661377 0.24427801370620728
7.576428413391113 -9.962104797363281 0.24571940302848816
7.600861549377441 -9.950828552246094 0.24659854173660278
7.6397809982299805 -9.958087921142578 0.2479444444179535
7.663367748260498 -9.946025848388672 0.24909690022468567
7.706476211547852 -9.958683013916016 0.25058719515800476
7.729968070983887 -9.945547103881836 0.25191375613212585
7.758894920349121 -9.939651489257812 0.2529461979866028
7.803367614746094 -9.953967094421387 0.2547871172428131
7.826074600219727 -9.939603805541992 0.25561463832855225
7.864840984344482 -9.945829391479492 0.2574536204338074
7.896663665771484 -9.942817687988281 0.25858208537101746
7.918422698974609 -9.927842140197754 0.25939464569091797
7.9604291915893555 -9.937660217285156 0.2611595690250397
7.982518196105957 -9.92219352722168 0.2619733512401581
8.033744812011719 -9.943548202514648 0.2613338828086853
8.053335189819336 -9.925117492675781 0.26089027523994446
8.091791152954102 -9.929555892944336 0.26223811507225037
8.12898063659668 -9.932558059692383 0.26403743028640747
8.154045104980469 -9.921106338500977 0.2649664282798767
8.196887016296387 -9.930378913879395 0.26676034927368164
8.223382949829102 -9.920007705688477 0.2677314877510071
8.255090713500977 -9.916302680969238 0.26888126134872437
8.292960166931152 -9.919090270996094 0.27071094512939453
8.357260704040527 -9.910879135131836 0.27332863211631775
8.383380889892578 -9.900094985961914 0.2743023633956909
8.452266693115234 -9.896626472473145 0.2767794728279114
8.556424140930176 -9.891975402832031 0.2813431918621063
8.661855697631836 -9.887547492980957 0.2856665551662445
8.76262378692627 -9.876607894897461 0.2896606922149658
8.825337409973145 -9.86330795288086 0.28896477818489075
8.940327644348145 -9.86629581451416 0.2924041748046875
8.976247787475586 -9.8642578125 0.29371482133865356
9.047113418579102 -9.858867645263672 0.2966238558292389
9.076665878295898 -9.84950065612793 0.2982412278652191
9.123939514160156 -9.858914375305176 0.299929141998291
9.149925231933594 -9.845928192138672 0.30093246698379517
9.19294261932373 -9.850686073303223 0.3024885654449463
9.230669975280762 -9.849305152893066 0.30386966466903687
9.263179779052734 -9.842975616455078 0.30540525913238525
9.298128128051758 -9.838664054870605 0.3067021071910858
9.334178924560547 -9.83509349822998 0.30854716897010803
9.36898136138916 -9.830371856689453 0.3098449110984802
9.414472579956055 -9.83714771270752 0.3115044832229614
9.441690444946289 -9.823945045471191 0.3125501275062561
9.480158805847168 -9.822632789611816 0.314289927482605
9.524115562438965 -9.82728099822998 0.31590598821640015
9.563759803771973 -9.826554298400879 0.3178881108760834
9.593586921691895 -9.815906524658203 0.31903335452079773
9.636713027954102 -9.819185256958008 0.3206283748149872
9.676787376403809 -9.817976951599121 0.322105348110199
9.713998794555664 -9.81490707397461 0.32068657875061035
9.75360107421875 -9.81335735321045 0.3205527067184448
9.794439315795898 -9.813177108764648 0.3225901126861572
9.82984733581543 -9.807862281799316 0.32393333315849304
9.870607376098633 -9.806997299194336 0.3254430592060089
9.90156364440918 -9.796552658081055 0.32663494348526
9.945560455322266 -9.799322128295898 0.32826822996139526
9.982851028442383 -9.794578552246094 0.329992413520813
10.029204368591309 -9.798839569091797 0.33170056343078613
10.061293601989746 -9.789464950561523 0.3329470753669739
10.10254955291748 -9.787680625915527 0.3350112736225128
10.13992691040039 -9.783180236816406 0.3364381194114685
10.181118965148926 -9.78146743774414 0.33798009157180786
10.222782135009766 -9.780328750610352 0.33954471349716187
10.262953758239746 -9.778050422668457 0.34107041358947754
10.305266380310059 -9.776905059814453 0.34298521280288696
10.348932266235352 -9.777152061462402 0.34462592005729675
10.382217407226562 -9.767902374267578 0.3459285497665405
10.426034927368164 -9.767677307128906 0.3481132984161377
10.474078178405762 -9.771499633789062 0.34990739822387695
10.545478820800781 -9.75582218170166 0.35267966985702515
10.592794418334961 -9.758426666259766 0.35445526242256165
10.63316535949707 -9.754159927368164 0.3563316762447357
10.846452713012695 -9.742121696472168 0.3600320816040039
10.972464561462402 -9.731374740600586 0.3648633658885956
11.100400924682617 -9.720855712890625 0.37012264132499695
11.228373527526855 -9.708883285522461 0.3750684857368469
11.369874954223633 -9.706535339355469 0.3810473084449768
11.401054382324219 -9.692322731018066 0.3823319375514984
11.506185531616211 -9.698514938354492 0.38632115721702576
11.540973663330078 -9.686944961547852 0.38773515820503235
11.590514183044434 -9.686853408813477 0.38963213562965393
11.636838912963867 -9.684170722961426 0.3917807340621948
11.683953285217285 -9.682409286499023 0.39361637830734253
11.727621078491211 -9.676871299743652 0.3924471437931061
11.765910148620605 -9.667037963867188 0.39185893535614014
11.816482543945312 -9.666836738586426 0.3937951326370239
11.867732048034668 -9.667264938354492 0.3961164057254791
11.897361755371094 -9.650397300720215 0.3973703980445862
11.95217514038086 -9.653058052062988 0.3994585871696472
12.005073547363281 -9.654229164123535 0.40148842334747314
12.051956176757812 -9.650815963745117 0.40332892537117004
12.091300964355469 -9.64000129699707 0.4048999845981598
12.146211624145508 -9.642620086669922 0.40701550245285034
12.200443267822266 -9.644466400146484 0.40911000967025757
12.234546661376953 -9.629029273986816 0.4105148911476135
12.286224365234375 -9.62847900390625 0.41253092885017395
12.332763671875 -9.622955322265625 0.41436582803726196
12.393887519836426 -9.628876686096191 0.41669735312461853
12.422351837158203 -9.609719276428223 0.417944073677063
12.48348331451416 -9.614913940429688 0.4202777147293091
12.532764434814453 -9.611039161682129 0.4222201704978943
12.5745849609375 -9.601736068725586 0.42392387986183167
12.627792358398438 -9.59972858428955 0.4259949326515198
12.682967185974121 -9.600208282470703 0.42815494537353516
12.728374481201172 -9.593095779418945 0.429987370967865
12.822420120239258 -9.579568862915039 0.4337530732154846
12.875811576843262 -9.577129364013672 0.43342119455337524
12.974163055419922 -9.56644058227539 0.4354853630065918
13.136022567749023 -9.55813217163086 0.441856324672699
13.760400772094727 -9.492151260375977 0.46629729866981506
13.869901657104492 -9.481729507446289 0.4707028269767761
13.932706832885742 -9.482298851013184 0.47319501638412476
14.041141510009766 -9.469820976257324 0.4775882363319397
14.099876403808594 -9.466924667358398 0.4799543619155884
14.221887588500977 -9.462193489074707 0.4798678457736969
14.271097183227539 -9.452269554138184 0.48191070556640625
14.33059310913086 -9.447694778442383 0.4842851161956787
14.386299133300781 -9.44164752960205 0.48655569553375244
14.506038665771484 -9.433067321777344 0.4913718104362488
14.556046485900879 -9.422664642333984 0.4934614300727844
14.618904113769531 -9.42036247253418 0.4959914982318878
14.68145751953125 -9.416346549987793 0.4984952211380005
14.743997573852539 -9.413333892822266 0.5010221004486084
14.808221817016602 -9.409869194030762 0.5035926103591919
14.860652923583984 -9.399951934814453 0.5057858824729919
14.917186737060547 -9.392426490783691 0.5077133178710938
14.974773406982422 -9.384073257446289 0.5093990564346313
15.041204452514648 -9.382287979125977 0.5120785236358643
15.100994110107422 -9.376108169555664 0.5145379304885864
15.35229778289795 -9.353910446166992 0.5247897505760193
15.400501251220703 -9.33951187133789 0.5268741846084595
15.534427642822266 -9.331476211547852 0.5323194265365601
15.598068237304688 -9.32571029663086 0.5328799486160278
15.730502128601074 -9.315185546875 0.5350577235221863
15.91969108581543 -9.29254150390625 0.5428727865219116
16.52330780029297 -9.230253219604492 0.5666501522064209
16.73091697692871 -9.20870590209961 0.5741069316864014
16.954818725585938 -9.1935396194458 0.5833299160003662
17.082874298095703 -9.17009162902832 0.5875861048698425
17.162673950195312 -9.16710090637207 0.5908640623092651
17.308067321777344 -9.151281356811523 0.5924338698387146
17.384937286376953 -9.145813941955566 0.5948694944381714
17.52829933166504 -9.127191543579102 0.6008689999580383
17.608861923217773 -9.12274169921875 0.6041918992996216
17.7662353515625 -9.109575271606445 0.6094896197319031
17.837007522583008 -9.098645210266113 0.6124845743179321
17.910690307617188 -9.088587760925293 0.6155807971954346
17.981212615966797 -9.07750129699707 0.618119478225708
18.076330184936523 -9.077970504760742 0.6219684481620789
18.17132568359375 -9.077649116516113 0.6250469088554382
18.220970153808594 -9.055249214172363 0.6273499131202698
18.300506591796875 -9.0460786819458 0.6306687593460083
18.454004287719727 -9.026312828063965 0.6359098553657532
18.53658103942871 -9.018213272094727 0.6393566727638245
18.616436004638672 -9.009334564208984 0.642728328704834
18.779172897338867 -8.990678787231445 0.6490952968597412
18.86322021484375 -8.982848167419434 0.6518387794494629
19.035680770874023 -8.966825485229492 0.6558665037155151
19.29422950744629 -8.940839767456055 0.6634526252746582
20.348655700683594 -8.813436508178711 0.703528881072998
20.6296443939209 -8.781534194946289 0.7145801186561584
20.89345359802246 -8.739093780517578 0.7245681285858154
21.193679809570312 -8.708532333374023 0.7332601547241211
21.38373565673828 -8.681546211242676 0.7378343939781189
21.789966583251953 -8.634364128112793 0.7536227703094482
21.8882999420166 -8.61985969543457 0.7569373250007629
22.222461700439453 -8.590482711791992 0.7689695358276367
22.301105499267578 -8.567136764526367 0.7725263833999634
22.419387817382812 -8.558258056640625 0.7765523195266724
22.623201370239258 -8.528055191040039 0.7847666144371033
22.737009048461914 -8.516124725341797 0.7886508703231812
22.847118377685547 -8.50334644317627 0.7927810549736023
23.056652069091797 -8.470951080322266 0.8003075122833252
24.790714263916016 -8.231739044189453 0.8590527772903442
25.1780948638916 -8.184996604919434 0.8729082942008972
25.54195785522461 -8.126100540161133 0.8870100975036621
26.348094940185547 -8.018525123596191 0.9164735078811646
26.620616912841797 -7.979796886444092 0.9264802932739258
26.755401611328125 -7.95905065536499 0.927413821220398
26.90134620666504 -7.940629482269287 0.9305872321128845
27.03575897216797 -7.918670177459717 0.9357281923294067
27.175491333007812 -7.89840030670166 0.9406516551971436
27.311058044433594 -7.8752570152282715 0.9458434581756592
27.450687408447266 -7.853165626525879 0.9507682919502258
27.59368324279785 -7.831032752990723 0.9562332630157471
27.75366973876953 -7.814239978790283 0.9618819952011108
27.890369415283203 -7.789603233337402 0.967149019241333
28.03887176513672 -7.767247200012207 0.972402036190033
28.34868621826172 -7.725822448730469 0.9838154315948486
22.02822494506836 -4.971333026885986 0.7638746500015259
22.16309928894043 -4.9529194831848145 0.7687160968780518
22.14346694946289 -4.60817813873291 0.7692269086837769
22.13994598388672 -4.414096355438232 0.7696943283081055
21.942440032958984 -4.088566780090332 0.7601343393325806
23.353391647338867 -4.198822021484375 0.8095278739929199
40.170623779296875 -5.665572166442871 1.3964680433273315
40.941062927246094 -5.511960983276367 1.420452356338501
41.72923278808594 -5.350222587585449 1.4491686820983887
41.888694763183594 -5.2823286056518555 1.4543311595916748
41.99983215332031 -5.206207752227783 1.4578145742416382
42.09062194824219 -5.127796649932861 1.4621933698654175
42.115516662597656 -5.042157173156738 1.4626917839050293
42.157814025878906 -4.955894470214844 1.4647835493087769
42.18667221069336 -4.870552062988281 1.4654324054718018
42.198394775390625 -4.781579971313477 1.4654842615127563
42.21290588378906 -4.6935200691223145 1.465645432472229
42.235618591308594 -4.607335567474365 1.4676998853683472
42.281124114990234 -4.343512058258057 1.4692977666854858
42.3372917175293 -4.078875541687012 1.471928358078003
42.54698181152344 -2.4818170070648193 1.4785058498382568
42.61058044433594 -1.947317361831665 1.4807460308074951
42.622615814208984 -1.7680251598358154 1.4808902740478516
42.535057067871094 -1.4082239866256714 1.477391004562378
42.459754943847656 -1.2267431020736694 1.4745826721191406
42.460609436035156 -1.1385852098464966 1.474527359008789
42.457672119140625 -0.9595896005630493 1.47427237033844
42.47422790527344 -0.8717812895774841 1.4747791290283203
42.46519470214844 -0.6926940083503723 1.4753503799438477
50.33515167236328 0.2327721118927002 2.159677505493164
49.64362716674805 2.422186851501465 2.1306443214416504
49.559871673583984 2.7305045127868652 2.1277401447296143
49.47348403930664 3.0378241539001465 2.1236519813537598
49.408058166503906 3.242724895477295 2.121410846710205
49.386810302734375 3.3442726135253906 2.1189239025115967
49.35675811767578 3.4451470375061035 2.1179378032684326
49.333412170410156 3.549433708190918 2.117253541946411
49.320350646972656 3.6513895988464355 2.1170167922973633
49.29762268066406 3.858524799346924 2.116720676422119
49.258056640625 3.9582910537719727 2.1153693199157715
49.21337127685547 4.163368225097656 2.1130261421203613
48.41773223876953 6.359602928161621 2.083287477493286
48.31074905395508 6.654760360717773 2.078601598739624
48.26210403442383 6.957494735717773 2.0808863639831543
48.16304397583008 7.150391578674316 2.0771992206573486
48.14512634277344 7.249874114990234 2.0759284496307373
48.10111999511719 7.45054817199707 2.075366497039795
48.072486877441406 7.548299789428711 2.0748019218444824
48.04303741455078 7.751132965087891 2.073087215423584
47.983516693115234 7.843730926513672 2.0700767040252686
47.93394470214844 8.043034553527832 2.069380283355713
47.81358337402344 8.332218170166016 2.0634355545043945
47.61147689819336 8.605745315551758 2.055182933807373
46.29586410522461 10.494873046875 2.005490779876709
46.23676681518555 10.583540916442871 2.0038888454437256
46.11372375488281 10.759953498840332 1.9976059198379517
46.06182861328125 10.848687171936035 1.9963306188583374
45.93878173828125 11.02410888671875 1.9918861389160156
45.87623596191406 11.109832763671875 1.9883861541748047
45.80256652832031 11.194498062133789 1.986215353012085
45.735836029052734 11.279953002929688 1.9843432903289795
45.7077522277832 11.373699188232422 1.984822154045105
45.59806442260742 11.550545692443848 1.9821538925170898
45.58637237548828 11.650136947631836 1.9827111959457397
45.369285583496094 11.796598434448242 1.972527265548706
44.087615966796875 11.761514663696289 1.917209506034851
42.695892333984375 11.678239822387695 1.85713791847229
35.98383331298828 11.31951904296875 1.571132779121399
35.06607437133789 11.273563385009766 1.5310173034667969
34.176795959472656 11.226088523864746 1.4930548667907715
33.903533935546875 11.214330673217773 1.482130765914917
33.62031555175781 11.199518203735352 1.4694371223449707
33.328590393066406 11.180093765258789 1.4568922519683838
33.04780197143555 11.162251472473145 1.4456275701522827
32.799564361572266 11.15567684173584 1.433678388595581
32.51548385620117 11.135232925415039 1.4222793579101562
32.23836135864258 11.116495132446289 1.4098894596099854
31.980966567993164 11.10205078125 1.3988503217697144
31.716541290283203 11.084884643554688 1.3882989883422852
31.457935333251953 11.069149017333984 1.3759608268737793
30.946264266967773 11.034469604492188 1.3543379306793213
30.702484130859375 11.020724296569824 1.3439273834228516
30.191162109375 10.980932235717773 1.3215938806533813
29.479169845581055 10.932294845581055 1.2914880514144897
28.795814514160156 10.885282516479492 1.262641429901123
26.269433975219727 10.694526672363281 1.1539888381958008
25.687965393066406 10.64654541015625 1.128609538078308
25.13460922241211 10.60284423828125 1.1049041748046875
24.757953643798828 10.566993713378906 1.0886470079421997
24.588003158569336 10.554830551147461 1.0811198949813843
24.236900329589844 10.525214195251465 1.0660059452056885
24.07569122314453 10.514644622802734 1.0592639446258545
23.891353607177734 10.494967460632324 1.0511474609375
23.71947479248047 10.478238105773926 1.0439379215240479
23.54920768737793 10.462135314941406 1.036430835723877
23.40031623840332 10.455248832702637 1.0302530527114868
23.23699951171875 10.440180778503418 1.0230482816696167
23.073291778564453 10.424872398376465 1.0162138938903809
22.90568733215332 10.40748405456543 1.008844017982483
22.76238250732422 10.399413108825684 1.0029003620147705
22.597225189208984 10.382364273071289 0.9956552982330322
22.442928314208984 10.36793041229248 0.9892295598983765
22.1328125 10.337991714477539 0.9759767055511475
21.979516983032227 10.322005271911621 0.9692389369010925
21.69625473022461 10.300725936889648 0.9571840167045593
21.27899932861328 10.267044067382812 0.9372720718383789
20.86550521850586 10.229740142822266 0.9204527139663696
20.458545684814453 10.190244674682617 0.9025143384933472
19.323585510253906 10.085655212402344 0.8540489077568054
18.968074798583984 10.05233383178711 0.8398005962371826
18.626018524169922 10.0215425491333 0.8248435258865356
18.392810821533203 9.996177673339844 0.8130195736885071
18.295257568359375 9.99239444732666 0.8096222877502441
18.070688247680664 9.968774795532227 0.7994905710220337
17.94902801513672 9.950298309326172 0.7945441007614136
17.84772491455078 9.944043159484863 0.7897493839263916
17.742366790771484 9.933646202087402 0.7859978675842285
17.64592933654785 9.92780590057373 0.7813988924026489
17.529491424560547 9.911656379699707 0.7764143943786621
17.43834686279297 9.90793514251709 0.7728217244148254
17.321910858154297 9.88991928100586 0.7673605680465698
17.240304946899414 9.891688346862793 0.7646694183349609
17.13932228088379 9.881081581115723 0.7598890662193298
17.04460334777832 9.87504768371582 0.7558754682540894
16.936906814575195 9.859654426574707 0.7515512704849243
16.833904266357422 9.846521377563477 0.7466936111450195
16.733013153076172 9.835541725158691 0.7431486248970032
16.65533447265625 9.836445808410645 0.7394214868545532
16.549732208251953 9.82045841217041 0.7344601154327393
16.44326400756836 9.80483627319336 0.7306630611419678
16.372642517089844 9.80884075164795 0.7272613048553467
16.17356300354004 9.782366752624512 0.7190865278244019
16.087562561035156 9.776006698608398 0.7142983078956604
15.917354583740234 9.764599800109863 0.7074187397956848
15.65157413482666 9.737504959106445 0.6960598230361938
15.385879516601562 9.70689868927002 0.684721052646637
14.882481575012207 9.654303550720215 0.663356363773346
14.652524948120117 9.636545181274414 0.6536500453948975
14.41442584991455 9.610308647155762 0.6435930728912354
14.182109832763672 9.584753036499023 0.6338058710098267
14.031702995300293 9.56943416595459 0.6261591911315918
13.960801124572754 9.56358528137207 0.6238795518875122
13.824411392211914 9.555943489074707 0.617522656917572
13.737337112426758 9.537943840026855 0.6145161390304565
13.671134948730469 9.535327911376953 0.6114459037780762
13.586180686950684 9.518045425415039 0.6075142621994019
13.521072387695312 9.514322280883789 0.6054846048355103
13.448400497436523 9.506204605102539 0.6021322011947632
13.395334243774414 9.510442733764648 0.5996336340904236
13.322857856750488 9.500631332397461 0.596271276473999
13.249717712402344 9.491238594055176 0.5939039587974548
13.187475204467773 9.488122940063477 0.5910026431083679
13.112411499023438 9.47547435760498 0.5875295996665955
13.044123649597168 9.468607902526855 0.5853742361068726
12.989156723022461 9.469928741455078 0.5828059911727905
12.89887523651123 9.446375846862793 0.5786826014518738
12.848499298095703 9.450507164001465 0.5763261914253235
12.77218246459961 9.435280799865723 0.5737796425819397
12.714889526367188 9.43500804901123 0.5711427927017212
12.636512756347656 9.417573928833008 0.5675357580184937
12.575185775756836 9.412521362304688 0.5656571984291077
12.516402244567871 9.410308837890625 0.5629590749740601
12.464580535888672 9.411897659301758 0.5605508685112
12.406538009643555 9.408557891845703 0.5582256317138672
12.337204933166504 9.397558212280273 0.5550605058670044
12.254175186157227 9.37456226348877 0.5518423914909363
12.149246215820312 9.375661849975586 0.547369658946991
12.096776962280273 9.375288963317871 0.5449463129043579
11.904582977294922 9.347444534301758 0.5370911359786987
11.272723197937012 9.279565811157227 0.5106300711631775
11.105247497558594 9.259873390197754 0.503913164138794
10.950567245483398 9.248218536376953 0.4972270429134369
10.893830299377441 9.239100456237793 0.4951893091201782
10.844095230102539 9.236388206481934 0.49327319860458374
10.778529167175293 9.219636917114258 0.49030494689941406
10.738815307617188 9.224325180053711 0.4885009527206421
10.679363250732422 9.212545394897461 0.48581963777542114
10.632806777954102 9.2113676071167 0.4842541217803955
10.581794738769531 9.20568561553955 0.4822678864002228
10.533750534057617 9.203495979309082 0.4801179766654968
10.473223686218262 9.189007759094238 0.4773765802383423
10.4352445602417 9.194784164428711 0.4756801128387451
10.378572463989258 9.183605194091797 0.4739733338356018
10.325225830078125 9.174674987792969 0.47156253457069397
10.268449783325195 9.163127899169922 0.46901118755340576
10.236013412475586 9.172837257385254 0.4675677418708801
10.176462173461914 9.15761947631836 0.4648779630661011
10.139189720153809 9.16335391998291 0.46375173330307007
10.075968742370605 9.144277572631836 0.46121102571487427
10.046923637390137 9.156011581420898 0.4599195122718811
9.986196517944336 9.139796257019043 0.4572058916091919
9.94299602508545 9.138245582580566 0.45526963472366333
9.889766693115234 9.127950668334961 0.4534026086330414
9.851743698120117 9.13121223449707 0.4525362253189087
9.802035331726074 9.123028755187988 0.4503043293952942
9.75649642944336 9.119195938110352 0.448280394077301
9.704259872436523 9.108598709106445 0.44625261425971985
9.668432235717773 9.112783432006836 0.4446607232093811
9.614641189575195 9.100525856018066 0.4427642524242401
9.579082489013672 9.105052947998047 0.44119828939437866
9.529502868652344 9.095643043518066 0.43897849321365356
9.432600975036621 9.079374313354492 0.43497440218925476
9.398725509643555 9.085107803344727 0.43349897861480713
9.315555572509766 9.080223083496094 0.4303104281425476
9.248838424682617 9.053382873535156 0.4273208677768707
9.166115760803223 9.048312187194824 0.42397958040237427
9.121683120727539 9.041902542114258 0.422006756067276
9.048918724060059 9.045644760131836 0.4193204641342163
8.999824523925781 9.033987045288086 0.41713497042655945
8.916752815246582 9.026310920715332 0.4134923219680786
8.79647159576416 9.017236709594727 0.4094740152359009
8.71869945526123 9.013141632080078 0.40637415647506714
8.667892456054688 8.998326301574707 0.404596745967865
8.5939302444458 8.996655464172363 0.40137937664985657
8.553020477294922 8.991527557373047 0.3995906412601471
8.47946834564209 8.989299774169922 0.39640000462532043
8.430582046508789 8.975128173828125 0.3945261240005493
8.361886978149414 8.977046966552734 0.39156854152679443
8.319518089294434 8.969223022460938 0.3901822566986084
8.243242263793945 8.961982727050781 0.386873722076416
8.208782196044922 8.962188720703125 0.38539624214172363
8.169020652770996 8.956703186035156 0.3836759924888611
8.121825218200684 8.942572593688965 0.3816017806529999
8.091777801513672 8.946722984313965 0.38032466173171997
8.053451538085938 8.942258834838867 0.37895405292510986
8.020377159118652 8.943198204040527 0.37754499912261963
7.978187561035156 8.934064865112305 0.37617039680480957
7.945140361785889 8.934307098388672 0.3747551441192627
7.904714584350586 8.926499366760254 0.37300291657447815
7.875483512878418 8.931443214416504 0.37223756313323975
7.8270368576049805 8.913721084594727 0.37009650468826294
7.7940874099731445 8.91385269165039 0.3689727783203125
7.766439437866211 8.92020034790039 0.36828166246414185
7.731790542602539 8.917706489562988 0.3667943477630615
7.686148643493652 8.90273666381836 0.3647959232330322
7.651146411895752 8.900146484375 0.36330941319465637
7.621412754058838 8.902864456176758 0.36205798387527466
7.585689544677734 8.89954948425293 0.3605489432811737
7.543825149536133 8.887727737426758 0.3587227463722229
7.508786201477051 8.884164810180664 0.35723158717155457
7.469572067260742 8.875741958618164 0.35554876923561096
7.444120407104492 8.882851600646973 0.35450589656829834
7.409935474395752 8.879841804504395 0.3530579209327698
7.3749237060546875 8.875944137573242 0.35157763957977295
7.342884063720703 8.874788284301758 0.35048991441726685
7.303746223449707 8.865293502807617 0.34924352169036865
7.270342826843262 8.86284351348877 0.34784066677093506
7.240546226501465 8.864387512207031 0.34660500288009644
7.200100898742676 8.852304458618164 0.34485045075416565
7.1670379638671875 8.849790573120117 0.3434661328792572
7.123913764953613 8.83437728881836 0.34159374237060547
7.104755401611328 8.848822593688965 0.3408777117729187
7.065539360046387 8.837482452392578 0.33961397409439087
7.002272605895996 8.834375381469727 0.33724138140678406
6.973824501037598 8.836090087890625 0.33606600761413574
6.912692546844482 8.834890365600586 0.3339655101299286
6.875734329223633 8.82533073425293 0.3323807716369629
6.8423261642456055 8.821253776550293 0.3309936821460724
6.804937362670898 8.810745239257812 0.3293885588645935
6.783824920654297 8.821188926696777 0.32857272028923035
6.7422380447387695 8.805977821350098 0.32679086923599243
6.719778537750244 8.814478874206543 0.32591164112091064
6.653196811676025 8.803794860839844 0.3231295943260193
6.613613128662109 8.789278030395508 0.32141995429992676
6.548181533813477 8.779033660888672 0.3186953663825989
6.526687145233154 8.788209915161133 0.3178682327270508
6.461560249328613 8.777503967285156 0.3151618242263794
6.434425354003906 8.778743743896484 0.31406161189079285
6.4067182540893555 8.780218124389648 0.31295982003211975
6.373022079467773 8.772212982177734 0.31154048442840576
6.339385986328125 8.764102935791016 0.31012314558029175
6.310649394989014 8.763736724853516 0.3093837797641754
6.27623176574707 8.754194259643555 0.30817681550979614
6.2443461418151855 8.74799919128418 0.3068455457687378
6.221928596496582 8.75609016418457 0.30600661039352417
6.184037685394287 8.741127014160156 0.304379940032959
6.164101600646973 8.751838684082031 0.3036482632160187
6.1309919357299805 8.744019508361816 0.302274227142334
6.103973388671875 8.74403190612793 0.30118489265441895
6.062285423278809 8.723255157470703 0.2993812561035156
6.0412445068359375 8.732295989990234 0.29860472679138184
6.005373001098633 8.719060897827148 0.29707807302474976
5.9874467849731445 8.732911109924316 0.2964671850204468
5.955505847930908 8.725090980529785 0.29513615369796753
5.9290995597839355 8.725235939025879 0.2940797507762909
5.897107124328613 8.718161582946777 0.29277342557907104
5.868263244628906 8.714431762695312 0.2915964424610138
5.8402099609375 8.712174415588379 0.2904696464538574
5.809071063995361 8.705439567565918 0.2891956567764282
5.777670860290527 8.697421073913574 0.28789255023002625
5.745582580566406 8.689332962036133 0.286581814289093
5.718755722045898 8.687895774841309 0.2855069637298584
5.697054386138916 8.694159507751465 0.2846890389919281
5.669581413269043 8.692684173583984 0.2836095690727234
5.639012813568115 8.685151100158691 0.2823485732078552
5.611234664916992 8.681760787963867 0.28083568811416626
5.582531929016113 8.677959442138672 0.2794572710990906
5.547471046447754 8.662915229797363 0.2779732942581177
5.528636932373047 8.673083305358887 0.27730274200439453
5.497058391571045 8.664322853088379 0.27601972222328186
5.474418640136719 8.668353080749512 0.2751592695713043
5.445691108703613 8.662631034851074 0.2739934027194977
5.421887397766113 8.665794372558594 0.27310195565223694
5.392550468444824 8.658815383911133 0.2719059884548187
5.372902870178223 8.667299270629883 0.27119898796081543
5.335402488708496 8.648004531860352 0.2696170508861542
5.31558895111084 8.656034469604492 0.26890265941619873
5.286083221435547 8.649368286132812 0.2677251696586609
5.254065990447998 8.637211799621582 0.2663933336734772
5.22891092300415 8.636171340942383 0.2654092311859131
5.202637672424316 8.634356498718262 0.26439520716667175
5.172995567321777 8.625604629516602 0.26318415999412537
5.151096820831299 8.629638671875 0.2623664438724518
5.1184468269348145 8.61671257019043 0.261028528213501
5.1038103103637695 8.63282299041748 0.260582834482193
5.070587158203125 8.617399215698242 0.2591884434223175
5.047365188598633 8.620010375976562 0.2583313286304474
5.02005672454834 8.614319801330566 0.257239431142807
4.996758460998535 8.615388870239258 0.2563526928424835
4.960708141326904 8.595488548278809 0.25446197390556335
4.946891784667969 8.612783432006836 0.2538338303565979
4.919857025146484 8.60702133178711 0.2527565062046051
4.8901190757751465 8.597574234008789 0.2515676021575928
4.866640090942383 8.597763061523438 0.2506740689277649
4.8425703048706055 8.596805572509766 0.24974945187568665
4.818739414215088 8.59739875793457 0.24886536598205566
4.795440196990967 8.597612380981445 0.2479819655418396
4.761970043182373 8.58064079284668 0.24659880995750427
4.736807346343994 8.577203750610352 0.2456185519695282
4.711558818817139 8.573477745056152 0.2442626655101776
4.698302268981934 8.592794418334961 0.24392838776111603
4.663619041442871 8.571571350097656 0.24245470762252808
4.645544052124023 8.580720901489258 0.2418443262577057
4.608749866485596 8.556364059448242 0.24028633534908295
5.70737361907959 -10.061564445495605 0.27089712023735046
5.7379302978515625 -10.06669807434082 0.27206289768218994
5.768657207489014 -10.07142448425293 0.2734949588775635
5.794486045837402 -10.067134857177734 0.2744196951389313
5.820163249969482 -10.063384056091309 0.27579689025878906
5.855978965759277 -10.076467514038086 0.27720335125923157
5.882025718688965 -10.072233200073242 0.2781405746936798
5.906856536865234 -10.06618881225586 0.2792981266975403
5.9374589920043945 -10.070404052734375 0.2809132933616638
5.967952728271484 -10.07341194152832 0.2820640206336975
5.988554000854492 -10.05998706817627 0.2827540338039398
6.013138771057129 -10.053760528564453 0.28391575813293457
6.044791221618652 -10.05837345123291 0.28556761145591736
6.075564384460449 -10.061699867248535 0.28674134612083435
6.096803665161133 -10.048824310302734 0.28745871782302856
6.12969970703125 -10.055927276611328 0.28901708126068115
6.156895637512207 -10.053018569946289 0.2900241017341614
6.18946647644043 -10.058418273925781 0.29172566533088684
6.204954147338867 -10.036861419677734 0.2921939492225647
6.243697166442871 -10.052309036254883 0.2940210998058319
6.271633625030518 -10.049843788146973 0.29371178150177
6.298568248748779 -10.046525001525879 0.29407191276550293
6.320002555847168 -10.033026695251465 0.29506999254226685
6.355523109436035 -10.043140411376953 0.2964804172515869
6.383984088897705 -10.041936874389648 0.2975624203681946
6.407833576202393 -10.03205394744873 0.2984013259410858
6.437261581420898 -10.032173156738281 0.3002574145793915
6.470226287841797 -10.037147521972656 0.3015412390232086
6.489706039428711 -10.020805358886719 0.3021909296512604
6.526871681213379 -10.032501220703125 0.3036826252937317
6.552701473236084 -10.026114463806152 0.305090069770813
6.581759452819824 -10.024259567260742 0.3064666986465454
6.606510639190674 -10.016586303710938 0.30738359689712524
6.638643264770508 -10.019498825073242 0.3086335062980652
6.666223526000977 -10.015098571777344 0.31012219190597534
6.690987586975098 -10.007218360900879 0.3113216161727905
6.723341941833496 -10.010085105895996 0.31258514523506165
6.757299423217773 -10.014856338500977 0.31391721963882446
6.775447845458984 -9.996947288513184 0.31453362107276917
6.816061973571777 -10.011573791503906 0.3169226050376892
6.839646339416504 -10.00072193145752 0.3177757263183594
6.866396903991699 -9.995258331298828 0.3187949061393738
6.935206413269043 -10.00487995147705 0.3219790458679199
6.956051826477051 -9.990608215332031 0.3211631178855896
7.001330375671387 -10.009969711303711 0.32187986373901367
7.017894744873047 -9.98945140838623 0.3224331736564636
7.083676815032959 -9.993348121643066 0.32576364278793335
7.11832857131958 -9.998190879821777 0.32715195417404175
7.177814483642578 -9.99240493774414 0.3294520080089569
7.2013115882873535 -9.98133659362793 0.3307974338531494
7.2635602951049805 -9.978777885437012 0.3335169553756714
7.360213279724121 -9.979101181030273 0.3380972743034363
7.384042739868164 -9.967557907104492 0.33898788690567017
7.450708389282227 -9.969976425170898 0.34164905548095703
7.486454963684082 -9.974093437194824 0.34356147050857544
7.547990798950195 -9.96883773803711 0.3462843894958496
7.572798252105713 -9.958114624023438 0.3472274839878082
7.609288215637207 -9.962337493896484 0.34869980812072754
7.634311676025391 -9.952216148376465 0.35043179988861084
7.673696517944336 -9.960212707519531 0.35204774141311646
7.697321891784668 -9.947328567504883 0.35055023431777954
7.732403755187988 -9.94946002960205 0.3512760400772095
7.763130187988281 -9.945550918579102 0.35248690843582153
7.7997541427612305 -9.949831008911133 0.3539840877056122
7.81878662109375 -9.931121826171875 0.35496607422828674
7.863086700439453 -9.944084167480469 0.35679686069488525
7.885989189147949 -9.930621147155762 0.35815566778182983
7.928513526916504 -9.941266059875488 0.359915554523468
7.949210166931152 -9.924124717712402 0.36067894101142883
7.987363338470459 -9.92945671081543 0.36254799365997314
8.021598815917969 -9.92928409576416 0.3639352023601532
8.051562309265137 -9.923402786254883 0.36560773849487305
8.08251953125 -9.919414520263672 0.36685943603515625
8.118852615356445 -9.921419143676758 0.3683459162712097
8.14717960357666 -9.91322135925293 0.36976099014282227
8.18610668182373 -9.91855239868164 0.3713783025741577
8.216970443725586 -9.91350269317627 0.37310928106307983
8.262255668640137 -9.925375938415527 0.37500110268592834
8.283611297607422 -9.908671379089355 0.375814825296402
8.325681686401367 -9.917099952697754 0.37787961959838867
8.350360870361328 -9.903923034667969 0.3788403868675232
8.392915725708008 -9.912116050720215 0.3811127245426178
8.416704177856445 -9.897724151611328 0.38203585147857666
8.447722434997559 -9.892528533935547 0.3833056688308716
8.488466262817383 -9.898107528686523 0.3823432922363281
8.526165008544922 -9.899656295776367 0.3828781843185425
8.557546615600586 -9.894031524658203 0.3844563961029053
8.588196754455566 -9.887922286987305 0.3857108950614929
8.624117851257324 -9.887002944946289 0.3871864974498749
8.66401195526123 -9.890764236450195 0.3888479471206665
8.680337905883789 -9.868012428283691 0.38996222615242004
8.731953620910645 -9.884492874145508 0.3921474814414978
8.760259628295898 -9.874698638916016 0.3935995101928711
8.796152114868164 -9.873053550720215 0.3950818181037903
8.824152946472168 -9.863195419311523 0.39622777700424194
8.870979309082031 -9.873764038085938 0.39821022748947144
8.900252342224121 -9.864338874816895 0.39990296959877014
9.0167236328125 -9.867984771728516 0.40510058403015137
9.117132186889648 -9.852766036987305 0.4097898602485657
9.183733940124512 -9.84127426147461 0.4128733277320862
9.231575012207031 -9.851475715637207 0.4149290919303894
9.299323081970215 -9.840383529663086 0.41827553510665894
9.329111099243164 -9.830957412719727 0.41592615842819214
9.406394004821777 -9.829160690307617 0.41844069957733154
9.532519340515137 -9.836408615112305 0.42412006855010986
9.557769775390625 -9.821144104003906 0.4251624643802643
9.605711936950684 -9.828767776489258 0.42721027135849
9.632182121276855 -9.814568519592285 0.42883288860321045
9.679363250732422 -9.821788787841797 0.4308670461177826
9.703052520751953 -9.804300308227539 0.4318414628505707
9.74945068359375 -9.80992603302002 0.43383368849754333
9.782735824584961 -9.80264663696289 0.43557751178741455
9.823357582092285 -9.801839828491211 0.4373089075088501
9.853215217590332 -9.790457725524902 0.4385725259780884
9.94224739074707 -9.796512603759766 0.4429389238357544
9.98196792602539 -9.794455528259277 0.4446466267108917
10.018224716186523 -9.789308547973633 0.446211576461792
10.056863784790039 -9.78560733795166 0.4481944441795349
10.128646850585938 -9.773491859436035 0.45129120349884033
10.173479080200195 -9.774869918823242 0.45375317335128784
10.215592384338379 -9.774642944335938 0.45559030771255493
10.250102996826172 -9.766260147094727 0.4538508653640747
10.296612739562988 -9.76943588256836 0.4542243480682373
10.331502914428711 -9.761137962341309 0.45572203397750854
10.381941795349121 -9.768095970153809 0.45825254917144775
10.415863037109375 -9.758888244628906 0.4597165584564209
10.459593772888184 -9.758440017700195 0.46161088347435
10.502894401550293 -9.758150100708008 0.46404582262039185
10.54907512664795 -9.759892463684082 0.46605849266052246
10.628156661987305 -9.750307083129883 0.46949610114097595
10.660652160644531 -9.739452362060547 0.4709204435348511
10.711753845214844 -9.744691848754883 0.47348687052726746
10.749696731567383 -9.73806381225586 0.4751460552215576
10.789875030517578 -9.733773231506348 0.4769168198108673
10.832639694213867 -9.730911254882812 0.47878605127334595
10.873567581176758 -9.72652530670166 0.48113709688186646
10.916766166687012 -9.724462509155273 0.4830474257469177
11.003480911254883 -9.718904495239258 0.4868636727333069
11.051416397094727 -9.719751358032227 0.4889738857746124
11.137638092041016 -9.713444709777832 0.49314019083976746
11.175008773803711 -9.704537391662598 0.49478816986083984
