VERSION .7
FIELDS x y z
SIZE 4 4 4
TYPE F F F
COUNT 1 1 1
WIDTH 855
HEIGHT 1
VIEWPOINT 0 0 0 1 0 0 0
POINTS 855
DATA ascii
4.463858127593994 7.998538017272949 0.09123007208108902
4.442480087280273 7.999195098876953 0.09113224595785141
4.419363498687744 7.997776031494141 0.09068027883768082
4.3929853439331055 7.989158630371094 0.0904790461063385
4.378365516662598 8.001855850219727 0.09028983116149902
4.35857629776001 8.006258010864258 0.09023474156856537
4.334253787994385 8.001073837280273 0.09007434546947479
4.293654441833496 7.9667158126831055 0.0895855575799942
17.36856460571289 -9.136590957641602 0.2813028395175934
17.745670318603516 -9.098414421081543 0.2865603566169739
17.961334228515625 -9.066844940185547 0.28911685943603516
18.20624542236328 -9.047307014465332 0.29265254735946655
18.43964385986328 -9.019189834594727 0.2954868972301483
21.785037994384766 -8.632303237915039 0.33766400814056396
21.87479019165039 -8.615388870239258 0.3387741446495056
22.083721160888672 -8.590421676635742 0.34145069122314453
22.190271377563477 -8.578895568847656 0.34282049536705017
22.396610260009766 -8.550422668457031 0.34545058012008667
22.617904663085938 -8.525945663452148 0.34891703724861145
22.716203689575195 -8.50920295715332 0.35016122460365295
23.050159454345703 -8.469444274902344 0.35360392928123474
23.38422393798828 -8.425718307495117 0.3579099774360657
26.530109405517578 -7.65103816986084 0.3955836296081543
26.586517333984375 -7.48659086227417 0.395713746547699
26.602909088134766 -7.311017990112305 0.395272821187973
26.643627166748047 -7.201666355133057 0.3954181671142578
26.636043548583984 -7.140336036682129 0.3950832486152649
26.663434982299805 -7.027453422546387 0.39435309171676636
26.681636810302734 -6.973066806793213 0.39341992139816284
26.699718475341797 -6.917611122131348 0.3934718370437622
26.714736938476562 -6.861656665802002 0.39348018169403076
26.706867218017578 -6.800589561462402 0.3931514620780945
26.74280548095703 -6.749656677246094 0.3934708833694458
26.743614196777344 -6.690142631530762 0.3932732939720154
26.754520416259766 -6.633905410766602 0.3932337462902069
22.234909057617188 -5.365095138549805 0.32632482051849365
22.215965270996094 -5.2616167068481445 0.3257167935371399
22.21249008178711 -5.211297988891602 0.3255048394203186
22.03207015991211 -3.8682644367218018 0.3172035217285156
22.010229110717773 -3.721950054168701 0.3157482147216797
22.476646423339844 -3.5585336685180664 0.32131427526474
22.50543975830078 -3.514650344848633 0.3224341869354248
23.608360290527344 -3.5857207775115967 0.33741068840026855
23.778461456298828 -3.5604729652404785 0.33973562717437744
26.96554946899414 -3.806460380554199 0.38380178809165955
26.85544776916504 -3.734096050262451 0.3821101784706116
25.05166244506836 -3.375804901123047 0.3562716543674469
25.03014373779297 -3.319389820098877 0.3558664917945862
25.039642333984375 -3.2677884101867676 0.3559033274650574
25.03032112121582 -3.2128489017486572 0.3556765019893646
26.804229736328125 -3.2694010734558105 0.38054925203323364
26.803447723388672 -3.15480375289917 0.38034749031066895
26.792407989501953 -3.0971479415893555 0.38009828329086304
26.792539596557617 -2.9828763008117676 0.3799174427986145
26.793216705322266 -2.9266743659973145 0.37916111946105957
26.781017303466797 -2.8112611770629883 0.3797851800918579
26.74358367919922 -2.6374616622924805 0.3790135979652405
26.67061424255371 -1.7844758033752441 0.37536200881004333
26.638830184936523 -1.6141996383666992 0.374765545129776
26.60744857788086 -1.444474697113037 0.37543219327926636
26.607437133789062 -1.3891019821166992 0.37539011240005493
26.606307983398438 -1.2767109870910645 0.37462562322616577
26.60499382019043 -1.221315860748291 0.3736143112182617
26.591543197631836 -1.1637778282165527 0.37339073419570923
26.594966888427734 -1.1086372137069702 0.3734056353569031
26.59925079345703 -1.0535262823104858 0.3734336197376251
26.593978881835938 -0.9964221715927124 0.37332889437675476
26.597455978393555 -0.9412844181060791 0.3733491897583008
26.595815658569336 -0.8843454718589783 0.3732971251010895
26.577686309814453 -0.82853102684021 0.3730185031890869
26.57931900024414 -0.7733743190765381 0.373018741607666
26.586288452148438 -0.7167383432388306 0.37309354543685913
26.585649490356445 -0.6615140438079834 0.37306368350982666
26.569313049316406 -0.6052721738815308 0.37281596660614014
26.563316345214844 -0.5490299463272095 0.37271595001220703
26.562095642089844 -0.4938627779483795 0.372682124376297
26.541492462158203 -0.4377179741859436 0.3707583546638489
26.540246963500977 -0.38165342807769775 0.37072986364364624
26.53144073486328 -0.32645830512046814 0.370598167181015
26.531482696533203 -0.2697739601135254 0.3705904483795166
26.510303497314453 -0.21454191207885742 0.3702836036682129
26.453876495361328 -0.15918439626693726 0.3694923520088196
26.44552993774414 -0.10263875126838684 0.3722214698791504
26.42217445373535 -0.04771716147661209 0.3718912601470947
10.022977828979492 7.797898769378662 0.10545617341995239
9.897369384765625 7.800549507141113 0.1038798838853836
9.817105293273926 7.804540157318115 0.10261660814285278
9.773418426513672 7.802962303161621 0.10232819616794586
9.680832862854004 7.796029090881348 0.10170333087444305
9.648981094360352 7.803442001342773 0.10077974945306778
9.571643829345703 7.807801246643066 0.10031621158123016
9.536282539367676 7.811968803405762 0.09936108440160751
9.452655792236328 7.81021785736084 0.09883217513561249
9.326927185058594 7.805515766143799 0.09715484827756882
9.205108642578125 7.802489280700684 0.09565920382738113
8.086243629455566 7.81243371963501 0.08295653760433197
7.996570587158203 7.823587894439697 0.0821356475353241
7.920712947845459 7.8145365715026855 0.08141320198774338
7.8924150466918945 7.819397449493408 0.08089189231395721
7.81217098236084 7.805363655090332 0.08012814819812775
7.784131050109863 7.809695243835449 0.07961176335811615
7.723060607910156 7.81396484375 0.07904602587223053
7.688188552856445 7.811038017272949 0.07846317440271378
7.658432960510254 7.813734531402588 0.07872079312801361
7.622827529907227 7.810153007507324 0.07785691320896149
7.592965602874756 7.811923503875732 0.07771526277065277
7.560999870300293 7.811966419219971 0.07755980640649796
7.532726287841797 7.815535068511963 0.07677407562732697
7.492486000061035 7.8061394691467285 0.07652883976697922
7.462593078613281 7.807923793792725 0.07639166712760925
7.433369159698486 7.810123443603516 0.07560615241527557
7.40031623840332 7.807775974273682 0.07543139159679413
7.311330318450928 7.812230587005615 0.07437378913164139
7.2200469970703125 7.812563896179199 0.07329388707876205
7.132424354553223 7.815757751464844 0.07225381582975388
7.036701679229736 7.808897018432617 0.07113896310329437
6.947772026062012 7.808362007141113 0.0704704225063324
6.607246398925781 7.813652992248535 0.06686604022979736
6.520203590393066 7.8097686767578125 0.06585948169231415
6.466808795928955 7.812458038330078 0.06503240764141083
6.435878753662109 7.8080220222473145 0.0648830235004425
6.388250350952148 7.817082405090332 0.06411808729171753
6.359027862548828 7.814363956451416 0.06398629397153854
6.321680545806885 7.801483154296875 0.06377500295639038
6.298406600952148 7.806797027587891 0.06309626251459122
6.278306484222412 7.8150129318237305 0.06305720657110214
6.249678611755371 7.812931060791016 0.06304217129945755
6.224336624145508 7.815014839172363 0.06295320391654968
6.189634323120117 7.804625511169434 0.0627659261226654
6.171900749206543 7.81650447845459 0.06250489503145218
6.145540714263916 7.816415309906006 0.06204494833946228
6.115589618682861 7.811629772186279 0.061905212700366974
6.0909743309021 7.814523696899414 0.061576858162879944
6.061418533325195 7.809975624084473 0.0610855296254158
6.038204193115234 7.8134870529174805 0.061015717685222626
6.011414527893066 7.81326150894165 0.0606655552983284
5.981518745422363 7.807877540588379 0.060173824429512024
5.965022087097168 7.8204874992370605 0.060173824429512024
5.922330856323242 7.7984299659729 0.059663064777851105
5.910148620605469 7.816010475158691 0.05935072526335716
5.876068115234375 7.805544853210449 0.0591760128736496
5.856170654296875 7.812802314758301 0.05913923680782318
5.8348212242126465 7.818659782409668 0.05849399045109749
5.807490348815918 7.816232681274414 0.05838562175631523
5.7861714363098145 7.821391582489014 0.058333709836006165
5.756045818328857 7.815122604370117 0.057603929191827774
5.725711822509766 7.808231353759766 0.057464711368083954
5.705971717834473 7.815268039703369 0.05742916464805603
5.682583332061768 7.817835330963135 0.05676867440342903
5.656798362731934 7.816831588745117 0.056434158235788345
5.624612331390381 7.806412220001221 0.05661959573626518
5.558783531188965 7.818805694580078 0.055867359042167664
5.483043670654297 7.815855026245117 0.055016420781612396
5.407483100891113 7.812150001525879 0.05417003482580185
5.3609466552734375 7.815045356750488 0.053454868495464325
5.328068733215332 7.8017754554748535 0.05328822880983353
5.279823303222656 7.801477432250977 0.05255892872810364
5.212444305419922 7.807209014892578 0.05180288851261139
5.192949295043945 7.813497066497803 0.0517718680202961
5.171280384063721 7.816638469696045 0.05172035098075867
5.147699356079102 7.816195487976074 0.05107508972287178
5.1253132820129395 7.817901611328125 0.05101580172777176
5.10330867767334 7.820293426513672 0.050726450979709625
5.0723161697387695 7.808156967163086 0.0502452626824379
5.055191993713379 7.817689895629883 0.05057220160961151
5.025459289550781 7.8078083992004395 0.05020595341920853
5.000155448913574 7.804032325744629 0.04978228360414505
4.979508399963379 7.8084797859191895 0.0497426837682724
4.960824966430664 7.814907073974609 0.049485061317682266
4.934208869934082 7.809179782867432 0.04905163496732712
4.909994125366211 7.807308197021484 0.04897465929389
4.890761375427246 7.8126540184021 0.04871276021003723
4.872845649719238 7.820509910583496 0.04836699366569519
4.837651252746582 7.800667762756348 0.048181015998125076
4.8256072998046875 7.817419528961182 0.04799175634980202
4.805812358856201 7.8220624923706055 0.04762844368815422
4.778578281402588 7.814674377441406 0.047521933913230896
4.758482933044434 7.818219184875488 0.04725305736064911
4.732639312744141 7.813290119171143 0.04683432728052139
4.706905364990234 7.807321071624756 0.04673989862203598
4.685970783233643 7.809646129608154 0.04646562412381172
4.660860061645508 7.805098056793213 0.04605378583073616
4.640578269958496 7.807897567749023 0.046013377606868744
4.620569229125977 7.81218147277832 0.045752331614494324
4.592046737670898 7.800856590270996 0.045305006206035614
4.5725932121276855 7.804813385009766 0.04527277499437332
4.546101093292236 7.797739028930664 0.04494831711053848
4.522963047027588 7.795184135437012 0.04455595090985298
4.50919246673584 7.8087358474731445 0.04457983374595642
9.898033142089844 8.247572898864746 0.2092353105545044
9.807780265808105 8.242598533630371 0.2072765827178955
9.759405136108398 8.236559867858887 0.20661506056785583
9.67852783203125 8.238347053527832 0.20486196875572205
9.552406311035156 8.235113143920898 0.20251256227493286
9.423042297363281 8.227420806884766 0.20055049657821655
9.30804443359375 8.230708122253418 0.19830651581287384
9.186561584472656 8.226774215698242 0.19637319445610046
8.05885124206543 8.221680641174316 0.17658869922161102
7.949207305908203 8.212468147277832 0.17502832412719727
7.872859001159668 8.20202350616455 0.1734074354171753
7.850518226623535 8.213207244873047 0.17329277098178864
7.782820701599121 8.211338996887207 0.17186985909938812
7.738135814666748 8.198203086853027 0.17126068472862244
7.671439170837402 8.196420669555664 0.16986143589019775
7.655579566955566 8.21357250213623 0.16988730430603027
7.603296756744385 8.192086219787598 0.16911201179027557
7.588181018829346 8.21031665802002 0.16887694597244263
7.536255836486816 8.18815803527832 0.16769784688949585
7.5155134201049805 8.200298309326172 0.16762316226959229
7.477236270904541 8.193013191223145 0.16687284409999847
7.4629106521606445 8.211475372314453 0.16653560101985931
7.414920806884766 8.193357467651367 0.1658516228199005
7.388761520385742 8.198999404907227 0.16565045714378357
7.360447883605957 8.202333450317383 0.16473278403282166
7.334049224853516 8.207115173339844 0.16451966762542725
7.290824890136719 8.193315505981445 0.16393700242042542
7.265023231506348 8.199109077453613 0.1634690910577774
7.165342330932617 8.189764976501465 0.16171735525131226
7.075910568237305 8.190887451171875 0.1601996123790741
6.623507022857666 8.173962593078613 0.1528744399547577
6.548948287963867 8.186635971069336 0.151699498295784
6.461565017700195 8.182327270507812 0.15022742748260498
6.399272918701172 8.173988342285156 0.1489446461200714
6.378227233886719 8.182028770446777 0.1488492637872696
6.322408676147461 8.181251525878906 0.14771822094917297
6.293995380401611 8.179510116577148 0.147451713681221
6.227278709411621 8.163713455200195 0.14606627821922302
6.204343795776367 8.168745040893555 0.14592497050762177
6.154269218444824 8.174057960510254 0.14566543698310852
6.121496200561523 8.165739059448242 0.14528994262218475
6.0960588455200195 8.168107032775879 0.14484532177448273
6.069737434387207 8.168146133422852 0.1442563533782959
6.038449287414551 8.161362648010254 0.1439141184091568
6.011340618133545 8.16112995147705 0.14342935383319855
5.9940314292907715 8.173095703125 0.1430562436580658
5.960474014282227 8.163420677185059 0.14266592264175415
5.9275431632995605 8.15422534942627 0.14203454554080963
5.907027244567871 8.16156005859375 0.14158731698989868
5.889956474304199 8.174684524536133 0.14159609377384186
5.861995697021484 8.171577453613281 0.1410779356956482
5.830806732177734 8.163817405700684 0.14037513732910156
5.803701400756836 8.162677764892578 0.14014080166816711
5.783434867858887 8.170022964477539 0.13980922102928162
5.749791622161865 8.158343315124512 0.13904514908790588
5.72422981262207 8.159032821655273 0.13884975016117096
5.69852352142334 8.158349990844727 0.13838684558868408
5.681229591369629 8.170278549194336 0.1380271017551422
5.647654056549072 8.158496856689453 0.13762761652469635
5.62135124206543 8.156618118286133 0.13714998960494995
5.595802307128906 8.15634536743164 0.1365918219089508
5.57289981842041 8.159646034240723 0.13620160520076752
5.541986465454102 8.150650978088379 0.13585999608039856
5.500269889831543 8.1630220413208 0.13543108105659485
5.473313808441162 8.160137176513672 0.1351912021636963
5.3945770263671875 8.153080940246582 0.1339130997657776
5.343703269958496 8.150577545166016 0.1329062581062317
5.32887601852417 8.164863586425781 0.13295838236808777
5.277810096740723 8.161511421203613 0.13194763660430908
5.2425737380981445 8.144037246704102 0.13148878514766693
5.200777053833008 8.15435791015625 0.13071055710315704
5.128968715667725 8.15439224243164 0.1296035349369049
5.07777214050293 8.148942947387695 0.12917570769786835
5.0532050132751465 8.147136688232422 0.12839511036872864
5.0028395652771 8.142288208007812 0.12798595428466797
4.97711181640625 8.138690948486328 0.12718230485916138
4.957383155822754 8.144353866577148 0.12710970640182495
4.928020000457764 8.13473129272461 0.12655770778656006
4.902850151062012 8.131673812866211 0.12634965777397156
4.88673210144043 8.14377212524414 0.12637707591056824
4.862878799438477 8.142271041870117 0.12561795115470886
4.837526321411133 8.138601303100586 0.12540432810783386
4.810529708862305 8.132223129272461 0.12514925003051758
4.793447494506836 8.141855239868164 0.12456737458705902
4.765552043914795 8.133499145507812 0.12428611516952515
4.747027397155762 8.141237258911133 0.12425094097852707
4.7204060554504395 8.134326934814453 0.12342160940170288
4.702856540679932 8.144111633300781 0.12341736257076263
4.676870822906494 8.138063430786133 0.12317834049463272
4.657576084136963 8.143560409545898 0.12254228442907333
4.627581596374512 8.131373405456543 0.12220988422632217
4.6137309074401855 8.14631462097168 0.12229026854038239
4.586537837982178 8.138113975524902 0.12145202606916428
4.564234733581543 8.138662338256836 0.12131614238023758
4.537528991699219 8.130544662475586 0.1210545003414154
4.516918182373047 8.1343994140625 0.12039996683597565
4.496452808380127 8.137285232543945 0.12030430138111115
4.472489356994629 8.133745193481445 0.12011450529098511
4.448545455932617 8.131294250488281 0.11937187612056732
4.4269490242004395 8.131851196289062 0.11924495548009872
4.405327796936035 8.13227653503418 0.11911686509847641
4.379830360412598 8.126612663269043 0.11866441369056702
35.762969970703125 0.0065483953803777695 0.9920068979263306
35.751712799072266 0.08073826134204865 0.991618275642395
35.70475769042969 0.15690667927265167 0.9902260303497314
35.669273376464844 0.23077364265918732 0.9890564680099487
35.6302490234375 0.30663996934890747 0.9881918430328369
35.60417175292969 0.45420384407043457 0.9874551296234131
35.60343933105469 0.5302661657333374 0.9863064885139465
35.61896514892578 0.6805475950241089 0.9869928359985352
35.65965270996094 0.755355954170227 0.988214373588562
35.51995086669922 1.2741377353668213 0.9831708073616028
35.46236801147461 1.346935749053955 0.9806073904037476
35.403648376464844 1.418286919593811 0.9757424592971802
35.369407653808594 1.4926002025604248 0.9750550985336304
35.35626220703125 1.565553903579712 0.9735749363899231
35.32370376586914 1.7131956815719604 0.97287917137146
35.31410217285156 1.786193609237671 0.9727138876914978
35.268646240234375 1.9328384399414062 0.970617949962616
35.276283264160156 2.0076842308044434 0.9708456993103027
35.22723388671875 2.152773380279541 0.968629777431488
35.21485137939453 2.226369857788086 0.9683527946472168
35.1959342956543 2.2996788024902344 0.9679491519927979
35.14190673828125 2.444819927215576 0.9666327834129333
35.106266021728516 2.5155558586120605 0.965814471244812
35.06418228149414 2.6610145568847656 0.9639379382133484
34.987548828125 2.8765275478363037 0.9611469507217407
34.94314956665039 3.0210843086242676 0.960331916809082
34.938663482666016 3.0937564373016357 0.9592167139053345
34.89422607421875 3.2379839420318604 0.9549462795257568
34.85299301147461 3.3081088066101074 0.9540967345237732
34.81890106201172 3.452890634536743 0.9533965587615967
34.815330505371094 3.525510787963867 0.952339768409729
34.787208557128906 3.596768856048584 0.9506853818893433
34.78017807006836 3.6699905395507812 0.9507166147232056
34.76555252075195 3.742572784423828 0.9504856467247009
34.67570495605469 4.027468204498291 0.9467576742172241
34.666934967041016 4.09937858581543 0.9467852115631104
34.653751373291016 4.17191743850708 0.946601390838623
34.639774322509766 4.244163513183594 0.9465098977088928
34.622413635253906 4.31614351272583 0.9462406635284424
34.587345123291016 4.385666847229004 0.9447469711303711
34.574344635009766 4.456939220428467 0.9433993101119995
34.55517578125 4.528548717498779 0.9430278539657593
34.52385711669922 4.598322868347168 0.9425634741783142
34.5242919921875 4.671316146850586 0.9427690505981445
34.506324768066406 4.743969917297363 0.9414713382720947
34.49405288696289 4.815238952636719 0.940281867980957
34.455787658691406 4.883975505828857 0.9383668899536133
34.423377990722656 5.026192665100098 0.9379594922065735
34.3559684753418 5.23830509185791 0.9348863363265991
34.22200393676758 5.438235759735107 0.931298017501831
33.94108200073242 5.759531021118164 0.923224687576294
33.7840576171875 5.952601432800293 0.9178758859634399
33.645599365234375 6.146533489227295 0.9151921272277832
33.5821533203125 6.206987380981445 0.9118371605873108
33.54376983642578 6.274026393890381 0.911078929901123
33.50315856933594 6.33841609954834 0.9103281497955322
33.46904754638672 6.403932094573975 0.9097567796707153
33.42184829711914 6.468942642211914 0.908998966217041
33.38160705566406 6.533051490783691 0.9061950445175171
33.34559631347656 6.599025249481201 0.905515193939209
33.29886245727539 6.662585258483887 0.9046594500541687
33.26377868652344 6.727387428283691 0.9030573964118958
33.205135345458984 6.789394378662109 0.9007446765899658
33.16703796386719 6.853341102600098 0.9001007080078125
33.12316131591797 6.916946887969971 0.8992988467216492
33.0739631652832 6.9794721603393555 0.8974831700325012
33.03057861328125 7.041945457458496 0.8966798782348633
32.98347854614258 7.1056013107299805 0.8947969675064087
32.907875061035156 7.160805702209473 0.893128514289856
32.891300201416016 7.2287187576293945 0.8921464085578918
32.86100769042969 7.295685291290283 0.8916453123092651
32.79254913330078 7.351925373077393 0.889167308807373
32.70947265625 7.478115081787109 0.886829137802124
32.65973663330078 7.538095951080322 0.8858577013015747
32.55158615112305 7.65766716003418 0.8817950487136841
32.03215408325195 8.392873764038086 0.8692214488983154
31.896682739257812 8.572023391723633 0.8650468587875366
31.751380920410156 8.747364044189453 0.8614230155944824
31.451763153076172 8.807490348815918 0.8512821793556213
31.313812255859375 8.83897590637207 0.8465837240219116
31.158546447753906 8.867053985595703 0.8422644138336182
31.022613525390625 8.897998809814453 0.837348461151123
30.877925872802734 8.926803588867188 0.8325406312942505
30.745162963867188 8.958715438842773 0.828825831413269
30.598669052124023 8.984956741333008 0.8236467838287354
30.422271728515625 9.00267219543457 0.8181673884391785
30.23863983154297 9.017736434936523 0.8135107159614563
29.990917205810547 9.012557983398438 0.8094135522842407
29.756587982177734 9.010613441467285 0.8036110401153564
29.537464141845703 9.011219024658203 0.7980146408081055
29.066455841064453 9.00150203704834 0.7845042943954468
28.855884552001953 9.001956939697266 0.7784256935119629
28.396358489990234 8.990001678466797 0.7659706473350525
27.76844596862793 8.983661651611328 0.7485189437866211
25.426904678344727 8.940130233764648 0.6843681931495667
24.888519287109375 8.927032470703125 0.6715281009674072
24.370159149169922 8.914414405822754 0.6573431491851807
24.050670623779297 8.912566184997559 0.6480403542518616
23.88474464416504 8.908222198486328 0.6439923048019409
23.55154037475586 8.896387100219727 0.6344547271728516
23.40198516845703 8.896146774291992 0.6302148103713989
23.241497039794922 8.89129638671875 0.6254894733428955
23.08641242980957 8.887640953063965 0.6212193965911865
22.926227569580078 8.880644798278809 0.617357611656189
22.776416778564453 8.877915382385254 0.6122862100601196
22.618587493896484 8.871206283569336 0.6085253357887268
22.477943420410156 8.869909286499023 0.604525089263916
22.333324432373047 8.86733627319336 0.600298285484314
22.18571662902832 8.86275863647461 0.5962197780609131
22.031654357910156 8.855151176452637 0.5925005674362183
21.764301300048828 8.853468894958496 0.5847618579864502
21.630382537841797 8.852218627929688 0.5816265344619751
19.002960205078125 8.773831367492676 0.510372519493103
18.67254638671875 8.764103889465332 0.5011413097381592
18.451889038085938 8.754953384399414 0.4968329668045044
18.349300384521484 8.753570556640625 0.49404090642929077
18.133455276489258 8.744537353515625 0.48794764280319214
18.033905029296875 8.742703437805176 0.48449283838272095
17.917192459106445 8.732856750488281 0.4818424582481384
17.82433319091797 8.734002113342285 0.479247510433197
17.729228973388672 8.733072280883789 0.4764803946018219
17.542985916137695 8.733331680297852 0.47126513719558716
17.438085556030273 8.726311683654785 0.4684077501296997
17.21755599975586 8.706814765930176 0.46226775646209717
16.941089630126953 8.701171875 0.4545203745365143
16.660884857177734 8.690055847167969 0.447266548871994
14.817817687988281 8.621786117553711 0.39589637517929077
14.65866470336914 8.612019538879395 0.3911280035972595
14.580342292785645 8.606755256652832 0.38951390981674194
14.437967300415039 8.604907035827637 0.38560962677001953
14.348836898803711 8.59218978881836 0.38328230381011963
14.282362937927246 8.593889236450195 0.3814166486263275
14.210402488708496 8.590805053710938 0.3783198297023773
14.146186828613281 8.592118263244629 0.37704479694366455
13.998102188110352 8.58308219909668 0.37266069650650024
13.79102897644043 8.575871467590332 0.3671325147151947
13.580717086791992 8.563945770263672 0.36088669300079346
11.863951683044434 8.494701385498047 0.31232136487960815
11.696504592895508 8.486539840698242 0.3080383539199829
11.588403701782227 8.482830047607422 0.3051752746105194
11.54159927368164 8.485408782958984 0.30354034900665283
11.435354232788086 8.481718063354492 0.30081427097320557
11.271575927734375 8.470600128173828 0.29528945684432983
11.124353408813477 8.469914436340332 0.29156333208084106
10.963587760925293 8.456913948059082 0.2870764434337616
9.526233673095703 8.390573501586914 0.24794511497020721
9.403971672058105 8.388455390930176 0.24421918392181396
9.316306114196777 8.380975723266602 0.24204802513122559
9.199958801269531 8.381548881530762 0.2385222315788269
9.077958106994629 8.375441551208496 0.2352236807346344
8.95461654663086 8.366466522216797 0.23190206289291382
7.797005653381348 8.298055648803711 0.2008592188358307
7.697999954223633 8.29659366607666 0.1982935518026352
7.592050552368164 8.286276817321777 0.19557198882102966
7.523160934448242 8.280835151672363 0.19365194439888
7.498479843139648 8.288161277770996 0.1931622326374054
7.421833038330078 8.273211479187012 0.19113689661026
7.320136547088623 8.263778686523438 0.18886205554008484
7.225734233856201 8.261263847351074 0.18611952662467957
6.2761945724487305 8.195043563842773 0.16162148118019104
6.19415807723999 8.194130897521973 0.15930035710334778
6.112622261047363 8.192832946777344 0.15699046850204468
6.035065650939941 8.195882797241211 0.1550881564617157
5.977675914764404 8.189960479736328 0.15361441671848297
5.9482102394104 8.185205459594727 0.1526641547679901
5.884391784667969 8.169511795043945 0.15172463655471802
5.862508773803711 8.174850463867188 0.15099990367889404
5.816059112548828 8.182626724243164 0.1498391330242157
5.725491523742676 8.16340446472168 0.14757832884788513
5.655165672302246 8.171935081481934 0.14559616148471832
4.939245223999023 8.118377685546875 0.12691208720207214
4.862959861755371 8.107337951660156 0.12484598159790039
4.79362678527832 8.106852531433105 0.12302201241254807
4.722945213317871 8.10315990447998 0.12107528746128082
4.694611549377441 8.093103408813477 0.12087849527597427
5.35677433013916 -10.132192611694336 0.154067263007164
5.412937164306641 -10.084478378295898 0.15556079149246216
5.488560676574707 -10.07288646697998 0.15800660848617554
5.582871437072754 -10.094407081604004 0.16017693281173706
5.668541431427002 -10.098875999450684 0.1629297435283661
5.723023414611816 -10.096085548400879 0.16427329182624817
11.15339469909668 -9.690340042114258 0.31932532787323
13.443758010864258 -9.488717079162598 0.3800232410430908
13.602571487426758 -9.473258972167969 0.3824901580810547
13.876880645751953 -9.449522018432617 0.38985776901245117
16.13669204711914 -9.243371963500977 0.44948577880859375
16.33135223388672 -9.21900749206543 0.454447865486145
16.54436683654785 -9.202587127685547 0.45841848850250244
16.67116928100586 -9.181400299072266 0.4619663953781128
16.735769271850586 -9.171765327453613 0.4631962478160858
19.308313369750977 -8.903325080871582 0.5323244333267212
19.558773040771484 -8.870142936706543 0.5395335555076599
19.825944900512695 -8.841459274291992 0.5458700060844421
19.913606643676758 -8.831055641174316 0.5485705137252808
20.01287841796875 -8.823968887329102 0.551399827003479
20.097145080566406 -8.811355590820312 0.5526121854782104
20.276931762695312 -8.788557052612305 0.559471070766449
20.361536026000977 -8.775079727172852 0.5618540048599243
20.566898345947266 -8.761064529418945 0.5677897930145264
20.64910125732422 -8.745500564575195 0.5695995092391968
23.103416442871094 -8.439821243286133 0.6383576393127441
24.015316009521484 -8.318805694580078 0.6624496579170227
24.129671096801758 -8.301410675048828 0.6660126447677612
24.356666564941406 -8.264951705932617 0.6718786954879761
24.488435745239258 -8.253036499023438 0.6750643253326416
24.615497589111328 -8.238321304321289 0.6780860424041748
24.729551315307617 -8.218484878540039 0.6814607381820679
24.857765197753906 -8.203851699829102 0.6854724884033203
24.969825744628906 -8.182713508605957 0.687995433807373
25.098445892333984 -8.16623306274414 0.6918076872825623
25.22735595703125 -8.150321006774902 0.6995842456817627
25.35797882080078 -8.133739471435547 0.7028118371963501
25.486064910888672 -8.115528106689453 0.7058378458023071
25.62002182006836 -8.09895133972168 0.7097207307815552
26.004642486572266 -8.0410737991333 0.7207014560699463
28.535655975341797 -7.65561580657959 0.7924245595932007
29.004261016845703 -7.586197853088379 0.8058342933654785
29.306407928466797 -7.533503532409668 0.8141101598739624
29.466964721679688 -7.509620666503906 0.8181378841400146
29.79946517944336 -7.460851669311523 0.8264492750167847
29.955698013305664 -7.433940887451172 0.8311498165130615
30.126575469970703 -7.408061981201172 0.8365197777748108
25.584686279296875 -6.235072135925293 0.7292474508285522
25.63343048095703 -6.189788818359375 0.730646014213562
22.297107696533203 -5.334393501281738 0.6186171770095825
22.29178810119629 -5.284237861633301 0.6187653541564941
22.288734436035156 -5.233847618103027 0.6183735132217407
22.280742645263672 -5.182611465454102 0.6178697943687439
22.290477752685547 -5.135303497314453 0.6178832054138184
22.0565185546875 -5.032627105712891 0.6111382246017456
22.222761154174805 -5.022063255310059 0.6153360605239868
22.272457122802734 -4.983898162841797 0.6167135238647461
21.91274642944336 -4.56685733795166 0.6096519827842712
21.98863983154297 -4.438617706298828 0.6108192205429077
22.47764015197754 -4.390451431274414 0.6251148581504822
22.104991912841797 -3.789107322692871 0.613215446472168
22.098806381225586 -3.7408571243286133 0.6129154562950134
22.09152603149414 -3.6919050216674805 0.6129953265190125
22.096080780029297 -3.644740581512451 0.6129454970359802
22.09503936767578 -3.5974855422973633 0.6140849590301514
22.154464721679688 -3.5594053268432617 0.6152712106704712
23.14480209350586 -3.619218587875366 0.6467271447181702
23.81696128845215 -3.6216230392456055 0.6628215909004211
23.916088104248047 -3.5853042602539062 0.6651629209518433
30.315889358520508 -4.4152631759643555 0.8777710199356079
35.54831314086914 -5.024356842041016 1.0012357234954834
30.92580795288086 -4.238385200500488 0.8915125727653503
25.017414093017578 -3.3755903244018555 0.6936633586883545
25.00716781616211 -3.320737361907959 0.6932311058044434
24.988182067871094 -3.264554500579834 0.693139910697937
24.988677978515625 -3.211247444152832 0.6928743124008179
25.110050201416016 -3.172977924346924 0.695780873298645
25.35164451599121 -3.150068759918213 0.7019442319869995
31.258514404296875 -3.8173749446868896 0.8993921875953674
35.729713439941406 -4.286979675292969 1.004810094833374
35.76374053955078 -4.215795516967773 1.005548357963562
35.772544860839844 -4.140570640563965 1.0054943561553955
35.788475036621094 -4.0659708976745605 1.0057123899459839
35.808509826660156 -3.9919817447662354 1.005861759185791
35.88884735107422 -3.7726712226867676 1.0074622631072998
35.87202835083008 -3.5430450439453125 1.006584644317627
35.882781982421875 -3.391577959060669 1.006460189819336
35.87637710571289 -3.3158717155456543 1.0061733722686768
35.84697341918945 -3.1609556674957275 1.0051538944244385
35.85322189331055 -3.009394645690918 1.0061101913452148
35.876895904541016 -2.9364185333251953 1.006724238395691
35.84716796875 -2.7820582389831543 1.0054525136947632
35.86842346191406 -2.7076499462127686 1.0059614181518555
35.87028884887695 -2.6319265365600586 1.0059399604797363
35.87946319580078 -2.557753086090088 1.0060508251190186
35.896759033203125 -2.482938766479492 1.0064313411712646
35.883880615234375 -2.406222343444824 1.006082534790039
35.885520935058594 -2.331538200378418 1.0059161186218262
35.89417266845703 -2.2561235427856445 1.0060408115386963
35.89372253417969 -2.1803102493286133 1.0023698806762695
35.903690338134766 -2.1049582958221436 1.0025763511657715
35.917625427246094 -2.029977321624756 1.0028965473175049
35.91367721557617 -1.9549968242645264 1.0026164054870605
35.941654205322266 -1.8805373907089233 1.0034502744674683
35.91804885864258 -1.8035542964935303 1.002673625946045
35.91489028930664 -1.728684902191162 1.0024442672729492
35.87981414794922 -1.650179386138916 1.0013461112976074
35.8729248046875 -1.5752685070037842 1.0010652542114258
35.87571716308594 -1.4996241331100464 1.0009922981262207
35.84880065917969 -1.348466396331787 1.0001596212387085
35.83759307861328 -1.1969268321990967 0.9995647668838501
35.83116149902344 -1.1210987567901611 0.9993487000465393
35.80649185180664 -0.9705795049667358 0.9984408617019653
35.81269073486328 -0.8951996564865112 0.9984704256057739
35.811546325683594 -0.8198043704032898 0.99727863073349
35.802974700927734 -0.745274543762207 0.9981582760810852
35.803375244140625 -0.6687687635421753 0.9969891905784607
35.795204162597656 -0.594310998916626 0.99669349193573
35.8315315246582 -0.5205385684967041 0.9977290630340576
35.82867431640625 -0.44394490122795105 0.9974988102912903
35.847686767578125 -0.36977994441986084 0.9945977926254272
35.81405258178711 -0.2929193079471588 0.9934840202331543
35.829254150390625 -0.21868714690208435 0.9937862157821655
35.803131103515625 -0.1442272663116455 0.9930896759033203
35.794151306152344 -0.06772582232952118 0.9927901029586792
42.65519714355469 0.005206933245062828 1.5355037450790405
42.672908782958984 0.09636843949556351 1.5361052751541138
42.628631591796875 0.18473216891288757 1.534554123878479
42.59681701660156 0.3639953136444092 1.5335288047790527
42.607994079589844 0.45251893997192383 1.5341129302978516
42.63892364501953 0.5439465045928955 1.5352740287780762
42.45301055908203 1.3426506519317627 1.5219719409942627
42.396141052246094 1.4301124811172485 1.5201032161712646
42.35529327392578 1.5181398391723633 1.5188121795654297
42.33150863647461 1.605252742767334 1.5181763172149658
42.34959411621094 1.6965446472167969 1.519012212753296
42.3194465637207 1.78330659866333 1.5178635120391846
42.30897903442383 1.870828628540039 1.5176191329956055
42.25768280029297 1.9590176343917847 1.5159950256347656
42.287288665771484 2.048341751098633 1.517197847366333
42.24817657470703 2.135518789291382 1.514471173286438
42.247413635253906 2.2247869968414307 1.5133507251739502
42.214988708496094 2.310936450958252 1.512458324432373
42.20960235595703 2.399690628051758 1.5123910903930664
42.176177978515625 2.4870080947875977 1.511387825012207
42.145408630371094 2.574151039123535 1.5105268955230713
42.123451232910156 2.6619606018066406 1.510009765625
42.1113166809082 2.74894380569458 1.5097198486328125
42.05199432373047 2.8339033126831055 1.5065133571624756
42.03788757324219 2.921994686126709 1.5021257400512695
42.03878402709961 3.0109128952026367 1.501096248626709
41.99995803833008 3.0971455574035645 1.4999151229858398
41.98883819580078 3.1839475631713867 1.4985843896865845
41.96751022338867 3.2711181640625 1.498118281364441
41.929019927978516 3.3570656776428223 1.49690580368042
41.92174530029297 3.444051742553711 1.4969122409820557
41.85901641845703 3.527543783187866 1.494727611541748
41.8497314453125 3.6156344413757324 1.4948067665100098
41.770408630371094 3.7860732078552246 1.48996102809906
41.718772888183594 3.86869478225708 1.488139033317566
41.6662712097168 4.04088020324707 1.4869214296340942
41.599666595458984 4.298565864562988 1.4827866554260254
41.57097625732422 4.472621917724609 1.4824572801589966
41.46806335449219 4.725442409515381 1.4797905683517456
41.428306579589844 4.897736549377441 1.4764318466186523
41.424842834472656 4.985687732696533 1.4739298820495605
41.37535095214844 5.066859245300293 1.4711127281188965
41.351844787597656 5.152493476867676 1.4705767631530762
41.348365783691406 5.240392684936523 1.470746636390686
41.321651458740234 5.324158191680908 1.4690800905227661
41.270442962646484 5.406040191650391 1.4677200317382812
41.253028869628906 5.492031574249268 1.4675006866455078
41.23841857910156 5.578596115112305 1.4659490585327148
41.193153381347656 5.660717964172363 1.4649574756622314
41.151336669921875 5.742005348205566 1.4626595973968506
41.15913391113281 5.832757949829102 1.4633524417877197
41.14174270629883 5.917411804199219 1.4632444381713867
41.09024429321289 5.997063636779785 1.461741328239441
41.085655212402344 6.086060523986816 1.4606425762176514
41.059295654296875 6.169257640838623 1.459049940109253
41.023597717285156 6.25236701965332 1.4582993984222412
40.99931335449219 6.336923599243164 1.458088755607605
40.965545654296875 6.418774604797363 1.4572727680206299
40.92298889160156 6.501704216003418 1.4548864364624023
40.8674201965332 6.579853534698486 1.452347993850708
40.832733154296875 6.66261625289917 1.4516808986663818
40.76350784301758 6.739366054534912 1.4497207403182983
40.73041915893555 6.820760726928711 1.4492578506469727
40.59918975830078 6.974687099456787 1.4420018196105957
40.531349182128906 7.049655914306641 1.4400427341461182
40.42776870727539 7.207178115844727 1.4361733198165894
40.11717987060547 7.67597770690918 1.4246084690093994
39.96894836425781 7.908402442932129 1.4199811220169067
39.88358688354492 8.065037727355957 1.4156957864761353
39.81634521484375 8.138644218444824 1.4139933586120605
39.72883605957031 8.295214653015137 1.4121577739715576
39.6875114440918 8.372572898864746 1.4088811874389648
39.57178497314453 8.522385597229004 1.405973196029663
39.519893646240234 8.597064018249512 1.4047632217407227
39.455108642578125 8.671285629272461 1.4007165431976318
39.4190673828125 8.749156951904297 1.3999717235565186
39.36549377441406 8.823020935058594 1.3987776041030884
39.29400634765625 8.895200729370117 1.3970160484313965
39.263633728027344 8.974019050598145 1.3940105438232422
39.19322204589844 9.044707298278809 1.3922264575958252
39.14918899536133 9.121517181396484 1.391296625137329
39.10938262939453 9.19784927368164 1.3895227909088135
39.06359100341797 9.275188446044922 1.388655662536621
38.99860763549805 9.345293045043945 1.3855900764465332
38.984039306640625 9.427391052246094 1.3846067190170288
38.91557693481445 9.49887466430664 1.3829829692840576
38.864646911621094 9.571943283081055 1.3804551362991333
38.782264709472656 9.725069999694824 1.3778660297393799
38.641815185546875 9.948465347290039 1.3728952407836914
38.289302825927734 10.114788055419922 1.358994483947754
36.10597229003906 10.272586822509766 1.2808516025543213
35.15956497192383 10.242679595947266 1.2469762563705444
34.55070114135742 10.223356246948242 1.2258777618408203
34.26936340332031 10.217500686645508 1.2154055833816528
33.70259475708008 10.203264236450195 1.195702314376831
33.41947937011719 10.193309783935547 1.1852495670318604
32.857662200927734 10.173395156860352 1.1658785343170166
32.602928161621094 10.169687271118164 1.157515525817871
32.328147888183594 10.158841133117676 1.1464512348175049
32.059226989746094 10.147480964660645 1.1375551223754883
31.796051025390625 10.137771606445312 1.1289211511611938
31.526872634887695 10.125248908996582 1.1180636882781982
31.270017623901367 10.115325927734375 1.1097149848937988
31.01572036743164 10.10421085357666 1.1013383865356445
30.78382110595703 10.100528717041016 1.0928584337234497
30.519920349121094 10.08505916595459 1.0831632614135742
30.290264129638672 10.080082893371582 1.0790176391601562
29.811851501464844 10.059396743774414 1.0613949298858643
29.571657180786133 10.047871589660645 1.053529977798462
28.89915657043457 10.022457122802734 1.0297728776931763
25.264026641845703 9.845775604248047 0.9032453298568726
24.90821075439453 9.82813835144043 0.8902044296264648
24.730426788330078 9.818117141723633 0.8838602304458618
24.389137268066406 9.800963401794434 0.8714030385017395
24.21942710876465 9.79194450378418 0.8660251498222351
23.898147583007812 9.779345512390137 0.8543098568916321
23.73016357421875 9.768144607543945 0.848319411277771
23.569149017333984 9.760059356689453 0.842379629611969
23.391456604003906 9.744123458862305 0.8360016942024231
23.23818588256836 9.736917495727539 0.8312293291091919
22.922578811645508 9.718361854553223 0.8198354244232178
22.760711669921875 9.705507278442383 0.814105749130249
22.465377807617188 9.69158935546875 0.8033652901649475
22.324050903320312 9.686529159545898 0.7982113361358643
22.016956329345703 9.662757873535156 0.7880018353462219
21.578889846801758 9.633627891540527 0.7728899717330933
18.942461013793945 9.47850227355957 0.6816391944885254
18.825525283813477 9.469511985778809 0.6768454313278198
18.60477066040039 9.456855773925781 0.670270562171936
18.501829147338867 9.452896118164062 0.6674125790596008
18.29132843017578 9.442697525024414 0.659959614276886
18.175350189208984 9.430646896362305 0.6559303998947144
18.068880081176758 9.424447059631348 0.6520971059799194
17.962810516357422 9.41659164428711 0.648422360420227
17.867259979248047 9.413820266723633 0.6449689865112305
17.64259147644043 9.390585899353027 0.6377061605453491
17.3369140625 9.368223190307617 0.6263357996940613
17.054048538208008 9.354362487792969 0.6163952350616455
14.957717895507812 9.21424674987793 0.5427581667900085
14.720149993896484 9.196054458618164 0.5351136922836304
14.491758346557617 9.180535316467285 0.526756763458252
14.404582023620605 9.167252540588379 0.5238780379295349
14.34314250946045 9.171259880065918 0.5218963623046875
14.258755683898926 9.159045219421387 0.5188747644424438
14.187938690185547 9.15520191192627 0.5154083967208862
14.114381790161133 9.15050220489502 0.5134102702140808
14.042932510375977 9.145626068115234 0.51039719581604
13.906827926635742 9.140625 0.5064462423324585
13.82707405090332 9.129349708557129 0.5031652450561523
13.617979049682617 9.114741325378418 0.4962209463119507
11.929030418395996 9.0034761428833 0.4364725351333618
11.757539749145508 8.990619659423828 0.43042534589767456
11.593393325805664 8.981159210205078 0.42515870928764343
11.541263580322266 8.97916030883789 0.42300933599472046
11.42835807800293 8.968836784362793 0.4193838834762573
11.332059860229492 8.970636367797852 0.41596341133117676
11.262507438659668 8.953658103942871 0.41370341181755066
11.171817779541016 8.958602905273438 0.4098381996154785
11.116966247558594 8.952584266662598 0.4076043963432312
9.419149398803711 8.837169647216797 0.35020801424980164
9.363601684570312 8.821660995483398 0.3480801582336426
9.285061836242676 8.821772575378418 0.34570109844207764
9.163407325744629 8.816455841064453 0.34133365750312805
9.080577850341797 8.81070613861084 0.33851301670074463
9.03472900390625 8.802693367004395 0.33755457401275635
8.9149808883667 8.795942306518555 0.3327450454235077
7.638028144836426 8.69509220123291 0.291319340467453
7.56664514541626 8.687345504760742 0.2889561057090759
7.525356292724609 8.676229476928711 0.287384569644928
7.452323913574219 8.665489196777344 0.2849973440170288
7.431999206542969 8.678218841552734 0.28417569398880005
7.356873989105225 8.66408634185791 0.28200921416282654
7.298638343811035 8.669239044189453 0.28018441796302795
7.260746955871582 8.66064453125 0.2789640724658966
7.163015365600586 8.653998374938965 0.27608364820480347
7.060474395751953 8.64012336730957 0.2729223668575287
6.11330509185791 8.562029838562012 0.24299836158752441
6.0269622802734375 8.55431079864502 0.24011684954166412
5.966264247894287 8.544360160827637 0.2382316291332245
5.946352958679199 8.553606033325195 0.23780322074890137
5.883315086364746 8.539436340332031 0.23578864336013794
5.8570709228515625 8.539219856262207 0.2348335087299347
5.804083824157715 8.538839340209961 0.2332337647676468
5.77825927734375 8.538909912109375 0.23304705321788788
5.718951225280762 8.528427124023438 0.2311801314353943
5.685585021972656 8.516824722290039 0.22992125153541565
5.624144554138184 8.502111434936523 0.22800511121749878
5.551142692565918 8.507505416870117 0.22570696473121643
5.467679977416992 8.495820999145508 0.22322213649749756
4.833598613739014 8.45472526550293 0.20373333990573883
4.752115726470947 8.434826850891113 0.20109690725803375
4.684061050415039 8.437631607055664 0.19902455806732178
4.634275913238525 8.43092155456543 0.1972375512123108
4.610180377960205 8.428985595703125 0.1967453956604004
4.561954975128174 8.424894332885742 0.19531291723251343
5.850326061248779 -10.074108123779297 0.2633489966392517
5.939257621765137 -10.080777168273926 0.26621344685554504
6.021728992462158 -10.075389862060547 0.268498957157135
6.099411964416504 -10.061193466186523 0.2708853483200073
6.244760990142822 -10.061155319213867 0.2753891944885254
14.154932022094727 -9.424140930175781 0.5390127897262573
14.449312210083008 -9.402717590332031 0.5475918054580688
14.621658325195312 -9.384554862976074 0.552914559841156
16.823352813720703 -9.174418449401855 0.6251813173294067
17.03982162475586 -9.153961181640625 0.6327427625656128
17.184247970581055 -9.138500213623047 0.6371339559555054
17.25113296508789 -9.128196716308594 0.6396403908729553
17.402267456054688 -9.114567756652832 0.6428751349449158
17.624065399169922 -9.090008735656738 0.6506885290145874
17.84910011291504 -9.064472198486328 0.657416820526123
20.199073791503906 -8.806114196777344 0.7372044324874878
20.45781707763672 -8.766277313232422 0.7459084987640381
20.659461975097656 -8.74988842010498 0.7525219917297363
20.739076614379883 -8.732894897460938 0.7547635436058044
20.934873580932617 -8.711726188659668 0.7619364857673645
21.02888298034668 -8.699694633483887 0.7647060751914978
21.225080490112305 -8.676356315612793 0.7718924283981323
21.328449249267578 -8.666998863220215 0.7756167650222778
21.524824142456055 -8.641358375549316 0.7838910222053528
21.625804901123047 -8.629831314086914 0.7869733572006226
21.83371353149414 -8.6063814163208 0.7937487363815308
22.138750076293945 -8.566213607788086 0.8042987585067749
24.600643157958984 -8.234042167663574 0.8910143971443176
24.842742919921875 -8.199877738952637 0.8991702795028687
24.972259521484375 -8.184210777282715 0.9032461643218994
25.205123901367188 -8.144132614135742 0.9120224714279175
25.344200134277344 -8.130025863647461 0.9165065288543701
25.987592697143555 -8.036521911621094 0.9389366507530212
26.122438430786133 -8.018867492675781 0.9432400465011597
26.24636459350586 -7.996622562408447 0.9477829933166504
26.404155731201172 -7.983823776245117 0.9528287053108215
26.537418365478516 -7.964051723480225 0.9570964574813843
26.65445327758789 -7.938182830810547 0.9617131948471069
26.7855224609375 -7.915699005126953 0.9664840698242188
26.937095642089844 -7.8990068435668945 0.9713854789733887
27.202852249145508 -7.852676868438721 0.9848895072937012
27.364423751831055 -7.837836265563965 0.9908344745635986
27.653526306152344 -7.794777870178223 1.0000944137573242
28.077592849731445 -7.724107265472412 1.014389991760254
30.444305419921875 -7.352331161499023 1.0964818000793457
25.929054260253906 -6.089773178100586 0.9582322835922241
26.003206253051758 -6.050280570983887 0.9608492851257324
21.970783233642578 -4.965710163116455 0.7937706708908081
22.111190795898438 -4.948650360107422 0.7984614372253418
32.188411712646484 -7.0626444816589355 1.1623541116714478
32.35798263549805 -7.028645038604736 1.1688371896743774
32.55733871459961 -7.001229763031006 1.1755311489105225
32.74571990966797 -6.968585968017578 1.1817686557769775
26.659442901611328 -5.557984352111816 0.9884059429168701
33.32237243652344 -6.87261962890625 1.2018224000930786
33.511993408203125 -6.839256763458252 1.2081243991851807
26.960750579833984 -5.384264945983887 0.9994098544120789
27.422887802124023 -5.417394161224365 1.0146262645721436
27.480648040771484 -5.367837905883789 1.01852285861969
27.562286376953125 -5.324431419372559 1.0215355157852173
27.673389434814453 -5.28634786605835 1.0254435539245605
21.89713478088379 -4.0872802734375 0.7883898615837097
22.69790267944336 -4.137892723083496 0.8173331022262573
23.2297306060791 -4.185074329376221 0.838890552520752
23.403703689575195 -4.1147332191467285 0.8456106185913086
28.562667846679688 -4.651580810546875 1.0656697750091553
29.89385414123535 -4.674771785736084 1.1099766492843628
30.323101043701172 -4.546799182891846 1.1265783309936523
39.14395523071289 -5.702130317687988 1.4091856479644775
