VERSION .7
FIELDS x y z
SIZE 4 4 4
TYPE F F F
COUNT 1 1 1
WIDTH 855
HEIGHT 1
VIEWPOINT 0 0 0 1 0 0 0
POINTS 855
DATA ascii
26.028703689575195 -8.222343444824219 0.6093187928199768
26.144527435302734 -8.19921875 0.6116299629211426
26.42208480834961 -8.164289474487305 0.6189221739768982
26.814592361450195 -8.1012601852417 0.6269927024841309
27.239408493041992 -8.043083190917969 0.6373823285102844
20.788448333740234 -5.107368469238281 0.48307785391807556
20.654722213745117 -4.937040328979492 0.47923484444618225
20.865509033203125 -4.848962306976318 0.48465487360954285
21.022979736328125 -4.79232931137085 0.4878385365009308
21.1203556060791 -4.768442630767822 0.48986831307411194
21.289852142333984 -4.712568759918213 0.49339759349823
21.389934539794922 -4.688180446624756 0.49549078941345215
20.632354736328125 -4.431152820587158 0.47879505157470703
20.607471466064453 -4.381092071533203 0.47677987813949585
20.600444793701172 -4.289000511169434 0.476195365190506
20.590024948120117 -4.151952743530273 0.4765635132789612
20.922649383544922 -4.082316875457764 0.48365670442581177
33.46872329711914 -4.7234206199646 0.7691545486450195
33.482540130615234 -4.510873317718506 0.7688051462173462
33.501739501953125 -4.299203872680664 0.7705765962600708
33.49483871459961 -4.084450721740723 0.7698112726211548
33.534488677978516 -3.9460301399230957 0.7703346014022827
33.525428771972656 -3.7314391136169434 0.7698608040809631
33.54988098144531 -3.5207791328430176 0.7679353356361389
33.482704162597656 -3.3010551929473877 0.7659077048301697
32.86208724975586 -1.091712236404419 0.748590350151062
32.75178909301758 -0.8819631934165955 0.7459368109703064
32.677459716796875 -0.33128026127815247 0.7422031164169312
32.620243072509766 -0.12561851739883423 0.7407779693603516
39.42716598510742 0.011807362549006939 1.2179350852966309
39.26186752319336 0.42394721508026123 1.2128993272781372
37.845062255859375 4.237508773803711 1.16262686252594
36.39659118652344 6.730502605438232 1.1163510084152222
36.25361633300781 6.940047264099121 1.1131761074066162
36.12773132324219 7.073801040649414 1.10807204246521
36.0067138671875 7.285438060760498 1.1056379079818726
35.85158920288086 7.488965034484863 1.1001663208007812
32.87846755981445 9.357488632202148 1.0078423023223877
32.324703216552734 9.347220420837402 0.9901072978973389
32.02374267578125 9.332246780395508 0.9813830256462097
31.477331161499023 9.31701374053955 0.9639217257499695
31.215707778930664 9.310073852539062 0.9564997553825378
30.968488693237305 9.308427810668945 0.9494380354881287
30.716087341308594 9.302103996276855 0.9404220581054688
29.933238983154297 9.270857810974121 0.9181293845176697
29.199539184570312 9.245187759399414 0.8955188393592834
23.346033096313477 9.044944763183594 0.7168176174163818
23.208980560302734 9.047284126281738 0.7145616412162781
22.85980224609375 9.022253036499023 0.7049746513366699
22.720975875854492 9.022001266479492 0.6997760534286499
22.552473068237305 9.010912895202637 0.695177435874939
22.41404151916504 9.009586334228516 0.6900098919868469
22.248090744018555 8.996552467346191 0.6854740381240845
22.1101131439209 8.995762825012207 0.681813657283783
21.943727493286133 8.98118782043457 0.6758073568344116
21.8074893951416 8.97830867767334 0.6721842885017395
21.5123291015625 8.96292781829834 0.6628201007843018
21.086185455322266 8.941359519958496 0.6500099897384644
20.669923782348633 8.918569564819336 0.6375187039375305
20.27428436279297 8.899530410766602 0.6256776452064514
17.5273380279541 8.77109146118164 0.5430688261985779
17.42560577392578 8.766716003417969 0.5404950380325317
17.234525680541992 8.761731147766113 0.5345271229743958
17.136497497558594 8.756695747375488 0.5320493578910828
17.023582458496094 8.743658065795898 0.5291065573692322
16.934309005737305 8.743513107299805 0.5257460474967957
16.82448387145996 8.73107624053955 0.5228976011276245
16.724031448364258 8.724345207214355 0.5192013382911682
16.62359046936035 8.715880393981934 0.5166437029838562
16.54377555847168 8.717850685119629 0.513636589050293
16.360261917114258 8.709375381469727 0.5090194344520569
16.271759033203125 8.705705642700195 0.5057004690170288
16.087371826171875 8.6943359375 0.4999856650829315
15.987470626831055 8.683320999145508 0.4974403977394104
15.819119453430176 8.67829704284668 0.49223214387893677
15.540843963623047 8.653239250183105 0.48417040705680847
15.301511764526367 8.646438598632812 0.4773247539997101
15.061589241027832 8.636235237121582 0.4694041609764099
13.69829273223877 8.557784080505371 0.42884016036987305
13.48352336883545 8.541925430297852 0.4228144884109497
13.413163185119629 8.537504196166992 0.42020711302757263
13.3552885055542 8.539717674255371 0.4189490079879761
13.27755069732666 8.528879165649414 0.41610094904899597
13.206841468811035 8.523313522338867 0.4135855436325073
13.154149055480957 8.528080940246582 0.41248956322669983
13.09183120727539 8.527402877807617 0.4101506173610687
13.01838493347168 8.518092155456543 0.40840253233909607
12.945182800292969 8.5086669921875 0.405713826417923
12.89686107635498 8.516359329223633 0.40476784110069275
12.825048446655273 8.507265090942383 0.4021279513835907
12.751996040344238 8.496967315673828 0.4003894627094269
12.696669578552246 8.499269485473633 0.39917609095573425
12.627083778381348 8.490738868713379 0.3966572880744934
12.505158424377441 8.485394477844238 0.3930225372314453
12.45443344116211 8.488826751708984 0.3919379711151123
12.324743270874023 8.476669311523438 0.3880630135536194
12.25019359588623 8.462896347045898 0.3854018747806549
12.127198219299316 8.453595161437988 0.3817461431026459
12.078508377075195 8.456953048706055 0.3807651102542877
11.972673416137695 8.45821475982666 0.377653032541275
10.978006362915039 8.394640922546387 0.34767308831214905
10.8126220703125 8.376419067382812 0.3432210683822632
10.77487564086914 8.383014678955078 0.3417803645133972
10.706320762634277 8.366454124450684 0.34013232588768005
10.674066543579102 8.376984596252441 0.33886995911598206
10.604358673095703 8.357895851135254 0.3371675908565521
10.561992645263672 8.36114501953125 0.3356042504310608
10.51688003540039 8.360993385314941 0.3346821963787079
10.474019050598145 8.363447189331055 0.33232608437538147
10.406550407409668 8.345046997070312 0.3307352364063263
10.370902061462402 8.351881980895996 0.32933884859085083
10.305978775024414 8.335952758789062 0.32784226536750793
10.280184745788574 8.350439071655273 0.32676321268081665
10.229655265808105 8.344690322875977 0.32570680975914
10.18136215209961 8.341582298278809 0.3239319920539856
10.1276273727417 8.332740783691406 0.32277172803878784
10.073094367980957 8.322986602783203 0.32078567147254944
10.030407905578613 8.323837280273438 0.31999173760414124
9.968891143798828 8.307780265808105 0.3177862763404846
9.936144828796387 8.316473007202148 0.3173070251941681
9.896476745605469 8.318307876586914 0.3158019185066223
9.847782135009766 8.312311172485352 0.3147977888584137
9.801994323730469 8.309585571289062 0.31311631202697754
9.756402015686035 8.305793762207031 0.3122099041938782
9.66534423828125 8.29873275756836 0.30885544419288635
9.63388442993164 8.306514739990234 0.3084002733230591
9.53483772277832 8.291377067565918 0.30557310581207275
9.489285469055176 8.286410331726074 0.30389413237571716
9.367277145385742 8.284236907958984 0.30015769600868225
8.77601432800293 8.233878135681152 0.28367167711257935
8.744462966918945 8.238463401794434 0.2825051546096802
8.659123420715332 8.227171897888184 0.28010067343711853
8.62453556060791 8.22843074798584 0.2788405120372772
8.58452320098877 8.224401473999023 0.2780640721321106
8.54629135131836 8.22281265258789 0.2767038643360138
8.50918197631836 8.221179962158203 0.27601927518844604
8.451958656311035 8.200875282287598 0.274046391248703
8.41785717010498 8.201769828796387 0.27345749735832214
8.4027738571167 8.221135139465332 0.27215349674224854
8.34659481048584 8.201139450073242 0.2708666920661926
8.313559532165527 8.202657699584961 0.269667387008667
8.273039817810059 8.196678161621094 0.2688710689544678
8.243346214294434 8.202179908752441 0.2677641212940216
8.202215194702148 8.195198059082031 0.266979843378067
8.164773941040039 8.191764831542969 0.2656085193157196
8.138545036315918 8.200363159179688 0.26465174555778503
8.097859382629395 8.193305969238281 0.26384761929512024
8.044510841369629 8.17418098449707 0.26201099157333374
8.020516395568848 8.183700561523438 0.26174822449684143
7.980083465576172 8.176318168640137 0.26028433442115784
7.952181339263916 8.182626724243164 0.25994381308555603
7.904980182647705 8.167902946472168 0.2582601308822632
7.881119728088379 8.177186012268066 0.2573748230934143
7.842813491821289 8.172261238098145 0.25665953755378723
7.807644844055176 8.169482231140137 0.25540614128112793
7.76349401473999 8.157156944274902 0.2544826567173004
7.741666793823242 8.169048309326172 0.25365084409713745
7.700070381164551 8.159048080444336 0.25284290313720703
7.629136562347412 8.152348518371582 0.25095635652542114
7.600984573364258 8.156172752380371 0.2499065399169922
7.5254974365234375 8.143619537353516 0.24722717702388763
7.4823737144470215 8.130788803100586 0.2463330179452896
7.422267913818359 8.133909225463867 0.2448064684867859
7.332789897918701 8.13806438446045 0.242200568318367
7.232544422149658 8.128995895385742 0.23927582800388336
7.139801025390625 8.127068519592285 0.23657193779945374
7.067264080047607 8.113158226013184 0.2346414029598236
7.033483028411865 8.109243392944336 0.23406250774860382
6.968201160430908 8.101712226867676 0.23235535621643066
6.943849086761475 8.10832405090332 0.23146751523017883
6.898500919342041 8.089336395263672 0.2298981249332428
6.877500057220459 8.098690032958984 0.22972643375396729
6.841394901275635 8.091094970703125 0.2284494787454605
6.814130783081055 8.092900276184082 0.22810031473636627
6.771029472351074 8.075665473937988 0.2265745848417282
6.750211715698242 8.085809707641602 0.22584213316440582
6.7065348625183105 8.067510604858398 0.22491076588630676
6.689850807189941 8.082453727722168 0.22431883215904236
6.661471366882324 8.082255363464355 0.22389845550060272
6.636264324188232 8.085848808288574 0.22297680377960205
6.602039813995361 8.07923412322998 0.22179880738258362
6.5732879638671875 8.078251838684082 0.22136610746383667
6.546462535858154 8.079475402832031 0.22042196989059448
6.515038967132568 8.075855255126953 0.2199133187532425
6.483881950378418 8.071499824523926 0.2187950760126114
6.453232765197754 8.068540573120117 0.21774069964885712
6.421168804168701 8.062695503234863 0.21719276905059814
6.392446994781494 8.060949325561523 0.21618901193141937
6.362365245819092 8.058266639709473 0.21572276949882507
6.343539714813232 8.068795204162598 0.2150249481201172
6.3038105964660645 8.052645683288574 0.21365053951740265
6.273421287536621 8.04914379119873 0.21317237615585327
6.245856285095215 8.048216819763184 0.2122115194797516
6.230398654937744 8.062787055969238 0.21222417056560516
6.205580234527588 8.06617546081543 0.21134282648563385
6.161620616912842 8.04356861114502 0.20982575416564941
6.137350082397461 8.047388076782227 0.2095537781715393
6.111088275909424 8.047582626342773 0.20861046016216278
6.082310676574707 8.044290542602539 0.2081974893808365
6.059544086456299 8.049818992614746 0.20797622203826904
6.020252227783203 8.032307624816895 0.2065872699022293
5.998530387878418 8.038029670715332 0.20583072304725647
5.970681190490723 8.036422729492188 0.2054336667060852
5.950836181640625 8.04457950592041 0.20474372804164886
5.914429187774658 8.030163764953613 0.20403487980365753
5.886445999145508 8.02798080444336 0.20305205881595612
5.857504844665527 8.023421287536621 0.20205101370811462
5.839112758636475 8.033182144165039 0.2019622027873993
5.8021240234375 8.018254280090332 0.2006993144750595
5.787564277648926 8.033182144165039 0.20016740262508392
5.730250358581543 8.024670600891113 0.19874992966651917
5.699126720428467 8.016206741333008 0.19821852445602417
5.647687911987305 8.015119552612305 0.19643284380435944
5.5875563621521 8.001134872436523 0.19488735496997833
5.579194068908691 8.02458381652832 0.19460779428482056
5.513667106628418 8.002028465270996 0.192902609705925
5.489548683166504 8.002517700195312 0.19261106848716736
5.430181980133057 7.987883567810059 0.19055551290512085
5.409717559814453 7.993408679962158 0.19095192849636078
5.385088920593262 7.993752479553223 0.19009613990783691
5.368392467498779 8.004767417907715 0.19009296596050262
5.332252502441406 7.987663269042969 0.18882983922958374
5.316450595855713 7.999944686889648 0.18829983472824097
5.276669502258301 7.97593879699707 0.18744906783103943
5.264288425445557 7.99423360824585 0.18703004717826843
5.2340192794799805 7.984341621398926 0.18598873913288116
5.208921909332275 7.9821343421936035 0.18565736711025238
5.1880059242248535 7.98726224899292 0.18493717908859253
5.169370651245117 7.994892120361328 0.18486468493938446
5.1326751708984375 7.974384784698486 0.1835649013519287
5.111496448516846 7.978880882263184 0.18283811211585999
5.08836555480957 7.979180335998535 0.18260246515274048
5.0582404136657715 7.968368053436279 0.1815381497144699
5.033333778381348 7.9666948318481445 0.1806792914867401
5.019395351409912 7.981265068054199 0.1807730793952942
4.984455108642578 7.963352680206299 0.17955254018306732
4.964046478271484 7.9675164222717285 0.17886769771575928
4.944518089294434 7.972989559173584 0.17873235046863556
4.922303676605225 7.975155830383301 0.17797254025936127
4.892800331115723 7.964286804199219 0.1769595891237259
4.87133264541626 7.966361045837402 0.17675350606441498
4.847444534301758 7.965476989746094 0.17593425512313843
4.825083255767822 7.965908527374268 0.17626383900642395
4.801637649536133 7.9654998779296875 0.17545978724956512
4.769646644592285 7.949746608734131 0.17432811856269836
4.756826400756836 7.965803623199463 0.17446333169937134
4.717081069946289 7.937717914581299 0.17306339740753174
4.705009460449219 7.954948425292969 0.1726883053779602
4.6900954246521 7.967419147491455 0.17272043228149414
4.657712936401367 7.951213359832764 0.17159046232700348
4.639450550079346 7.957857608795166 0.17099012434482574
4.609784126281738 7.944817066192627 0.1704772412776947
4.590394973754883 7.950478553771973 0.169827401638031
4.568175315856934 7.950048923492432 0.16908231377601624
4.515866756439209 7.936200141906738 0.16779762506484985
4.497101783752441 7.9415178298950195 0.1671818643808365
4.4739580154418945 7.940158367156982 0.16692498326301575
4.4475789070129395 7.931783676147461 0.1659993678331375
4.4212870597839355 7.923393726348877 0.16510392725467682
4.407556056976318 7.93859338760376 0.16519753634929657
4.382780075073242 7.932713508605957 0.16433218121528625
4.358809471130371 7.928152084350586 0.1635240614414215
4.333897590637207 7.922883033752441 0.16319763660430908
4.319674015045166 7.935952186584473 0.1627301573753357
4.28087043762207 7.944156646728516 0.16250091791152954
5.878808975219727 -10.366806983947754 0.24516750872135162
5.909275054931641 -10.37024974822998 0.24623283743858337
5.934870719909668 -10.365104675292969 0.2471318244934082
5.955443859100342 -10.349769592285156 0.24710339307785034
5.988020420074463 -10.356536865234375 0.2482920140028
6.015015125274658 -10.353582382202148 0.24921613931655884
6.049189567565918 -10.361384391784668 0.25044703483581543
6.085597991943359 -10.374242782592773 0.2510976195335388
6.108008861541748 -10.36311149597168 0.2518339455127716
6.130312919616699 -10.350342750549316 0.2532404065132141
6.164724826812744 -10.359353065490723 0.2538084089756012
6.1978559494018555 -10.366016387939453 0.2550237476825714
6.2261738777160645 -10.363053321838379 0.2559804618358612
6.2417311668396 -10.340278625488281 0.2557724714279175
6.270392894744873 -10.337850570678711 0.25678083300590515
6.303243637084961 -10.34347152709961 0.2579497992992401
6.353165149688721 -10.327265739440918 0.258986234664917
6.392796516418457 -10.34352970123291 0.2604687213897705
6.414238929748535 -10.330227851867676 0.2611754834651947
6.442660331726074 -10.326708793640137 0.2614692449569702
6.464339256286621 -10.313735961914062 0.26222312450408936
6.509860038757324 -10.338624954223633 0.26390933990478516
6.531507968902588 -10.32402515411377 0.2639279067516327
6.55350923538208 -10.31137752532959 0.2646976709365845
6.587357521057129 -10.317277908325195 0.26591119170188904
6.621597766876221 -10.322224617004395 0.2671516239643097
6.677894592285156 -10.31414794921875 0.2684182822704315
6.705104827880859 -10.30921745300293 0.26940256357192993
6.7330322265625 -10.305301666259766 0.26970064640045166
6.767089366912842 -10.309266090393066 0.2708992063999176
6.801735877990723 -10.31532096862793 0.27218320965766907
6.857227325439453 -10.304781913757324 0.27342042326927185
6.885698318481445 -10.301154136657715 0.2744233310222626
6.920599460601807 -10.305648803710938 0.275694340467453
6.936166763305664 -10.282660484313965 0.27549979090690613
6.982614040374756 -10.305322647094727 0.27721869945526123
7.004034042358398 -10.289532661437988 0.2779559791088104
7.039330005645752 -10.295390129089355 0.27926957607269287
7.066601276397705 -10.289381980895996 0.2795039117336273
7.1014909744262695 -10.292996406555176 0.2807774841785431
7.1236348152160645 -10.27939224243164 0.2815723717212677
7.164157390594482 -10.2921142578125 0.2823282778263092
7.1862006187438965 -10.276955604553223 0.28309813141822815
7.2210164070129395 -10.281249046325684 0.28439566493034363
7.2560224533081055 -10.284308433532715 0.28490856289863586
7.284112453460693 -10.278772354125977 0.2859426736831665
7.305735111236572 -10.264067649841309 0.2866871953010559
7.35408878326416 -10.285420417785645 0.28775879740715027
7.3754754066467285 -10.270218849182129 0.28853321075439453
7.417037010192871 -10.282987594604492 0.2900610566139221
7.432576656341553 -10.258272171020508 0.28984785079956055
7.4671525955200195 -10.2611083984375 0.2911403179168701
7.501152992248535 -10.262996673583984 0.2916349470615387
7.530018329620361 -10.256425857543945 0.2926815152168274
7.552496910095215 -10.242419242858887 0.2934313118457794
7.601386547088623 -10.262751579284668 0.29451584815979004
7.622642993927002 -10.246922492980957 0.29529476165771484
7.662781238555908 -10.256365776062012 0.29676923155784607
7.686863899230957 -10.24289321899414 0.29689085483551025
7.721712112426758 -10.244974136352539 0.2981986105442047
7.750051975250244 -10.238302230834961 0.29921847581863403
7.784770488739014 -10.238643646240234 0.2997514307498932
7.814279079437256 -10.233306884765625 0.30081790685653687
7.856537342071533 -10.243208885192871 0.3023903965950012
7.877543926239014 -10.226578712463379 0.3024187982082367
7.913808345794678 -10.229676246643066 0.30374735593795776
7.9427032470703125 -10.221833229064941 0.3040553033351898
7.970951557159424 -10.214365005493164 0.30511581897735596
8.00656509399414 -10.21622085571289 0.30642175674438477
8.071196556091309 -10.209833145141602 0.3080415427684784
8.106771469116211 -10.211206436157227 0.30938610434532166
8.135188102722168 -10.202168464660645 0.3096763789653778
8.178352355957031 -10.212749481201172 0.3112727105617523
8.249480247497559 -10.213117599487305 0.3131802976131439
8.271355628967285 -10.19683837890625 0.3139703571796417
8.308160781860352 -10.19760799407959 0.31457796692848206
8.341286659240723 -10.194990158081055 0.31499218940734863
8.371467590332031 -10.188661575317383 0.3161381185054779
8.405732154846191 -10.185925483703613 0.31741613149642944
8.451093673706055 -10.197711944580078 0.31832972168922424
8.51547908782959 -10.187769889831543 0.31994667649269104
8.545730590820312 -10.180950164794922 0.3211001753807068
8.609904289245605 -10.17011833190918 0.3227132558822632
8.65402889251709 -10.179327011108398 0.32439061999320984
8.683226585388184 -10.169567108154297 0.3246699571609497
8.733772277832031 -10.185884475708008 0.32658863067626953
8.79151725769043 -10.166272163391113 0.3279646635055542
8.82807445526123 -10.165830612182617 0.32936298847198486
8.865496635437012 -10.165040016174316 0.3307335674762726
8.89293384552002 -10.153824806213379 0.33100855350494385
8.92953109741211 -10.153023719787598 0.33237239718437195
8.965779304504395 -10.150429725646973 0.33295318484306335
9.003275871276855 -10.150350570678711 0.33439135551452637
9.039285659790039 -10.14844799041748 0.33494576811790466
9.076970100402832 -10.147028923034668 0.3363698422908783
9.111897468566895 -10.143631935119629 0.3376765251159668
9.142328262329102 -10.13393783569336 0.33804190158843994
9.193120002746582 -10.147760391235352 0.3391394317150116
9.223348617553711 -10.138761520385742 0.33947792649269104
9.252663612365723 -10.1274995803833 0.3405987024307251
9.297161102294922 -10.133831024169922 0.3423006236553192
9.333792686462402 -10.131475448608398 0.34287458658218384
9.36948299407959 -10.126716613769531 0.34423261880874634
9.399432182312012 -10.116889953613281 0.34456074237823486
9.444628715515137 -10.123326301574707 0.3462924361228943
9.482102394104004 -10.120062828063965 0.3468729257583618
9.518924713134766 -10.11720085144043 0.34829962253570557
9.556796073913574 -10.114131927490234 0.34970414638519287
9.629361152648926 -10.106513977050781 0.3517136871814728
9.66718578338623 -10.102968215942383 0.35230743885040283
9.704516410827637 -10.099879264831543 0.3537576198577881
9.742738723754883 -10.096457481384277 0.3543647527694702
9.779245376586914 -10.092292785644531 0.35578858852386475
9.808748245239258 -10.080737113952637 0.3560986816883087
9.853821754455566 -10.083930015563965 0.3578142821788788
9.891109466552734 -10.080097198486328 0.3592284321784973
9.928442001342773 -10.076229095458984 0.35986533761024475
9.965221405029297 -10.070493698120117 0.3612428605556488
10.002846717834473 -10.066588401794434 0.3618888258934021
10.08581829071045 -10.065011978149414 0.3633965849876404
10.1303129196167 -10.067485809326172 0.36511778831481934
10.214078903198242 -10.065587997436523 0.36748144030570984
10.327664375305176 -10.050331115722656 0.3710056245326996
10.372357368469238 -10.05199909210205 0.37190312147140503
10.44814395904541 -10.040464401245117 0.37398600578308105
10.486236572265625 -10.035298347473145 0.3754898011684418
10.563149452209473 -10.024015426635742 0.37761807441711426
10.645905494689941 -10.017678260803223 0.379957914352417
10.785465240478516 -10.021909713745117 0.38358190655708313
10.82295036315918 -10.013802528381348 0.38505518436431885
10.90711784362793 -10.007918357849121 0.38747143745422363
10.946065902709961 -10.000728607177734 0.3889586627483368
11.03727912902832 -10.000274658203125 0.3916302025318146
11.068992614746094 -9.986093521118164 0.3912184536457062
11.162088394165039 -9.986303329467773 0.39395424723625183
11.215577125549316 -9.99116325378418 0.39596283435821533
11.246053695678711 -9.976471900939941 0.3963495194911957
11.301445960998535 -9.982608795166016 0.39842748641967773
11.332128524780273 -9.967923164367676 0.39882296323776245
11.386083602905273 -9.973489761352539 0.4008719027042389
11.42590045928955 -9.965371131896973 0.40156853199005127
11.518682479858398 -9.962363243103027 0.4043019413948059
11.566900253295898 -9.96101188659668 0.4061354994773865
11.60275650024414 -9.949972152709961 0.4067121744155884
11.643763542175293 -9.942110061645508 0.408295601606369
11.699013710021973 -9.947381019592285 0.40955305099487305
11.745495796203613 -9.944921493530273 0.41135120391845703
11.778057098388672 -9.929430961608887 0.41179347038269043
11.87995719909668 -9.930049896240234 0.41479095816612244
11.926547050476074 -9.927022933959961 0.41664552688598633
11.966064453125 -9.917951583862305 0.41730591654777527
12.024036407470703 -9.922745704650879 0.41953974962234497
12.100022315979004 -9.901261329650879 0.42170724272727966
12.154775619506836 -9.902846336364746 0.4229697287082672
12.211596488952637 -9.907050132751465 0.42423078417778015
12.242473602294922 -9.889984130859375 0.42463424801826477
12.289280891418457 -9.88454532623291 0.4264427125453949
12.33758544921875 -9.881301879882812 0.4274524748325348
12.425095558166504 -9.865785598754883 0.4300101101398468
12.481484413146973 -9.86839771270752 0.4321775734424591
12.625160217285156 -9.853585243225098 0.43597614765167236
12.777230262756348 -9.843646049499512 0.44011390209198
13.027948379516602 -9.820597648620605 0.4481160044670105
13.18428897857666 -9.80788803100586 0.45234760642051697
13.337170600891113 -9.791975975036621 0.45754149556159973
13.482414245605469 -9.768763542175293 0.4614737927913666
13.542768478393555 -9.769700050354004 0.4628446400165558
13.599161148071289 -9.767477989196777 0.46505117416381836
13.648165702819824 -9.758606910705566 0.46606287360191345
13.706128120422363 -9.75713062286377 0.46832844614982605
13.738008499145508 -9.735671997070312 0.4687550663948059
13.803855895996094 -9.739367485046387 0.4703112244606018
13.862833023071289 -9.737951278686523 0.4726164638996124
13.960854530334473 -9.719259262084961 0.47559764981269836
14.020621299743652 -9.717733383178711 0.4769954979419708
14.066407203674316 -9.705048561096191 0.478840708732605
14.124727249145508 -9.7020845413208 0.4801396131515503
14.165239334106445 -9.685439109802246 0.4808623790740967
14.234576225280762 -9.689559936523438 0.4835340976715088
14.282994270324707 -9.679205894470215 0.4845457971096039
14.342000961303711 -9.674548149108887 0.4858453869819641
14.395886421203613 -9.66749095916748 0.48799869418144226
14.457045555114746 -9.663874626159668 0.4894227087497711
14.510711669921875 -9.656180381774902 0.49157288670539856
14.566786766052246 -9.649940490722656 0.4928441047668457
14.62526798248291 -9.643792152404785 0.495194673538208
14.685333251953125 -9.639731407165527 0.4966013729572296
14.743029594421387 -9.633886337280273 0.49787530303001404
14.801127433776855 -9.62679386138916 0.5001685619354248
14.85074520111084 -9.615270614624023 0.5012216567993164
14.91033935546875 -9.610001564025879 0.5035905241966248
15.046466827392578 -9.60828971862793 0.5068690776824951
15.206130981445312 -9.57620620727539 0.5113073587417603
15.390923500061035 -9.557982444763184 0.5176507830619812
16.154571533203125 -9.47653579711914 0.5397596955299377
16.275880813598633 -9.455792427062988 0.5435724258422852
16.336009979248047 -9.445438385009766 0.5449799299240112
16.461990356445312 -9.42599868774414 0.5489569306373596
16.547195434570312 -9.429241180419922 0.5512000322341919
16.679101943969727 -9.411579132080078 0.5553827881813049
16.7453556060791 -9.403203010559082 0.5569940209388733
16.892091751098633 -9.392250061035156 0.561678409576416
16.961626052856445 -9.384883880615234 0.5645259022712708
17.011159896850586 -9.364882469177246 0.5655073523521423
17.087934494018555 -9.360992431640625 0.5674693584442139
17.166257858276367 -9.356343269348145 0.5694062113761902
17.236957550048828 -9.348468780517578 0.5722464323043823
17.29249382019043 -9.33220100402832 0.5734460353851318
17.376829147338867 -9.329902648925781 0.5756388902664185
17.442707061767578 -9.31862735748291 0.5783288478851318
17.507884979248047 -9.305492401123047 0.5798303484916687
17.58937644958496 -9.302043914794922 0.5819466710090637
17.6667423248291 -9.296029090881348 0.5850272178649902
17.73212242126465 -9.282183647155762 0.5876994729042053
17.81661605834961 -9.279293060302734 0.5898594260215759
17.89113426208496 -9.270957946777344 0.5928606390953064
17.97124481201172 -9.263890266418457 0.5949179530143738
18.02923583984375 -9.246410369873047 0.596200168132782
18.1135196685791 -9.242212295532227 0.5995349884033203
18.274024963378906 -9.227319717407227 0.603615403175354
18.49928855895996 -9.195573806762695 0.610396683216095
18.74054718017578 -9.16903018951416 0.6177175045013428
20.004901885986328 -9.018373489379883 0.6549392938613892
20.281782150268555 -8.990209579467773 0.6634962558746338
20.443044662475586 -8.95887279510498 0.6688945889472961
20.540069580078125 -8.950626373291016 0.6714602708816528
20.72764778137207 -8.92868709564209 0.6763570308685303
20.833341598510742 -8.92300796508789 0.6805849075317383
21.094690322875977 -8.87697982788086 0.6872687339782715
21.209348678588867 -8.873466491699219 0.6918074488639832
21.278644561767578 -8.850543022155762 0.6934661865234375
21.48968505859375 -8.832348823547363 0.6991256475448608
21.59735107421875 -8.822790145874023 0.7033716440200806
21.69730567932129 -8.811127662658691 0.7060983777046204
21.813671112060547 -8.805620193481445 0.7092881202697754
21.89322280883789 -8.783463478088379 0.7124989032745361
21.987823486328125 -8.768487930297852 0.7149839401245117
22.09305763244629 -8.757283210754395 0.7178124785423279
22.60453224182129 -8.686561584472656 0.7329769730567932
22.91289710998535 -8.640142440795898 0.742624819278717
25.38957977294922 -8.316206932067871 0.8150426149368286
25.74348258972168 -8.253289222717285 0.8263722062110901
26.15470314025879 -8.202492713928223 0.8394806385040283
26.434886932373047 -8.169928550720215 0.8474578261375427
26.545698165893555 -8.142176628112793 0.8504511117935181
26.702606201171875 -8.129715919494629 0.8549360036849976
26.82162857055664 -8.103385925292969 0.8581903576850891
26.957229614257812 -8.083343505859375 0.8619903326034546
27.102222442626953 -8.065561294555664 0.8677348494529724
27.219457626342773 -8.037192344665527 0.8710188269615173
27.357471466064453 -8.016260147094727 0.874901294708252
27.49769401550293 -7.995335578918457 0.8788521885871887
22.005138397216797 -4.533827781677246 0.6949700117111206
22.42757797241211 -4.4740800857543945 0.7073854207992554
22.619834899902344 -4.463644981384277 0.7131556272506714
22.861034393310547 -4.460524559020996 0.7204591631889343
23.073938369750977 -4.4523797035217285 0.7268758416175842
23.297943115234375 -4.4454755783081055 0.7336407899856567
36.21889114379883 -6.5176215171813965 1.1384038925170898
36.87555694580078 -6.396726608276367 1.1578667163848877
39.93977355957031 -4.277624607086182 1.2452750205993652
39.993072509765625 -4.0291948318481445 1.2461243867874146
39.903629302978516 -3.8504981994628906 1.2428194284439087
39.92068099975586 -3.7685461044311523 1.2431045770645142
39.95100402832031 -3.601724624633789 1.2435654401779175
39.9646110534668 -3.3498072624206543 1.2433089017868042
39.96360397338867 -3.0968515872955322 1.2428760528564453
39.593299865722656 -0.48598331212997437 1.2255783081054688
39.477081298828125 -0.23635846376419067 1.2219103574752808
37.200748443603516 0.24965733289718628 1.0720220804214478
37.1890983581543 0.326758474111557 1.071703553199768
37.128597259521484 0.48260989785194397 1.0700091123580933
37.135528564453125 0.5597787499427795 1.0702401399612427
37.12335205078125 0.6367605328559875 1.06992506980896
37.1370964050293 0.7162489891052246 1.0703625679016113
37.18427276611328 0.7943552136421204 1.0717675685882568
37.078712463378906 1.2587696313858032 1.0668303966522217
36.95461654663086 1.3334903717041016 1.0633394718170166
36.91489028930664 1.4087680578231812 1.062278151512146
36.91274642944336 1.4876619577407837 1.0623055696487427
36.81864929199219 1.560405969619751 1.0596884489059448
36.82006072998047 1.6370186805725098 1.0598243474960327
36.7418327331543 1.712192177772522 1.055535078048706
36.713233947753906 1.787219524383545 1.0548179149627686
36.660118103027344 1.93942391872406 1.0534112453460693
36.643585205078125 2.0149195194244385 1.0530539751052856
36.633121490478516 2.092740535736084 1.0528790950775146
36.55413818359375 2.164341688156128 1.0507358312606812
36.57697677612305 2.24198055267334 1.051524043083191
36.541351318359375 2.3180549144744873 1.048508882522583
36.47731018066406 2.3900043964385986 1.048938512802124
36.42647933959961 2.6168603897094727 1.0479295253753662
36.37416458129883 2.843059539794922 1.0446891784667969
36.23350143432617 3.217221975326538 1.0415668487548828
36.17048645019531 3.440941095352173 1.038137435913086
36.065467834472656 3.5821566581726074 1.0355411767959595
36.054439544677734 3.65875244140625 1.0354461669921875
36.05189514160156 3.734095335006714 1.033379316329956
36.01285171508789 3.807826042175293 1.0324910879135132
35.997581481933594 3.881765127182007 1.0322819948196411
35.957740783691406 3.9529731273651123 1.0313725471496582
35.92559814453125 4.027130126953125 1.0306949615478516
35.909393310546875 4.1007866859436035 1.030471920967102
35.884979248046875 4.173562526702881 1.0300180912017822
35.856178283691406 4.247759819030762 1.0294491052627563
35.8416633605957 4.321480751037598 1.0291827917099
35.753910064697266 4.463742733001709 1.0271937847137451
35.72053146362305 4.534878253936768 1.024407982826233
35.68269729614258 4.607551097869873 1.0236029624938965
35.63739776611328 4.754372596740723 1.0227644443511963
35.596649169921875 4.824141502380371 1.0218801498413086
35.57903289794922 4.8969645500183105 1.0195742845535278
35.54145812988281 4.969178676605225 1.0187994241714478
35.51683807373047 5.0409040451049805 1.018287181854248
35.46816635131836 5.109209060668945 1.017194151878357
35.449642181396484 5.183759689331055 1.0169776678085327
35.41737365722656 5.254133701324463 1.0142793655395508
35.33952713012695 5.3947858810424805 1.0125879049301147
35.29652404785156 5.463199615478516 1.0116783380508423
35.17971420288086 5.596925735473633 1.0069245100021362
35.11280059814453 5.6611199378967285 1.0053437948226929
34.68220901489258 6.192714214324951 0.9936059713363647
34.57925796508789 6.322640419006348 0.9914002418518066
34.53592300415039 6.390886306762695 0.9884011745452881
34.41368103027344 6.516204833984375 0.9856687188148499
34.3731803894043 6.584524154663086 0.9849086403846741
34.31038284301758 6.722415447235107 0.9817763566970825
34.21294403076172 6.7770771980285645 0.9793882369995117
34.200408935546875 6.848486423492432 0.9794349074363708
34.17238235473633 6.918731212615967 0.9769231677055359
34.12049865722656 6.981966018676758 0.975851833820343
34.06901931762695 7.04522705078125 0.9747961163520813
34.05226135253906 7.117546081542969 0.9726240038871765
33.99393844604492 7.179013729095459 0.9713814854621887
33.935115814208984 7.242351531982422 0.970140278339386
33.894290924072266 7.3072123527526855 0.9694046974182129
33.862396240234375 7.3740105628967285 0.9668118953704834
33.7872200012207 7.433170795440674 0.9671285152435303
33.73906707763672 7.496016025543213 0.9661935567855835
33.68248748779297 7.558985710144043 0.9630252122879028
33.6221923828125 7.618775367736816 0.9616507291793823
33.57096481323242 7.680548191070557 0.960640013217926
33.562530517578125 7.754002571105957 0.9608699679374695
33.51167678833008 7.815545082092285 0.9577745199203491
33.46430206298828 7.8778557777404785 0.9568861722946167
33.449317932128906 7.949678897857666 0.9569406509399414
33.39204788208008 8.009313583374023 0.9536778926849365
33.30894470214844 8.137880325317383 0.9522749781608582
33.24942398071289 8.196595191955566 0.9510581493377686
33.140892028808594 8.317946434020996 0.94685959815979
33.10133743286133 8.38117790222168 0.9462252855300903
33.024295806884766 8.509721755981445 0.9429552555084229
32.911827087402344 8.701848983764648 0.9392088055610657
32.75358581542969 8.882725715637207 0.9342094659805298
32.6893310546875 9.011219024658203 0.933436393737793
32.563106536865234 9.051214218139648 0.9302829504013062
32.03984069824219 9.049286842346191 0.9144628643989563
31.7857666015625 9.050788879394531 0.9077601432800293
31.230667114257812 9.033122062683105 0.8909853100776672
30.957889556884766 9.025837898254395 0.8836566805839539
30.690568923950195 9.017141342163086 0.8746985197067261
30.409637451171875 9.005119323730469 0.8672372102737427
30.17841911315918 9.00480842590332 0.8610824942588806
29.92829704284668 8.997949600219727 0.8526597023010254
29.690874099731445 8.995677947998047 0.846440315246582
29.43931770324707 8.98620319366455 0.8397089242935181
29.21599006652832 8.98444652557373 0.8320918679237366
28.949119567871094 8.970023155212402 0.8250343203544617
28.720430374145508 8.964618682861328 0.8189584016799927
28.49536895751953 8.961127281188965 0.8113464117050171
28.256664276123047 8.950538635253906 0.8050768375396729
28.03314781188965 8.943881034851074 0.7991506457328796
27.822107315063477 8.941988945007324 0.7919766306877136
27.603404998779297 8.935029983520508 0.7862780094146729
27.379152297973633 8.927011489868164 0.7786716222763062
27.192718505859375 8.928698539733887 0.7738950848579407
26.9605712890625 8.914582252502441 0.7678133845329285
26.76356315612793 8.912823677062988 0.7626604437828064
26.550067901611328 8.902975082397461 0.7554726004600525
26.353853225708008 8.89814567565918 0.7503328323364258
26.162137985229492 8.895634651184082 0.7438058257102966
25.95828628540039 8.886544227600098 0.7385335564613342
25.57157325744629 8.87456226348877 0.7269340753555298
25.4006290435791 8.874421119689941 0.7225973606109619
25.027568817138672 8.862442970275879 0.711417555809021
24.862878799438477 8.86231517791748 0.707181453704834
24.514009475708008 8.8544921875 0.6967969536781311
23.991687774658203 8.836723327636719 0.6818795800209045
23.659929275512695 8.827864646911621 0.6720324754714966
23.46977424621582 8.814000129699707 0.6670909523963928
23.162858963012695 8.80868148803711 0.6578878164291382
23.005046844482422 8.804886817932129 0.6525048017501831
22.685588836669922 8.790813446044922 0.6429880261421204
22.526968002319336 8.784666061401367 0.6390218138694763
22.380062103271484 8.78100299835205 0.6339724659919739
22.201698303222656 8.765721321105957 0.6293785572052002
22.063369750976562 8.764071464538574 0.6245905756950378
21.938549041748047 8.767318725585938 0.6215027570724487
21.7872314453125 8.760795593261719 0.6177441477775574
21.643808364868164 8.755345344543457 0.6127654314041138
21.48805809020996 8.74434757232666 0.6088691353797913
21.353408813476562 8.742694854736328 0.6042386293411255
21.205427169799805 8.733604431152344 0.6004966497421265
21.06079864501953 8.725201606750488 0.5955864787101746
20.923450469970703 8.7206449508667 0.5921611785888672
20.79058837890625 8.716023445129395 0.5876010656356812
20.634220123291016 8.702271461486816 0.5836396217346191
20.508930206298828 8.699675559997559 0.5806058645248413
20.384939193725586 8.697038650512695 0.5763164162635803
20.248807907104492 8.690067291259766 0.57292640209198
20.123071670532227 8.685669898986816 0.568603515625
20.00088119506836 8.683592796325684 0.565609335899353
19.885879516601562 8.682753562927246 0.5616036653518677
19.74281883239746 8.669181823730469 0.5580079555511475
19.62773323059082 8.66864013671875 0.5540288686752319
19.514890670776367 8.667311668395996 0.5513508915901184
19.390417098999023 8.660248756408691 0.5470436215400696
19.278593063354492 8.659685134887695 0.5444088578224182
19.14456558227539 8.647339820861816 0.5398473739624023
18.908193588256836 8.636565208435059 0.5329325795173645
18.806549072265625 8.637417793273926 0.5305724740028381
18.5897274017334 8.632758140563965 0.524224042892456
18.48889923095703 8.632689476013184 0.5206393003463745
18.233488082885742 8.607148170471191 0.5132904648780823
17.9175968170166 8.596184730529785 0.504637598991394
17.704904556274414 8.586054801940918 0.49845942854881287
17.5936336517334 8.57723617553711 0.495826780796051
17.39139175415039 8.569477081298828 0.489955872297287
17.300533294677734 8.570623397827148 0.4867309331893921
17.099477767944336 8.559653282165527 0.48090261220932007
16.991201400756836 8.550830841064453 0.4783693850040436
16.888416290283203 8.543134689331055 0.47377288341522217
16.79154396057129 8.537939071655273 0.47149646282196045
16.69754409790039 8.535022735595703 0.4682765305042267
16.598373413085938 8.527884483337402 0.4659370183944702
16.5007266998291 8.522257804870605 0.4626251459121704
16.408462524414062 8.51778507232666 0.4604790508747101
16.33829116821289 8.524506568908691 0.45793411135673523
16.219194412231445 8.506438255310059 0.4550502896308899
16.133195877075195 8.504128456115723 0.4520716667175293
16.052404403686523 8.504157066345215 0.4502484202384949
15.957127571105957 8.497325897216797 0.4470321238040924
15.863698959350586 8.489936828613281 0.44485560059547424
15.775802612304688 8.485057830810547 0.4418417513370514
15.68452262878418 8.47921085357666 0.4397396147251129
15.605446815490723 8.478357315063477 0.43698209524154663
15.51545238494873 8.472382545471191 0.43491560220718384
15.421560287475586 8.462763786315918 0.4317527711391449
15.3602933883667 8.470664024353027 0.4304775297641754
15.261924743652344 8.458927154541016 0.4272106885910034
15.175495147705078 8.452295303344727 0.4252314865589142
15.109187126159668 8.457646369934082 0.4228206276893616
15.008247375488281 8.442094802856445 0.41948384046554565
14.939364433288574 8.444265365600586 0.4179980754852295
14.861105918884277 8.441912651062012 0.4153173267841339
14.774653434753418 8.433462142944336 0.41240084171295166
14.696722030639648 8.429461479187012 0.4106634855270386
14.60824203491211 8.420181274414062 0.4077116847038269
14.550281524658203 8.427103042602539 0.4055549204349518
14.384925842285156 8.41237735748291 0.4009115397930145
14.306840896606445 8.406661987304688 0.39917314052581787
14.15709114074707 8.399075508117676 0.3949730694293976
14.084611892700195 8.39564037322998 0.3924826681613922
13.933246612548828 8.385143280029297 0.3882521092891693
13.876151084899902 8.390056610107422 0.387098103761673
13.800695419311523 8.384743690490723 0.38455289602279663
13.722445487976074 8.376239776611328 0.38187429308891296
13.587258338928223 8.372466087341309 0.37811553478240967
13.517816543579102 8.368431091308594 0.3766190707683563
13.359122276306152 8.348214149475098 0.3722119927406311
13.318697929382324 8.36251449584961 0.37066712975502014
13.174114227294922 8.348220825195312 0.36660733819007874
13.101980209350586 8.341737747192383 0.3641911745071411
13.042180061340332 8.341803550720215 0.3621097207069397
12.983573913574219 8.34233570098877 0.360019713640213
12.916691780090332 8.338347434997559 0.35861292481422424
12.828987121582031 8.319549560546875 0.3557681143283844
12.780122756958008 8.325587272644043 0.35484686493873596
12.717575073242188 8.323539733886719 0.35271838307380676
12.660026550292969 8.323504447937012 0.351557195186615
12.586359024047852 8.313580513000488 0.3491259813308716
12.538169860839844 8.319225311279297 0.34734922647476196
12.46131420135498 8.305527687072754 0.3456531763076782
12.398107528686523 8.301651954650879 0.343522846698761
12.345568656921387 8.303683280944824 0.3425008952617645
12.287426948547363 8.30166244506836 0.3405027985572815
12.230635643005371 8.30140209197998 0.33851683139801025
12.164080619812012 8.293153762817383 0.3371075987815857
12.098623275756836 8.286388397216797 0.3349299430847168
12.041170120239258 8.28385066986084 0.3337726891040802
11.962574005126953 8.266407012939453 0.3312235474586487
11.927006721496582 8.279478073120117 0.3298400938510895
11.858633995056152 8.268588066101074 0.32838159799575806
11.819931030273438 8.278107643127441 0.3269457519054413
11.75257682800293 8.268362045288086 0.3255279064178467
11.700160026550293 8.267887115478516 0.32371821999549866
11.628972053527832 8.25483512878418 0.32136422395706177
11.58336353302002 8.25871467590332 0.32057738304138184
11.519289016723633 8.249139785766602 0.3184119760990143
11.475159645080566 8.254629135131836 0.3176781237125397
11.41931438446045 8.250520706176758 0.31574565172195435
11.364312171936035 8.246728897094727 0.3138401508331299
11.317351341247559 8.249566078186035 0.3130284249782562
11.262441635131836 8.24543571472168 0.31113046407699585
11.148080825805664 8.234046936035156 0.30808040499687195
11.0841703414917 8.222447395324707 0.30594226717948914
10.982522964477539 8.218974113464355 0.30325162410736084
10.937270164489746 8.220571517944336 0.30163705348968506
10.86719036102295 8.204285621643066 0.30018702149391174
10.82607364654541 8.20857048034668 0.29869139194488525
10.781752586364746 8.210258483886719 0.29711049795150757
10.712777137756348 8.193947792053223 0.2956916093826294
10.658451080322266 8.187509536743164 0.29383963346481323
10.572659492492676 8.192638397216797 0.2916061580181122
10.53262710571289 8.1966552734375 0.2901556193828583
10.436700820922852 8.1928071975708 0.28765079379081726
10.373766899108887 8.178256034851074 0.2855766713619232
10.326432228088379 8.17676830291748 0.2847538888454437
10.283259391784668 8.177360534667969 0.28399237990379333
10.229375839233398 8.170193672180176 0.2822237014770508
10.171236038208008 8.158435821533203 0.2802908420562744
10.1433744430542 8.17073917388916 0.27995145320892334
10.096856117248535 8.168845176696777 0.2783927023410797
10.0404691696167 8.157806396484375 0.27651500701904297
9.99122428894043 8.152273178100586 0.27562397718429565
9.94918155670166 8.153386116027832 0.27415791153907776
9.895210266113281 8.143589973449707 0.2723540961742401
9.85470962524414 8.14558219909668 0.2717169225215912
9.808804512023926 8.142007827758789 0.270138680934906
9.756885528564453 8.13316822052002 0.2683975100517273
9.708211898803711 8.127758979797363 0.2675347924232483
9.674775123596191 8.134021759033203 0.2663067579269409
9.619894027709961 8.122014045715332 0.26449084281921387
9.582140922546387 8.125263214111328 0.2639295160770416
9.53650951385498 8.120651245117188 0.26237133145332336
9.482927322387695 8.10903263092041 0.26059776544570923
9.459691047668457 8.124212265014648 0.2604353129863739
9.417562484741211 8.122050285339355 0.258979856967926
9.361006736755371 8.108161926269531 0.25714337825775146
9.325211524963379 8.111135482788086 0.2565864324569702
9.287457466125488 8.112212181091309 0.25529325008392334
9.23573112487793 8.101831436157227 0.2543101906776428
9.188942909240723 8.094639778137207 0.2527724504470825
9.14794921875 8.092305183410645 0.2520706057548523
9.109756469726562 8.093274116516113 0.25075000524520874
9.070738792419434 8.092353820800781 0.24943086504936218
9.020073890686035 8.081777572631836 0.24847590923309326
8.985116958618164 8.08418083190918 0.24723701179027557
8.941372871398926 8.078461647033691 0.24579377472400665
8.911404609680176 8.085981369018555 0.24540826678276062
8.853242874145508 8.066816329956055 0.2435365468263626
8.820944786071777 8.070953369140625 0.24241305887699127
8.778342247009277 8.06649112701416 0.24168042838573456
8.730450630187988 8.055962562561035 0.24009643495082855
8.6932954788208 8.055144309997559 0.23881006240844727
8.671191215515137 8.069158554077148 0.2386757731437683
8.616987228393555 8.052148818969727 0.23692309856414795
8.541687965393066 8.049437522888184 0.23438365757465363
8.493856430053711 8.037707328796387 0.23349440097808838
8.456446647644043 8.036617279052734 0.23222510516643524
8.419822692871094 8.035130500793457 0.23100000619888306
8.381797790527344 8.032143592834473 0.23037973046302795
8.353768348693848 8.039587020874023 0.22937296330928802
8.306535720825195 8.027400970458984 0.22782762348651886
8.264676094055176 8.020182609558105 0.22713547945022583
8.235462188720703 8.026063919067383 0.2267698347568512
8.199342727661133 8.0241060256958 0.22553277015686035
8.160463333129883 8.020211219787598 0.22426816821098328
8.11385726928711 8.007621765136719 0.22274814546108246
8.081750869750977 8.009109497070312 0.22228935360908508
8.050140380859375 8.011941909790039 0.22122979164123535
8.013010025024414 8.008155822753906 0.2199738621711731
7.981575012207031 8.010847091674805 0.21954667568206787
7.939025402069092 8.001328468322754 0.218144953250885
7.908384323120117 8.003597259521484 0.21710458397865295
7.876334190368652 8.005248069763184 0.21600745618343353
7.833756446838379 7.995139122009277 0.21526236832141876
7.796328067779541 7.9900407791137695 0.2140074372291565
7.767268657684326 7.994307518005371 0.21302922070026398
7.732339859008789 7.991519927978516 0.21249394118785858
7.692843914031982 7.983788013458252 0.211186483502388
7.6599907875061035 7.983755588531494 0.2101089358329773
7.632582187652588 7.988305568695068 0.2091367542743683
7.5827155113220215 7.970086097717285 0.20820386707782745
7.554058074951172 7.97307825088501 0.20720089972019196
7.522538185119629 7.972884654998779 0.2061522752046585
7.488339424133301 7.970681190490723 0.20501355826854706
7.457226753234863 7.970644950866699 0.20458227396011353
7.419585227966309 7.963473320007324 0.20397092401981354
7.392136573791504 7.968073844909668 0.20305180549621582
