VERSION .7
FIELDS x y z
SIZE 4 4 4
TYPE F F F
COUNT 1 1 1
WIDTH 817
HEIGHT 1
VIEWPOINT 0 0 0 1 0 0 0
POINTS 817
DATA ascii
21.8177433013916 -4.305233478546143 0.05775509402155876
21.816654205322266 -4.257870197296143 0.057725146412849426
21.837743759155273 -4.214961051940918 0.05775691941380501
21.798093795776367 -4.065337181091309 0.05771230161190033
21.797561645507812 -3.9223592281341553 0.05629101023077965
21.759489059448242 -3.5395569801330566 0.05591795593500137
21.739791870117188 -3.3960795402526855 0.05703074857592583
21.72711753845215 -3.254312038421631 0.056937720626592636
21.73015022277832 -3.208674430847168 0.05694041773676872
21.723634719848633 -3.1604366302490234 0.05689326301217079
21.71327018737793 -3.1128015518188477 0.0567302368581295
21.708311080932617 -3.066129207611084 0.05670197308063507
21.724210739135742 -3.021183490753174 0.05672997236251831
21.717330932617188 -2.9741733074188232 0.05548609048128128
21.696027755737305 -2.9254002571105957 0.05553114414215088
21.685659408569336 -2.8768484592437744 0.05549072474241257
21.685726165771484 -2.8310751914978027 0.05545981228351593
21.691389083862305 -2.786046028137207 0.05534627288579941
21.672719955444336 -2.7365996837615967 0.05528313294053078
21.700101852416992 -2.694319009780884 0.05535268783569336
21.68532371520996 -2.6454567909240723 0.05528794601559639
21.651655197143555 -2.595761299133301 0.05518367886543274
21.66891860961914 -2.5522289276123047 0.05522816628217697
21.645418167114258 -2.502591371536255 0.05514109879732132
21.65934181213379 -2.4586641788482666 0.05517767742276192
21.648616790771484 -2.4107418060302734 0.05393187329173088
21.65355110168457 -2.365683078765869 0.053937364369630814
21.629026412963867 -2.3175933361053467 0.05732230097055435
21.63518714904785 -2.2716422080993652 0.05734172835946083
21.626110076904297 -2.2251996994018555 0.0573093518614769
21.622337341308594 -2.1794750690460205 0.05728408694267273
21.61494255065918 -2.1320960521698 0.056048206984996796
21.612979888916016 -2.0866246223449707 0.05603400617837906
21.59183692932129 -2.039367198944092 0.05596213787794113
21.583110809326172 -1.9920344352722168 0.05593421682715416
21.597259521484375 -1.9481486082077026 0.05596520006656647
21.579824447631836 -1.900235891342163 0.055899444967508316
21.56532096862793 -1.8086673021316528 0.05584786459803581
21.554359436035156 -1.7615123987197876 0.055680226534605026
21.533689498901367 -1.6697578430175781 0.05559537932276726
21.541229248046875 -1.5341713428497314 0.0556037500500679
21.480026245117188 -1.166656732559204 0.05644973739981651
21.473588943481445 -1.1214942932128906 0.056416239589452744
21.480520248413086 -1.03128981590271 0.05643346160650253
21.456422805786133 -0.9853842854499817 0.05637110397219658
21.44771385192871 -0.8944856524467468 0.05517057329416275
21.430150985717773 -0.8492075800895691 0.055112242698669434
21.4366397857666 -0.7590588927268982 0.05513205751776695
21.43414306640625 -0.7144378423690796 0.05499587953090668
21.402297973632812 -0.6677320003509521 0.05489262938499451
21.376359939575195 -0.6223989725112915 0.05483350157737732
21.36191749572754 -0.5776132345199585 0.05479126423597336
21.34256935119629 -0.5315898656845093 0.05475739389657974
21.34063148498535 -0.48710766434669495 0.054761968553066254
21.33847999572754 -0.44275593757629395 0.054750923067331314
21.310091018676758 -0.3966257870197296 0.054656319320201874
21.28691864013672 -0.35200631618499756 0.054476410150527954
21.28117561340332 -0.30656155943870544 0.05446260794997215
21.259063720703125 -0.26199597120285034 0.05440051481127739
21.21668243408203 -0.21743912994861603 0.05310864374041557
21.214683532714844 -0.1720951944589615 0.053089749068021774
21.19136619567871 -0.12792764604091644 0.05420450493693352
21.166597366333008 -0.08385216444730759 0.054138027131557465
21.152925491333008 -0.038610126823186874 0.05410686507821083
19.85737419128418 0.007271987851709127 -0.0011104391887784004
19.862796783447266 0.09092529863119125 -0.0010868469253182411
19.794212341308594 0.13168951869010925 -0.0011054826900362968
19.797985076904297 0.21509887278079987 -0.0011040279641747475
19.783742904663086 0.2571007013320923 -0.0011032922193408012
19.768007278442383 0.33907192945480347 -0.002193179912865162
19.763994216918945 0.3811255693435669 -0.0021960404701530933
19.77031898498535 0.42240384221076965 -0.002188853919506073
19.72383689880371 0.669596254825592 -0.0022893226705491543
19.69117546081543 0.7104921936988831 -0.0022953622974455357
19.673681259155273 0.7508558034896851 -0.0022905762307345867
19.67671012878418 0.7918669581413269 -0.002283685840666294
19.636037826538086 0.8321373462677002 -0.0023013795726001263
19.612207412719727 0.912798285484314 -0.0023030228912830353
19.627351760864258 0.9554153084754944 -0.0022885468788444996
19.583961486816406 0.9941552877426147 -0.0022929906845092773
19.592313766479492 1.0353463888168335 -0.002288366202265024
19.586780548095703 1.0770175457000732 -0.0022897678427398205
19.560941696166992 1.198984980583191 -0.0033756857737898827
19.56730842590332 1.240139126777649 -0.0034832009114325047
19.554584503173828 1.2811678647994995 -0.003486885689198971
19.52078628540039 1.319753646850586 -0.0034848973155021667
19.510229110717773 1.4014942646026611 -0.0034787808544933796
19.508848190307617 1.4422059059143066 -0.0034784995950758457
19.50157928466797 1.5242729187011719 -0.0034715798683464527
19.49896240234375 1.564786434173584 -0.003472256474196911
19.481224060058594 1.6459635496139526 -0.0034758434630930424
19.45696449279785 1.6845862865447998 -0.004557780921459198
19.457773208618164 1.767246127128601 -0.0034659290686249733
19.427461624145508 1.8470174074172974 -0.00466508511453867
19.41521453857422 1.886515498161316 -0.004660654813051224
19.4009952545166 1.967645525932312 -0.004654784686863422
19.406108856201172 2.0088584423065186 -0.004658947698771954
19.38334846496582 2.0890448093414307 -0.0046479483135044575
19.36153793334961 2.127349376678467 -0.004641538951545954
19.350811004638672 2.168017625808716 -0.004649528302252293
19.339750289916992 2.2491767406463623 -0.004752430133521557
19.33294105529785 2.289168119430542 -0.004748407751321793
19.29894256591797 2.4907360076904297 -0.005828485824167728
19.242023468017578 2.6472597122192383 -0.005816217046231031
19.24663543701172 2.689689874649048 -0.00581308314576745
19.234167098999023 2.728764057159424 -0.005821765400469303
19.224149703979492 2.768051862716675 -0.00689071835950017
19.20693016052246 2.8073554039001465 -0.006886322982609272
19.201213836669922 2.8473405838012695 -0.0068796612322330475
19.18305206298828 2.8853440284729004 -0.006874998100101948
19.186206817626953 2.927745819091797 -0.00686604343354702
19.17031478881836 2.9660420417785645 -0.006867560558021069
19.1531982421875 3.0051915645599365 -0.006869847886264324
19.134157180786133 3.043013334274292 -0.006872210651636124
19.11590003967285 3.0807955265045166 -0.006867935415357351
19.111467361450195 3.1218717098236084 -0.006860018242150545
19.08763885498047 3.158771514892578 -0.0069854166358709335
19.059886932373047 3.194829225540161 -0.00699053518474102
19.05832290649414 3.236327648162842 -0.006962009705603123
19.041629791259766 3.274273157119751 -0.006963851861655712
18.99219512939453 3.3063650131225586 -0.006958071142435074
18.995973587036133 3.348848342895508 -0.008023511618375778
18.94646453857422 3.3806746006011963 -0.008021858520805836
18.929027557373047 3.4191925525665283 -0.008022680878639221
18.889284133911133 3.4526174068450928 -0.008013464510440826
18.868518829345703 3.4893016815185547 -0.00800115056335926
18.85848045349121 3.5290145874023438 -0.007987618446350098
18.829761505126953 3.5642106533050537 -0.007975977845489979
18.790525436401367 3.638819932937622 -0.007964972406625748
18.76454734802246 3.674206018447876 -0.009032578207552433
18.72421646118164 3.748256206512451 -0.009005103260278702
18.72431755065918 3.7887065410614014 -0.008999507874250412
18.665437698364258 3.858689546585083 -0.00898132473230362
18.657011032104492 3.897336721420288 -0.008981640450656414
18.639177322387695 3.935185194015503 -0.008981939405202866
18.639692306518555 3.9757165908813477 -0.008974834345281124
18.597280502319336 4.048628807067871 -0.008957182988524437
18.579591751098633 4.085180282592773 -0.008956157602369785
18.540996551513672 4.158628463745117 -0.008950633928179741
18.497560501098633 4.189222812652588 -0.009981787763535976
18.46950340270996 4.264719486236572 -0.009975440800189972
18.460872650146484 4.303099155426025 -0.009975729510188103
18.432167053222656 4.337942123413086 -0.009975152090191841
18.4093074798584 4.372901916503906 -0.009961594827473164
18.40130043029785 4.412437438964844 -0.009968229569494724
18.38095474243164 4.4884257316589355 -0.009954960085451603
18.341203689575195 4.52014684677124 -0.009956258349120617
18.31855583190918 4.555020332336426 -0.010986343957483768
18.30917739868164 4.593053340911865 -0.01097964495420456
18.307334899902344 4.634073257446289 -0.010973583906888962
18.276485443115234 4.666752815246582 -0.010972392745316029
18.25694465637207 4.703219413757324 -0.010971647687256336
18.22743034362793 4.736083984375 -0.010970406234264374
18.225929260253906 4.776091575622559 -0.010964227840304375
18.19583511352539 4.809658050537109 -0.010962973348796368
18.18250846862793 4.846637725830078 -0.010942505672574043
18.16340446472168 4.881937026977539 -0.010948499664664268
18.131725311279297 4.91497802734375 -0.010940452106297016
18.111099243164062 4.949756145477295 -0.010933373123407364
18.100309371948242 4.987196922302246 -0.010925638489425182
18.061779022216797 5.018118858337402 -0.010937287472188473
18.048887252807617 5.054906845092773 -0.010924149304628372
18.026145935058594 5.089980602264404 -0.011947352439165115
18.025354385375977 5.130279541015625 -0.011948318220674992
17.985700607299805 5.159365653991699 -0.011944921687245369
17.961376190185547 5.193829536437988 -0.011929542757570744
17.947629928588867 5.230348110198975 -0.01191604882478714
17.92841339111328 5.265137672424316 -0.011921482160687447
17.90533447265625 5.299934387207031 -0.011913629248738289
17.89333724975586 5.336793899536133 -0.011906732805073261
17.864513397216797 5.368592739105225 -0.01191110908985138
17.838939666748047 5.4024834632873535 -0.011882359161973
17.824600219726562 5.438548564910889 -0.011882246471941471
17.774843215942383 5.505298137664795 -0.011885186657309532
17.75152015686035 5.538471698760986 -0.011870544403791428
17.70543670654297 5.606026649475098 -0.012875999324023724
17.68032455444336 5.68010950088501 -0.012869180180132389
17.658878326416016 5.713674068450928 -0.012867050245404243
17.595773696899414 5.775228977203369 -0.012754212133586407
17.591779708862305 5.814384937286377 -0.01274941023439169
17.568199157714844 5.848249912261963 -0.012740639969706535
17.56597900390625 5.888031482696533 -0.012742562219500542
17.54326629638672 5.920942306518555 -0.012734053656458855
17.518882751464844 5.954431533813477 -0.012725304812192917
17.49632453918457 5.987295627593994 -0.012717263773083687
17.473278045654297 6.021026134490967 -0.012714588083326817
17.457881927490234 6.05639123916626 -0.012701340951025486
17.43638038635254 6.0894999504089355 -0.013729151338338852
17.413002014160156 6.122990608215332 -0.013720326125621796
17.391719818115234 6.15620231628418 -0.012702440842986107
17.367155075073242 6.188092231750488 -0.013707708567380905
17.353897094726562 6.2251787185668945 -0.013707708567380905
17.339889526367188 6.26079797744751 -0.013707298785448074
17.306089401245117 6.289219856262207 -0.01368893776088953
17.29180335998535 6.325878620147705 -0.013684086501598358
17.288658142089844 6.3654375076293945 -0.013687648810446262
17.235620498657227 6.3876423835754395 -0.013675879687070847
17.230615615844727 6.426597595214844 -0.01367054134607315
17.20707130432129 6.458523750305176 -0.013674167916178703
17.19384002685547 6.495384693145752 -0.013668173924088478
17.16904640197754 6.526875972747803 -0.013662919402122498
17.134191513061523 6.554352283477783 -0.013555215671658516
17.11961555480957 6.590734958648682 -0.01353578083217144
17.096111297607422 6.6224541664123535 -0.013533217832446098
17.07910919189453 6.657750606536865 -0.013538271188735962
17.062549591064453 6.692229270935059 -0.013531635515391827
17.05782699584961 6.731253623962402 -0.01454947330057621
17.038637161254883 6.765783786773682 -0.014541637152433395
16.98411750793457 6.784970283508301 -0.014528213068842888
16.975675582885742 6.822482109069824 -0.014517407864332199
16.898387908935547 6.833385944366455 -0.01450931467115879
16.82098388671875 6.8427348136901855 -0.014471424743533134
16.73500633239746 6.848268032073975 -0.014446167275309563
16.6525821685791 6.856107234954834 -0.013428451493382454
16.571226119995117 6.862863540649414 -0.013410722836852074
16.498302459716797 6.873876094818115 -0.01338883675634861
16.406673431396484 6.875803470611572 -0.014350272715091705
16.352571487426758 6.893059253692627 -0.014330822974443436
16.262577056884766 6.89607572555542 -0.014310954138636589
16.1875 6.903906345367432 -0.014262261800467968
16.10944175720215 6.910160541534424 -0.014256181195378304
16.039405822753906 6.920724391937256 -0.014236622489988804
15.960789680480957 6.926126956939697 -0.014219793491065502
15.893179893493652 6.9360151290893555 -0.014189006760716438
15.822321891784668 6.945366859436035 -0.014174209907650948
15.753649711608887 6.954249382019043 -0.013943523168563843
15.604509353637695 6.96708345413208 -0.013885144144296646
15.545650482177734 6.979531288146973 -0.013869911432266235
15.459110260009766 6.980396270751953 -0.013816626742482185
15.393177032470703 6.989117622375488 -0.013766694813966751
15.237515449523926 6.995990753173828 -0.013658953830599785
15.17300033569336 7.00452995300293 -0.014530995860695839
15.035185813903809 7.0178728103637695 -0.014424328692257404
14.961636543273926 7.021392822265625 -0.01438194327056408
14.883306503295898 7.023468494415283 -0.012510635890066624
14.82807445526123 7.035064220428467 -0.0133840162307024
14.76173210144043 7.041155815124512 -0.013334092684090137
14.694987297058105 7.0478925704956055 -0.013279605656862259
14.626249313354492 7.0522966384887695 -0.013231581076979637
14.542658805847168 7.050210475921631 -0.013185668736696243
14.489191055297852 7.061572074890137 -0.013143196702003479
14.431557655334473 7.070581912994385 -0.013108799234032631
14.359550476074219 7.0733819007873535 -0.013053756207227707
14.286683082580566 7.074367046356201 -0.013007376343011856
14.23883056640625 7.087502956390381 -0.012966634705662727
14.152976036071777 7.08253288269043 -0.012916328385472298
14.097395896911621 7.091338634490967 -0.012776113115251064
14.034945487976074 7.0964579582214355 -0.012747184373438358
13.966614723205566 7.099411964416504 -0.01269848458468914
13.888199806213379 7.095858097076416 -0.012653629295527935
13.8432035446167 7.110095500946045 -0.012607473880052567
13.771382331848145 7.109468460083008 -0.012567689642310143
13.716784477233887 7.117372512817383 -0.01243540458381176
13.657759666442871 7.1238179206848145 -0.013243893161416054
13.600476264953613 7.129880428314209 -0.013201206922531128
13.528766632080078 7.128116607666016 -0.013159319758415222
13.471692085266113 7.134854316711426 -0.013120006769895554
13.400430679321289 7.132761478424072 -0.013076875358819962
13.36457633972168 7.150252342224121 -0.012203186750411987
13.296292304992676 7.149353981018066 -0.012163837440311909
13.232029914855957 7.150238037109375 -0.012120758183300495
13.182796478271484 7.160060405731201 -0.012087609618902206
13.12168025970459 7.162168502807617 -0.012043304741382599
13.058697700500488 7.163002967834473 -0.012007107958197594
12.995780944824219 7.164649963378906 -0.011965980753302574
12.952420234680176 7.175833225250244 -0.011936591006815434
12.885176658630371 7.1735663414001465 -0.011890082620084286
12.826828956604004 7.177019119262695 -0.011855080723762512
12.768233299255371 7.179065704345703 -0.011810158379375935
12.736440658569336 7.196938991546631 -0.011791795492172241
12.656201362609863 7.186392307281494 -0.01165580190718174
12.594513893127441 7.185967922210693 -0.012406434863805771
12.553627014160156 7.198230743408203 -0.012371721677482128
12.508191108703613 7.2067108154296875 -0.012339860200881958
12.444321632385254 7.204350471496582 -0.012291133403778076
12.391942977905273 7.209414958953857 -0.012257855385541916
12.33393669128418 7.209967613220215 -0.012214170768857002
12.274062156677246 7.2091827392578125 -0.012189771980047226
12.228498458862305 7.217599868774414 -0.01215028204023838
12.178814888000488 7.222395896911621 -0.012113804928958416
12.069382667541504 7.226377010345459 -0.011949778534471989
12.023664474487305 7.2329421043396 -0.01191791333258152
11.978045463562012 7.240391731262207 -0.011896561831235886
11.915002822875977 7.236088275909424 -0.011851005256175995
11.807916641235352 7.239296913146973 -0.011773543432354927
11.768139839172363 7.24855375289917 -0.011749429628252983
11.70319652557373 7.243082523345947 -0.011709393933415413
11.657869338989258 7.248533248901367 -0.011678453534841537
11.62530517578125 7.261779308319092 -0.011644188314676285
11.562724113464355 7.257072448730469 -0.011612331494688988
11.526764869689941 7.267889499664307 -0.011578178033232689
11.479842185974121 7.271642208099365 -0.011559974402189255
11.429573059082031 7.274059295654297 -0.01143544353544712
11.382352828979492 7.277238845825195 -0.011403586715459824
11.318964004516602 7.269846439361572 -0.011363588273525238
11.283783912658691 7.281345844268799 -0.011341728270053864
11.224178314208984 7.275918006896973 -0.011312643066048622
11.190707206726074 7.288219451904297 -0.011283285915851593
11.143279075622559 7.290308952331543 -0.011244844645261765
11.088552474975586 7.287409782409668 -0.01193876750767231
11.046586990356445 7.293668270111084 -0.011835236102342606
10.992693901062012 7.290885925292969 -0.011798640713095665
10.958253860473633 7.3008317947387695 -0.011766461655497551
10.908321380615234 7.301260471343994 -0.011738921515643597
10.87218189239502 7.309786319732666 -0.01099221222102642
10.80401611328125 7.297419548034668 -0.010957635939121246
10.765496253967285 7.3040771484375 -0.010923914611339569
10.733284950256348 7.31479549407959 -0.010905858129262924
10.686120986938477 7.316131591796875 -0.01086965948343277
10.629423141479492 7.309758186340332 -0.011543577536940575
10.597895622253418 7.320517063140869 -0.011530263349413872
10.556628227233887 7.325372219085693 -0.011495141312479973
10.499403953552246 7.317989826202393 -0.011453937739133835
10.446621894836426 7.314407825469971 -0.011427266523241997
10.422873497009277 7.330060005187988 -0.01140476856380701
10.379809379577637 7.332015514373779 -0.011293984949588776
10.326933860778809 7.327783107757568 -0.01126601081341505
10.284314155578613 7.329676628112793 -0.011233843863010406
10.264419555664062 7.3476643562316895 -0.01121615618467331
10.202615737915039 7.3364386558532715 -0.011175388470292091
10.17233657836914 7.346738815307617 -0.01114966906607151
10.140819549560547 7.356044769287109 -0.011128297075629234
10.086995124816895 7.349937915802002 -0.011020823381841183
10.030813217163086 7.340918064117432 -0.010984590277075768
9.991701126098633 7.345121383666992 -0.010953584685921669
9.960969924926758 7.3544206619262695 -0.010937566868960857
9.925553321838379 7.360145568847656 -0.010918364860117435
9.88630485534668 7.363826751708984 -0.010881168767809868
9.858870506286621 7.375250816345215 -0.010868498124182224
9.806830406188965 7.368110656738281 -0.010835106484591961
9.77417278289795 7.376291751861572 -0.01080850325524807
9.738919258117676 7.381458282470703 -0.010793576017022133
9.687216758728027 7.373971939086914 -0.010755343362689018
9.652148246765137 7.379897594451904 -0.010738998651504517
9.604632377624512 7.37520170211792 -0.01070043258368969
9.566332817077637 7.378330707550049 -0.010682310909032822
9.54041862487793 7.389970302581787 -0.010585233569145203
9.489144325256348 7.381810188293457 -0.010547222569584846
9.455689430236816 7.388262748718262 -0.010534249246120453
9.414953231811523 7.387950897216797 -0.010496575385332108
9.381391525268555 7.393215656280518 -0.010480126366019249
9.333540916442871 7.387789726257324 -0.010370677337050438
9.306634902954102 7.397957801818848 -0.010361021384596825
9.271028518676758 7.402027606964111 -0.010989817790687084
9.234748840332031 7.404493808746338 -0.010976297780871391
9.19674301147461 7.405428409576416 -0.010940535925328732
9.166176795959473 7.413147449493408 -0.01091840397566557
9.12755298614502 7.413293838500977 -0.010899282991886139
9.089691162109375 7.4139018058776855 -0.010869495570659637
9.054414749145508 7.41739559173584 -0.010847989469766617
9.01252555847168 7.41438627243042 -0.010817263275384903
8.981067657470703 7.419905185699463 -0.010796774178743362
8.944525718688965 7.42182731628418 -0.010767443105578423
8.899576187133789 7.415769100189209 -0.010673480108380318
8.878524780273438 7.430420398712158 -0.010661815293133259
8.836076736450195 7.426130294799805 -0.010635903105139732
8.791146278381348 7.419551372528076 -0.01060163788497448
8.756204605102539 7.422148704528809 -0.010585413314402103
8.739655494689941 7.439342975616455 -0.01056807953864336
8.69556999206543 7.432992935180664 -0.010545782744884491
8.663398742675781 7.4375810623168945 -0.010517504997551441
8.622522354125977 7.4336256980896 -0.010500680655241013
8.587555885314941 7.434695243835449 -0.010466823354363441
8.5524320602417 7.436216354370117 -0.010377855971455574
8.505383491516113 7.4263596534729 -0.010410966351628304
8.490411758422852 7.445311546325684 -0.010336562991142273
8.442544937133789 7.434386253356934 -0.010298578068614006
8.42424201965332 7.449362754821777 -0.010294467210769653
8.38916301727295 7.4503374099731445 -0.01026163250207901
8.353577613830566 7.44980001449585 -0.010252008214592934
8.323346138000488 7.454822063446045 -0.010229045525193214
8.293214797973633 7.458909034729004 -0.010213864967226982
8.258278846740723 7.458546161651611 -0.010187484323978424
8.222674369812012 7.45834493637085 -0.010779300704598427
8.186009407043457 7.456110000610352 -0.01075365673750639
8.157601356506348 7.46126651763916 -0.010665474459528923
8.127620697021484 7.465794086456299 -0.010642440989613533
8.095839500427246 7.467637062072754 -0.010614903643727303
8.061271667480469 7.466771602630615 -0.010599077679216862
8.033967018127441 7.473431587219238 -0.010579142719507217
7.991513252258301 7.464934349060059 -0.010554018430411816
7.969640254974365 7.476446628570557 -0.010539697483181953
7.929428577423096 7.469720363616943 -0.010509433224797249
7.909699440002441 7.482175350189209 -0.01049596257507801
7.874982833862305 7.481276035308838 -0.010474612936377525
7.832529544830322 7.471930503845215 -0.01037717703729868
7.80377721786499 7.4754958152771 -0.010358515195548534
7.782921314239502 7.487464427947998 -0.010359307751059532
7.751423358917236 7.488198280334473 -0.010322155430912971
7.694446563720703 7.496058464050293 -0.01029481552541256
7.646848201751709 7.480679512023926 -0.010262425057590008
7.634718894958496 7.50079870223999 -0.010259058326482773
7.586277008056641 7.484208583831787 -0.010223977267742157
7.561093330383301 7.4903883934021 -0.01020946353673935
7.5269012451171875 7.488442897796631 -0.010123024694621563
7.4968366622924805 7.489552974700928 -0.010684199631214142
7.4708404541015625 7.494715690612793 -0.01066727563738823
7.445934772491455 7.501619815826416 -0.010650211945176125
7.408206939697266 7.49465274810791 -0.01062413677573204
7.381587028503418 7.499698638916016 -0.010605491697788239
7.354563236236572 7.503325939178467 -0.010594024322926998
7.317319393157959 7.496384143829346 -0.010562494397163391
7.296858787536621 7.507440567016602 -0.010546604171395302
7.251901626586914 7.492231845855713 -0.01044914685189724
7.239084720611572 7.5101141929626465 -0.010449119843542576
7.203977584838867 7.505716323852539 -0.010424123145639896
7.177160263061523 7.508905410766602 -0.010413132607936859
7.155447959899902 7.517452239990234 -0.010392419993877411
7.119560241699219 7.51172399520874 -0.010944578796625137
7.086794376373291 7.508298397064209 -0.010351723060011864
7.060588836669922 7.512620449066162 -0.01089957170188427
7.039683818817139 7.521594047546387 -0.010885710828006268
7.004446029663086 7.515142917633057 -0.010790553875267506
6.96504020690918 7.504944324493408 -0.010764401406049728
6.943037509918213 7.512442111968994 -0.010752190835773945
6.929924011230469 7.529540538787842 -0.010751254856586456
6.897183895111084 7.5261712074279785 -0.010723651386797428
6.876793384552002 7.535254955291748 -0.010709736496210098
6.839435577392578 7.525720119476318 -0.010683857835829258
6.809089660644531 7.524467945098877 -0.010667562484741211
6.785361289978027 7.529594421386719 -0.0105863893404603
6.754980087280273 7.528156757354736 -0.01056421734392643
6.722145080566406 7.522911548614502 -0.010550888255238533
6.690767288208008 7.519237995147705 -0.010524604469537735
6.665316581726074 7.52284049987793 -0.010503901168704033
6.644730567932129 7.531033992767334 -0.010497843846678734
6.6074066162109375 7.521056175231934 -0.010472255758941174
6.595020771026611 7.538451671600342 -0.010467926040291786
6.5614013671875 7.5315046310424805 -0.010376932099461555
6.540648460388184 7.540143966674805 -0.010370247066020966
6.513686180114746 7.540617942810059 -0.010353881865739822
6.492249488830566 7.547406196594238 -0.010341256856918335
6.457474231719971 7.539497375488281 -0.010314151644706726
6.440593719482422 7.551450729370117 -0.010306117124855518
6.3838090896606445 7.549032211303711 -0.01021189521998167
6.3622212409973145 7.555247783660889 -0.010191074572503567
6.32639217376709 7.545356273651123 -0.01017051562666893
6.303503036499023 7.549824237823486 -0.010160256177186966
6.280086994171143 7.553585052490234 -0.010142598301172256
6.254212379455566 7.55523681640625 -0.010129481554031372
6.2327752113342285 7.561229228973389 -0.010059033520519733
6.201635360717773 7.555343151092529 -0.010034920647740364
6.176031589508057 7.557010650634766 -0.010554971173405647
6.145323753356934 7.551362991333008 -0.010532514192163944
6.123941421508789 7.557164669036865 -0.01051768846809864
6.089877128601074 7.547938823699951 -0.010493967682123184
6.073586463928223 7.559796333312988 -0.010486910119652748
6.043929576873779 7.555884838104248 -0.010407157242298126
6.012154579162598 7.548218727111816 -0.010382365435361862
5.995798110961914 7.559823036193848 -0.010377896949648857
5.975118637084961 7.566895008087158 -0.01036718487739563
5.943212032318115 7.558685779571533 -0.01034083403646946
5.920666217803955 7.56235408782959 -0.0103272944688797
5.9033308029174805 7.573390960693359 -0.010327300056815147
5.876332759857178 7.571105480194092 -0.010242383927106857
5.845946788787842 7.565266132354736 -0.010228139348328114
5.833889484405518 7.582131862640381 -0.010226331651210785
5.795795440673828 7.5650529861450195 -0.010195816867053509
5.776568412780762 7.573413372039795 -0.010186351835727692
5.747416019439697 7.567709445953369 -0.010173361748456955
5.733703136444092 7.582368850708008 -0.010168313980102539
5.703221797943115 7.575545787811279 -0.010148115456104279
5.673456192016602 7.5686445236206055 -0.010063198395073414
5.651637554168701 7.572328090667725 -0.010057020001113415
5.631877899169922 7.579479217529297 -0.010047809220850468
5.614251136779785 7.588601589202881 -0.010033815167844296
5.590574264526367 7.590458393096924 -0.010017212480306625
5.565164089202881 7.588889122009277 -0.010001319460570812
5.534051895141602 7.579397201538086 -0.009921500459313393
5.518761157989502 7.592456340789795 -0.009920621290802956
5.4915056228637695 7.588019847869873 -0.009902399964630604
5.461228370666504 7.579349517822266 -0.009877897799015045
5.448638916015625 7.595937728881836 -0.009880282916128635
5.41658878326416 7.584438800811768 -0.00984864216297865
5.3970232009887695 7.590397357940674 -0.009848235175013542
5.362356662750244 7.575758934020996 -0.009756863117218018
5.358821868896484 7.6041789054870605 -0.009776327759027481
5.325605392456055 7.591433048248291 -0.00974924024194479
5.295989990234375 7.582638740539551 -0.009731128811836243
5.258478164672852 7.596884250640869 -0.009715547785162926
5.232993125915527 7.593691825866699 -0.00964171253144741
5.212571144104004 7.598747253417969 -0.009628379717469215
5.189300537109375 7.598580360412598 -0.009619505144655704
5.169829368591309 7.603902816772461 -0.009609345346689224
5.1465582847595215 7.604564666748047 -0.009535995312035084
5.1203789710998535 7.599809646606445 -0.00951911136507988
5.091526031494141 7.590932369232178 -0.009501088410615921
5.078643321990967 7.606801509857178 -0.009501928463578224
5.05833101272583 7.610529899597168 -0.009493142366409302
5.010833740234375 7.60837984085083 -0.009467389434576035
4.99105167388916 7.612689018249512 -0.009400417096912861
4.96123743057251 7.602583408355713 -0.009381450712680817
4.944080829620361 7.610755920410156 -0.009377378039062023
4.921982765197754 7.611266613006592 -0.009362486191093922
4.891977787017822 7.600424289703369 -0.009341963566839695
4.876430511474609 7.610929012298584 -0.009339083917438984
4.8504462242126465 7.605070114135742 -0.00926697626709938
4.830341815948486 7.609355449676514 -0.009261209517717361
4.810902118682861 7.613603591918945 -0.009246086701750755
4.782997131347656 7.604447364807129 -0.009231118485331535
4.762511730194092 7.607784748077393 -0.009220913983881474
4.740328788757324 7.607405662536621 -0.00920441746711731
4.724348068237305 7.61796760559082 -0.009150148369371891
4.702815055847168 7.618497848510742 -0.009138043038547039
4.683491230010986 7.622645378112793 -0.009074595756828785
4.652490615844727 7.608476638793945 -0.009048298932611942
4.640781879425049 7.6248345375061035 -0.009047430008649826
4.618637561798096 7.624139308929443 -0.009042625315487385
4.593332767486572 7.61893892288208 -0.009030267596244812
4.5646491050720215 7.607017993927002 -0.009006373584270477
4.557229518890381 7.631557464599609 -0.008962572552263737
4.533524990081787 7.627777576446533 -0.00894407369196415
4.5124006271362305 7.628233432769775 -0.008936197496950626
4.487236022949219 7.622807025909424 -0.008921155706048012
4.466411590576172 7.623575687408447 -0.008911460638046265
4.446505069732666 7.625945091247559 -0.008899392560124397
4.420380592346191 7.618386745452881 -0.008823403157293797
4.399717807769775 7.619155406951904 -0.008818442933261395
5.351621150970459 -10.118062973022461 0.006721368990838528
5.3990912437438965 -10.104618072509766 0.006741143297404051
5.451373100280762 -10.049947738647461 0.006718255579471588
6.044338226318359 -10.058863639831543 0.006673315539956093
6.075039863586426 -10.062454223632812 0.0066873859614133835
6.127432346343994 -10.053445816040039 0.006624514237046242
6.146968841552734 -10.038420677185059 0.006613699719309807
6.212663650512695 -10.05056095123291 0.007290299981832504
6.23594856262207 -10.041435241699219 0.007295300718396902
6.27173376083374 -10.051229476928711 0.007308637257665396
6.300296306610107 -10.050361633300781 0.007318768184632063
6.326692581176758 -10.0460844039917 0.0072499895468354225
6.347302436828613 -10.031364440917969 0.00724457111209631
6.385368347167969 -10.045186996459961 0.007267148233950138
6.413454055786133 -10.04327392578125 0.007275244686752558
6.473475456237793 -10.043764114379883 0.007302690297365189
6.489673614501953 -10.023157119750977 0.0072910175658762455
6.549492835998535 -10.022770881652832 0.007314404472708702
6.585155963897705 -10.030628204345703 0.007331016473472118
6.641940593719482 -10.026032447814941 0.007275810930877924
6.666057109832764 -10.016035079956055 0.007266719825565815
6.811550617218018 -10.005308151245117 0.007237924262881279
7.383446216583252 -9.96710205078125 0.007252002600580454
7.484842300415039 -9.972294807434082 0.007296627387404442
7.549509525299072 -9.970711708068848 0.007319174241274595
7.570216178894043 -9.954935073852539 0.007315820083022118
7.634030342102051 -9.9517183303833 0.007945090532302856
7.666202545166016 -9.950699806213379 0.0072736660949885845
7.7028069496154785 -9.954286575317383 0.007281704805791378
7.736719131469727 -9.955358505249023 0.0073015885427594185
7.754307270050049 -9.935236930847168 0.0072907013818621635
7.796027183532715 -9.944947242736816 0.007315235678106546
7.830296516418457 -9.946084976196289 0.00724805798381567
7.863865375518799 -9.94605827331543 0.007258448749780655
7.894669055938721 -9.941421508789062 0.007264094427227974
7.92546272277832 -9.937653541564941 0.007279536686837673
7.962102890014648 -9.941205024719238 0.007291294634342194
7.991336822509766 -9.934266090393066 0.007298822980374098
8.034619331359863 -9.945611953735352 0.007324157748371363
8.055603981018066 -9.928255081176758 0.007323394529521465
8.125783920288086 -9.930100440979004 0.007350717671215534
8.147236824035645 -9.913161277770996 0.007342304103076458
8.225518226623535 -9.92402458190918 0.0072970399633049965
8.252577781677246 -9.913622856140137 0.007305203005671501
8.351336479187012 -9.904953956604004 0.0073361992835998535
8.974751472473145 -9.862947463989258 0.00811197143048048
9.076505661010742 -9.849660873413086 0.008149090223014355
9.19245719909668 -9.850496292114258 0.008106803521513939
9.260605812072754 -9.84011459350586 0.008127255365252495
9.296046257019043 -9.836791038513184 0.008144613355398178
9.36734390258789 -9.828985214233398 0.00808782409876585
9.40607738494873 -9.828579902648926 0.008100075647234917
9.443674087524414 -9.825883865356445 0.008113911375403404
9.480973243713379 -9.82380485534668 0.008121339604258537
9.516898155212402 -9.820039749145508 0.008134431205689907
9.553975105285645 -9.816376686096191 0.00815141573548317
9.58945083618164 -9.812003135681152 0.00816780049353838
9.626910209655762 -9.809402465820312 0.008091919124126434
9.654788970947266 -9.795987129211426 0.00810195505619049
9.704715728759766 -9.805856704711914 0.008213230408728123
9.743616104125977 -9.80318832397461 0.008233665488660336
9.78023910522461 -9.79927921295166 0.008155029267072678
9.825056076049805 -9.8032865524292 0.008179097436368465
9.862706184387207 -9.79902172088623 0.008189819753170013
9.901068687438965 -9.796392440795898 0.0074431332759559155
9.974437713623047 -9.786199569702148 0.007461818400770426
10.076294898986816 -9.7625732421875 0.007407510653138161
10.20508098602295 -9.763720512390137 0.008229821920394897
10.33238410949707 -9.761846542358398 0.008284810930490494
10.69520092010498 -9.728317260742188 0.008246777579188347
10.816689491271973 -9.715264320373535 0.008292894810438156
10.938711166381836 -9.701315879821777 0.008239022456109524
11.068933486938477 -9.693174362182617 0.008288346230983734
11.147967338562012 -9.679736137390137 0.00913053099066019
11.205177307128906 -9.688700675964355 0.009065793827176094
11.281174659729004 -9.671684265136719 0.009093871340155602
11.335809707641602 -9.677783966064453 0.009124125353991985
11.374040603637695 -9.668490409851074 0.009133312851190567
11.422797203063965 -9.669175148010254 0.009160713292658329
11.46915054321289 -9.66762924194336 0.009182704612612724
11.504799842834473 -9.655714988708496 0.009096313267946243
11.546514511108398 -9.649956703186035 0.009114483371376991
11.60753059387207 -9.660109519958496 0.009149917401373386
11.641961097717285 -9.646742820739746 0.009160315617918968
11.67747688293457 -9.635371208190918 0.009073220193386078
11.738569259643555 -9.644780158996582 0.009112737141549587
11.767172813415527 -9.626373291015625 0.00910720694810152
11.802858352661133 -9.614749908447266 0.009116491302847862
11.85793685913086 -9.617549896240234 0.009150257334113121
11.920787811279297 -9.627583503723145 0.009091628715395927
11.958015441894531 -9.616717338562012 0.009092808701097965
12.016225814819336 -9.621331214904785 0.0082919392734766
12.054624557495117 -9.611091613769531 0.008292948827147484
12.147550582885742 -9.60177993774414 0.008331403136253357
12.192595481872559 -9.596343040466309 0.008358693681657314
12.292773246765137 -9.591625213623047 0.00914476253092289
12.342718124389648 -9.589454650878906 0.009168082848191261
12.418658256530762 -9.564858436584473 0.009182748384773731
12.573686599731445 -9.558930397033691 0.009153751656413078
13.175875663757324 -9.50239372253418 0.00920681282877922
13.334803581237793 -9.490152359008789 0.009279066696763039
13.458327293395996 -9.493059158325195 0.010140330530703068
13.516324043273926 -9.491896629333496 0.010173668153584003
13.607705116271973 -9.470751762390137 0.009299565106630325
13.66476821899414 -9.468433380126953 0.009328562766313553
13.77659797668457 -9.460294723510742 0.009379502385854721
13.834803581237793 -9.458077430725098 0.009300781413912773
13.877460479736328 -9.44379997253418 0.009303301572799683
13.948264122009277 -9.44969367980957 0.00935337133705616
13.999128341674805 -9.441827774047852 0.00937272235751152
14.064315795898438 -9.442146301269531 0.009406628087162971
14.11668872833252 -9.434865951538086 0.009311889298260212
14.157735824584961 -9.419855117797852 0.009319096803665161
14.223594665527344 -9.419900894165039 0.009350381791591644
14.288725852966309 -9.420437812805176 0.009393934160470963
14.340984344482422 -9.411131858825684 0.00929590780287981
14.45801830291748 -9.402186393737793 0.009343987330794334
14.518827438354492 -9.397660255432129 0.009376700036227703
14.569201469421387 -9.387421607971191 0.00939185917377472
14.635591506958008 -9.387276649475098 0.009426860138773918
14.701616287231445 -9.385359764099121 0.009454822167754173
14.742884635925293 -9.368697166442871 0.009349526837468147
14.811705589294434 -9.368206024169922 0.010338764637708664
14.873520851135254 -9.364014625549316 0.010374756529927254
14.934802055358887 -9.359375953674316 0.010402383282780647
15.001800537109375 -9.35692024230957 0.010444384068250656
15.046006202697754 -9.341045379638672 0.009483225643634796
15.115134239196777 -9.340561866760254 0.009523357264697552
15.283865928649902 -9.311421394348145 0.009460816159844398
15.805863380432129 -9.269323348999023 0.009459136985242367
15.997109413146973 -9.246819496154785 0.009539138525724411
16.204805374145508 -9.231315612792969 0.009623559191823006
16.47748565673828 -9.205018043518066 0.00962634477764368
16.546777725219727 -9.197542190551758 0.0096520334482193
16.680849075317383 -9.181513786315918 0.009711522608995438
16.8365478515625 -9.17503833770752 0.009660436771810055
16.90007972717285 -9.163030624389648 0.009684395045042038
16.96657943725586 -9.153438568115234 0.009706087410449982
17.042327880859375 -9.148694038391113 0.009744174778461456
17.12177848815918 -9.14442253112793 0.00978896301239729
17.183530807495117 -9.13148307800293 0.009674707427620888
17.250263214111328 -9.121089935302734 0.00969985406845808
17.340980529785156 -9.12185001373291 0.009753426536917686
17.402029037475586 -9.107768058776855 0.009808135218918324
17.463172912597656 -9.092438697814941 0.009864529594779015
17.525724411010742 -9.078688621520996 0.009914630092680454
17.596759796142578 -9.069219589233398 0.009975996799767017
17.661951065063477 -9.055258750915527 0.008942527696490288
17.736988067626953 -9.047157287597656 0.00889965333044529
17.812091827392578 -9.038934707641602 0.0089443763718009
17.888179779052734 -9.029684066772461 0.009010812267661095
17.9445858001709 -9.011340141296387 0.009064876474440098
18.02552604675293 -9.005195617675781 0.009131412021815777
18.108449935913086 -8.998335838317871 0.009194840677082539
18.17188262939453 -8.982884407043457 0.009248784743249416
18.2425594329834 -8.969518661499023 0.009168433956801891
18.311744689941406 -8.956258773803711 0.009224195964634418
18.394184112548828 -8.949325561523438 0.009306388907134533
18.46095848083496 -8.93323040008545 0.009358728304505348
18.60942268371582 -8.908543586730957 0.009485049173235893
18.693572998046875 -8.901191711425781 0.009555313736200333
19.07193946838379 -8.836954116821289 0.008587208576500416
19.303829193115234 -8.797416687011719 0.008777807466685772
19.44382667541504 -8.762514114379883 0.008881228975951672
19.476131439208984 -8.630181312561035 0.008740833029150963
19.525672912597656 -8.50568675994873 0.008763900958001614
19.562347412109375 -8.473272323608398 0.008775047026574612
19.58265495300293 -8.43256664276123 0.008765198290348053
19.59892463684082 -8.391267776489258 0.008653449825942516
19.646446228027344 -8.314018249511719 0.0074865007773041725
19.663433074951172 -8.273002624511719 0.007486654445528984
19.69021224975586 -8.234938621520996 0.007494498044252396
19.69709014892578 -8.189831733703613 0.007491296157240868
19.715482711791992 -8.149399757385254 0.007486914284527302
19.728567123413086 -8.105639457702637 0.007613277994096279
19.745447158813477 -8.064722061157227 0.0075033362954854965
19.753026962280273 -8.0198974609375 0.007499748840928078
19.81377601623535 -7.899834632873535 0.00750407949090004
19.799150466918945 -7.845158100128174 0.007481551729142666
19.857362747192383 -7.771627426147461 0.007507778704166412
19.887527465820312 -7.688270568847656 0.0073906173929572105
19.896074295043945 -7.642891883850098 0.007381304167211056
19.92106056213379 -7.60495662689209 0.007395930588245392
19.911474227905273 -7.553991317749023 0.006209732033312321
19.948097229003906 -7.519309997558594 0.006227720528841019
19.956195831298828 -7.47497034072876 0.006200041621923447
19.970487594604492 -7.431847095489502 0.0062216343358159065
19.979652404785156 -7.388090133666992 0.0062004560604691505
19.982168197631836 -7.3417887687683105 0.006071802228689194
19.997251510620117 -7.299013614654541 0.006084879860281944
20.024044036865234 -7.261737823486328 0.006096108816564083
20.067533493041992 -7.086832523345947 0.004921037703752518
20.080341339111328 -7.044521808624268 0.004919596016407013
20.103191375732422 -6.957595348358154 0.004920388571918011
20.118133544921875 -6.916049957275391 0.004915415309369564
20.13762092590332 -6.828055381774902 0.004911202937364578
20.159021377563477 -6.788701057434082 0.0049143945798277855
20.172285079956055 -6.745223045349121 0.0049154991284012794
20.17865562438965 -6.700828552246094 0.00478653609752655
20.187347412109375 -6.6094536781311035 0.004764663986861706
20.220703125 -6.573945045471191 0.0047873277217149734
20.252927780151367 -6.490241050720215 0.004797235131263733
20.259065628051758 -6.445751667022705 0.004789421334862709
20.265960693359375 -6.400430679321289 0.0036276457831263542
20.282865524291992 -6.359511375427246 0.003507235087454319
20.31211280822754 -6.274852275848389 0.003509501926600933
20.322200775146484 -6.231800556182861 0.003514297306537628
20.344587326049805 -6.1911492347717285 0.0035141464322805405
20.337146759033203 -6.142801761627197 0.003512502647936344
20.34251594543457 -6.098386764526367 0.003501494415104389
20.358638763427734 -6.055850505828857 0.0034860894083976746
20.388160705566406 -6.0186076164245605 0.0035390695556998253
20.386293411254883 -5.924834251403809 0.0035362737253308296
20.394634246826172 -5.8813886642456055 0.003558926284313202
20.411537170410156 -5.840283393859863 0.0035875998437404633
20.411760330200195 -5.793328285217285 0.0035871565341949463
20.419221878051758 -5.749684810638428 0.0035904189571738243
20.428512573242188 -5.705228805541992 0.0023114020004868507
20.4392032623291 -5.66251802444458 0.0023109763860702515
20.45650863647461 -5.621629238128662 0.00232093408703804
20.487651824951172 -5.58314323425293 0.002333204261958599
20.51247215270996 -5.5442047119140625 0.0023476043716073036
20.500577926635742 -5.495240211486816 0.0023395149037241936
20.27850341796875 -5.389430522918701 0.0021985890343785286
20.51141929626465 -5.40578556060791 0.0023391172289848328
20.524452209472656 -5.362356185913086 0.0023456793278455734
20.531747817993164 -5.318770885467529 0.0023431554436683655
20.554723739624023 -5.279105186462402 0.0022308994084596634
20.541370391845703 -5.2290496826171875 0.0022413842380046844
20.56103515625 -5.1886467933654785 0.002241300418972969
20.563274383544922 -5.143721580505371 0.0022479556500911713
20.510000228881836 -5.083987712860107 0.0022472068667411804
20.49053192138672 -5.034050941467285 0.0010603340342640877
20.49254035949707 -4.988149642944336 0.0011819591745734215
20.470584869384766 -4.937830448150635 0.0010637994855642319
20.449623107910156 -4.887890815734863 0.001044425182044506
20.409385681152344 -4.832205772399902 0.0010098377242684364
20.420101165771484 -4.790013313293457 0.0010226685553789139
20.43588638305664 -4.703005790710449 0.001039952039718628
20.417476654052734 -4.654175758361816 0.0010180994868278503
20.423358917236328 -4.609643459320068 0.0010285330936312675
20.431007385253906 -4.566832542419434 0.001027206890285015
20.430938720703125 -4.522320747375488 0.0010353708639740944
20.439172744750977 -4.478362560272217 0.0009222272783517838
20.447038650512695 -4.435638427734375 0.0009220028296113014
20.433080673217773 -4.3882317543029785 0.0020719505846500397
20.450340270996094 -4.346258163452148 0.0009325174614787102
20.438430786132812 -4.299416542053223 0.0009274175390601158
20.415651321411133 -4.204920291900635 0.0009045889601111412
20.378217697143555 -4.153146743774414 0.0009074481204152107
20.379674911499023 -4.108119010925293 0.000901385210454464
20.388057708740234 -4.065798282623291 0.0009078169241547585
20.363567352294922 -4.016873359680176 0.0007837023586034775
20.372650146484375 -3.973590135574341 0.0007904423400759697
20.378578186035156 -3.930866003036499 0.0007958710193634033
20.387210845947266 -3.8873772621154785 0.0009146863594651222
20.36627960205078 -3.7508533000946045 0.0007910113781690598
20.371007919311523 -3.708033323287964 0.0007953327149152756
20.368785858154297 -3.663975477218628 0.0007920563220977783
20.341659545898438 -3.6142523288726807 -0.0003589000552892685
20.339435577392578 -3.5703325271606445 -0.0003625946119427681
20.367273330688477 -3.530386447906494 -0.0003466196358203888
20.361234664916992 -3.4858314990997314 -0.00034038349986076355
20.347238540649414 -3.4399890899658203 -0.0003387266770005226
20.34183692932129 -3.394394874572754 -0.00034515373408794403
20.330848693847656 -3.3492112159729004 -0.0003536418080329895
20.33539581298828 -3.3066298961639404 0.0018163686618208885
20.31023597717285 -3.25801944732666 0.0006700679659843445
20.35245132446289 -3.2214832305908203 0.0006967252120375633
20.319570541381836 -3.1286187171936035 0.0006649438291788101
20.284528732299805 -3.035827398300171 0.0006650760769844055
20.291576385498047 -2.9938430786132812 0.0006720079109072685
20.299020767211914 -2.9519128799438477 0.0006728554144501686
20.30568504333496 -2.9086012840270996 0.0006732232868671417
20.279556274414062 -2.861923933029175 0.0006484882906079292
20.28034210205078 -2.817861557006836 0.0006654579192399979
20.27544403076172 -2.774305582046509 0.0005572251975536346
20.282825469970703 -2.7324490547180176 0.0005572941154241562
20.278644561767578 -2.687791585922241 0.0005517667159438133
20.26182746887207 -2.6427884101867676 0.0005406690761446953
20.266334533691406 -2.600616216659546 0.0005392963066697121
20.28293800354004 -2.558716058731079 -0.0005802828818559647
20.273218154907227 -2.514760732650757 -0.0005742479115724564
20.282854080200195 -2.4292664527893066 -0.0005678553134202957
20.26932144165039 -2.341101884841919 -0.0005520684644579887
20.249500274658203 -2.209904909133911 0.0015773270279169083
20.225910186767578 -2.164867401123047 0.001560497097671032
20.22861671447754 -2.1227076053619385 0.001559428870677948
20.223968505859375 -2.0785505771636963 0.0015600910410284996
20.224824905395508 -2.036233901977539 0.0015714075416326523
20.213207244873047 -1.9491106271743774 0.0004361197352409363
20.207984924316406 -1.9062902927398682 0.0004314631223678589
20.19949722290039 -1.8619632720947266 0.00043133925646543503
20.204917907714844 -1.8201855421066284 0.0004255864769220352
20.217002868652344 -1.7778596878051758 0.00032130442559719086
20.197566986083984 -1.733804702758789 0.000329858623445034
20.188364028930664 -1.6908185482025146 0.00032224133610725403
20.18250274658203 -1.6469186544418335 0.00031733978539705276
20.17563247680664 -1.604217529296875 0.0003179609775543213
