VERSION .7
FIELDS x y z
SIZE 4 4 4
TYPE F F F
COUNT 1 1 1
WIDTH 838
HEIGHT 1
VIEWPOINT 0 0 0 1 0 0 0
POINTS 838
DATA ascii
4.849030017852783 5.809936046600342 -0.09294971823692322
4.838303089141846 5.821599006652832 -0.09252075850963593
4.794271469116211 5.81829309463501 -0.09138287603855133
4.776158332824707 5.820882320404053 -0.09080242365598679
4.7269392013549805 5.8106279373168945 -0.08972766250371933
4.719689846038818 5.826374053955078 -0.08950323611497879
4.697422504425049 5.82427978515625 -0.08886349201202393
4.696588039398193 5.848038196563721 -0.08863093703985214
4.664693355560303 5.833076477050781 -0.08779986202716827
4.6476335525512695 5.8372650146484375 -0.08770443499088287
4.633174419403076 5.84395170211792 -0.0872102826833725
4.618473052978516 5.8508076667785645 -0.08671709895133972
4.594364166259766 5.845398426055908 -0.0860292837023735
4.5855584144592285 5.8591814041137695 -0.08578652143478394
4.564960479736328 5.858605861663818 -0.0851883813738823
4.551876544952393 5.866885185241699 -0.08471333235502243
4.524322986602783 5.856424331665039 -0.0842735543847084
4.5179524421691895 5.874073028564453 -0.08408725261688232
4.493073463439941 5.866879463195801 -0.08339308202266693
4.471406936645508 5.86426305770874 -0.08278355002403259
4.453642845153809 5.866409778594971 -0.08251143246889114
4.441348552703857 5.875492095947266 -0.08236808329820633
4.4206109046936035 5.873865604400635 -0.08206883072853088
4.410732746124268 5.886361122131348 -0.0816592425107956
4.390382766723633 5.885122299194336 -0.08107215166091919
4.377902030944824 5.894111633300781 -0.08077804744243622
4.35184907913208 5.884507179260254 -0.08005999028682709
4.339323043823242 5.893624782562256 -0.07961158454418182
4.325275897979736 5.900391101837158 -0.07914070785045624
4.310086250305176 5.905331611633301 -0.07877258956432343
4.2851033210754395 5.89727783203125 -0.07811163365840912
4.274686813354492 5.908927917480469 -0.07800398021936417
4.254796028137207 5.907208442687988 -0.0774177834391594
4.235197067260742 5.9063215255737305 -0.07684575021266937
4.218358039855957 5.908934593200684 -0.07645587623119354
4.208042144775391 5.9209489822387695 -0.07606077194213867
4.186858654022217 5.91710901260376 -0.07545509189367294
4.175965309143066 5.928008079528809 -0.07504356652498245
4.15977144241333 5.9316511154174805 -0.074530690908432
4.137049198150635 5.925612926483154 -0.0740392804145813
4.119451522827148 5.926571846008301 -0.07380275428295135
4.106301784515381 5.934419631958008 -0.0733499601483345
4.089365005493164 5.9364776611328125 -0.07284261286258698
4.048792839050293 5.930890083312988 -0.07195375114679337
4.035901069641113 5.93843412399292 -0.07180508971214294
4.0 5.939258575439453 -0.07073824852705002
3.9808640480041504 5.93740177154541 -0.07019294798374176
3.956624984741211 5.955318927764893 -0.06947020441293716
3.908463954925537 5.963833808898926 -0.06826840341091156
3.8570284843444824 5.966835975646973 -0.06686503440141678
3.828763008117676 5.978181838989258 -0.06594786792993546
3.8083043098449707 5.974045753479004 -0.06537187844514847
3.789670944213867 5.972121238708496 -0.06496339291334152
3.77479887008667 5.976318359375 -0.06449908763170242
3.7567734718322754 5.975759983062744 -0.06397628039121628
3.7449350357055664 5.98445463180542 -0.06355375796556473
3.735938787460327 5.997979640960693 -0.06318671256303787
3.7197909355163574 6.000322341918945 -0.06269357353448868
3.691749095916748 5.982775688171387 -0.06199478358030319
3.6776466369628906 5.987951278686523 -0.06167454272508621
3.6615960597991943 5.990215301513672 -0.061338379979133606
3.6523733139038086 6.003348350524902 -0.06125210225582123
3.6311583518981934 5.997030735015869 -0.060684673488140106
3.6247057914733887 6.014510154724121 -0.06065097823739052
3.606372356414795 6.012539386749268 -0.06012696772813797
3.5920467376708984 6.017496109008789 -0.05981086567044258
3.5695204734802246 6.008053779602051 -0.059206634759902954
3.5606131553649902 6.022321701049805 -0.058841995894908905
3.5371084213256836 6.011005401611328 -0.058243755251169205
3.526298999786377 6.021187782287598 -0.057841766625642776
3.5089516639709473 6.021024703979492 -0.05734217166900635
3.498776435852051 6.032305717468262 -0.05695619061589241
3.4803922176361084 6.029674053192139 -0.05643707886338234
3.4652605056762695 6.032919406890869 -0.05610663816332817
3.445046901702881 6.026650428771973 -0.055548302829265594
3.4293723106384277 6.028501987457275 -0.05509118735790253
3.416048526763916 6.034768581390381 -0.05465312302112579
3.4074339866638184 6.048797130584717 -0.05429382249712944
3.3893299102783203 6.046831130981445 -0.05379829928278923
3.3755979537963867 6.051742076873779 -0.05334795266389847
3.355868339538574 6.045827865600586 -0.052810002118349075
3.327892780303955 6.055386543273926 -0.052062977105379105
3.314319133758545 6.060450077056885 -0.051624685525894165
3.2836380004882812 6.064882278442383 -0.05112402141094208
3.2597413063049316 6.050981521606445 -0.05052969977259636
6.548124313354492 5.389244079589844 -0.16024386882781982
6.483553886413574 5.404827117919922 -0.15861453115940094
6.436966896057129 5.412101745605469 -0.15785659849643707
6.414324760437012 5.415823936462402 -0.1570778638124466
6.369287490844727 5.423908233642578 -0.15601792931556702
6.304728031158447 5.437679290771484 -0.1545897126197815
6.2359771728515625 5.447122573852539 -0.15254022181034088
6.1669745445251465 5.455577373504639 -0.1506795585155487
5.639020919799805 5.541925430297852 -0.13792669773101807
5.573471546173096 5.54681396484375 -0.13654939830303192
5.537014961242676 5.55714225769043 -0.1357564479112625
5.513819694519043 5.556878089904785 -0.13515342772006989
5.474430561065674 5.563852310180664 -0.13412541151046753
5.463267803192139 5.575603485107422 -0.13412664830684662
5.415879249572754 5.574007034301758 -0.13273727893829346
5.400805473327637 5.582089900970459 -0.13252131640911102
5.362130641937256 5.588558197021484 -0.131669282913208
5.333127021789551 5.58193826675415 -0.13076996803283691
5.32016658782959 5.591772079467773 -0.13059277832508087
5.300390720367432 5.5941877365112305 -0.13006830215454102
5.274953365325928 5.591000556945801 -0.12959229946136475
5.255317687988281 5.593611717224121 -0.1290670484304428
5.246487617492676 5.6079583168029785 -0.1286698430776596
5.225142002105713 5.608425140380859 -0.1281203329563141
5.211030960083008 5.616818904876709 -0.12757405638694763
5.178962707519531 5.606010913848877 -0.12694302201271057
5.167214393615723 5.616848945617676 -0.12662260234355927
5.146575927734375 5.617766380310059 -0.12625113129615784
5.128593444824219 5.621988773345947 -0.12564118206501007
5.104429721832275 5.6190900802612305 -0.12534846365451813
5.088096618652344 5.624518394470215 -0.1247631162405014
5.056546211242676 5.637179851531982 -0.12411671876907349
5.0287041664123535 5.6296000480651855 -0.12326043844223022
4.999720573425293 5.6448235511779785 -0.12265843152999878
4.990629196166992 5.658172130584717 -0.1225859522819519
4.943182945251465 5.652185440063477 -0.12154176086187363
4.885221481323242 5.657289505004883 -0.12008032202720642
4.834542751312256 5.670275688171387 -0.11879782378673553
4.77616024017334 5.673661708831787 -0.11733008921146393
4.7302961349487305 5.691641330718994 -0.11617344617843628
4.667110919952393 5.687981605529785 -0.11459968984127045
4.636676788330078 5.699672698974609 -0.11399944871664047
4.6234211921691895 5.707531929016113 -0.11382583528757095
4.583355903625488 5.707045078277588 -0.11268217861652374
4.564947128295898 5.70883846282959 -0.11237931996583939
4.535706043243408 5.721012115478516 -0.11179973185062408
4.520104885101318 5.726195335388184 -0.11126445233821869
4.479119300842285 5.723179340362549 -0.11039923131465912
4.461021900177002 5.724987030029297 -0.10981562733650208
4.447335243225098 5.732142448425293 -0.10963122546672821
4.432273864746094 5.737771034240723 -0.10924797505140305
4.403903961181641 5.725564956665039 -0.10871896147727966
4.3925700187683105 5.735645771026611 -0.10841317474842072
4.374902248382568 5.737700462341309 -0.10783995687961578
4.3634514808654785 5.747379779815674 -0.10754962265491486
4.3459978103637695 5.749351501464844 -0.10697446018457413
4.334743976593018 5.7597737312316895 -0.10686835646629333
4.314875602722168 5.758434772491455 -0.10622375458478928
4.288554668426514 5.74812650680542 -0.10587555915117264
4.283483505249023 5.766762733459473 -0.10561218857765198
4.259812831878662 5.760056495666504 -0.10489346086978912
4.2460618019104 5.766454696655273 -0.10485148429870605
4.225331783294678 5.76405143737793 -0.10420853644609451
4.206150054931641 5.7629265785217285 -0.103902667760849
4.192751884460449 5.769676208496094 -0.10342580080032349
4.183170318603516 5.7824249267578125 -0.10318289697170258
4.16133975982666 5.777457237243652 -0.10281528532505035
4.15140438079834 5.788957118988037 -0.10242072492837906
4.132654190063477 5.788883686065674 -0.10226260125637054
4.116460800170898 5.791577339172363 -0.10173039138317108
4.0912184715271 5.781949043273926 -0.10096657276153564
4.07839298248291 5.789499282836914 -0.10082420706748962
4.063920021057129 5.79445743560791 -0.10045935213565826
4.051722049713135 5.803396701812744 -0.10003397613763809
4.0316877365112305 5.8003082275390625 -0.09969569742679596
4.01487922668457 5.801779270172119 -0.09915442764759064
3.9953951835632324 5.800063133239746 -0.09897781908512115
3.9815545082092285 5.805723667144775 -0.09820209443569183
3.9641780853271484 5.806181907653809 -0.09794047474861145
3.9529519081115723 5.816381931304932 -0.09767472743988037
3.937162399291992 5.819087982177734 -0.09715074300765991
3.9080963134765625 5.828868865966797 -0.09647627174854279
3.8877153396606445 5.824566841125488 -0.09598951041698456
3.8554089069366455 5.829181671142578 -0.09523433446884155
3.843158721923828 5.836950302124023 -0.0950942113995552
3.806239128112793 5.83422327041626 -0.09407355636358261
3.7726035118103027 5.836230278015137 -0.09328559041023254
3.752779483795166 5.8320722579956055 -0.09281477332115173
3.728860378265381 5.8488850593566895 -0.09226001799106598
3.717348098754883 5.857608795166016 -0.09185324609279633
3.67449951171875 5.844348907470703 -0.09099544584751129
3.6561989784240723 5.842360019683838 -0.09042295813560486
3.6380581855773926 5.867933750152588 -0.09015137702226639
3.6192164421081543 5.864933967590332 -0.0895664393901825
3.584503173828125 5.8635454177856445 -0.08876612782478333
3.5669896602630615 5.86245059967041 -0.08822942525148392
3.561250925064087 5.881021499633789 -0.0881003886461258
3.537818431854248 5.869782447814941 -0.08767853677272797
3.5243477821350098 5.875227451324463 -0.08722759038209915
3.515347480773926 5.8884501457214355 -0.08690451085567474
3.493032455444336 5.879009246826172 -0.08665697276592255
3.477630138397217 5.880842685699463 -0.0861552283167839
3.462925434112549 5.884376049041748 -0.08569259941577911
3.4525599479675293 5.89497184753418 -0.08561688661575317
3.433434009552002 5.890310764312744 -0.0850188210606575
3.413179874420166 5.884161949157715 -0.0845407098531723
3.4002766609191895 5.8903045654296875 -0.08439531922340393
6.4483256340026855 5.72836971282959 -0.08749917149543762
6.372920513153076 5.733469009399414 -0.08644027262926102
6.305600643157959 5.745038986206055 -0.0849696472287178
6.2470903396606445 5.76401948928833 -0.08413928747177124
6.176819801330566 5.7714924812316895 -0.0822959914803505
5.516325950622559 5.871196269989014 -0.0694320797920227
5.468421936035156 5.869056701660156 -0.06864146143198013
5.4374542236328125 5.860649585723877 -0.06792205572128296
5.404265880584717 5.873806953430176 -0.06733409315347672
5.3915486335754395 5.884942054748535 -0.06731373071670532
5.344453811645508 5.882593154907227 -0.06639967858791351
5.326472282409668 5.887798309326172 -0.06599792838096619
5.305260181427002 5.889094829559326 -0.0654141753911972
5.279677391052246 5.885210037231445 -0.06509540975093842
5.266355037689209 5.89542293548584 -0.06474648416042328
5.2411651611328125 5.8920135498046875 -0.06444249302148819
5.226276397705078 5.900384426116943 -0.06407713145017624
5.200965881347656 5.896642684936523 -0.06344960629940033
5.191868305206299 5.9110107421875 -0.06313969939947128
5.164420127868652 5.904927730560303 -0.06281149387359619
5.151430130004883 5.915027618408203 -0.06232212111353874
5.127593994140625 5.912385940551758 -0.061865612864494324
5.1071367263793945 5.91404914855957 -0.06160387396812439
5.087560653686523 5.916382789611816 -0.06104148179292679
5.070862293243408 5.921777248382568 -0.061001673340797424
5.046051979064941 5.918347358703613 -0.06038489565253258
5.035813808441162 5.931225776672363 -0.06025277078151703
5.007598876953125 5.922863960266113 -0.05973144620656967
4.991546630859375 5.929522514343262 -0.05922556668519974
4.976177215576172 5.936224460601807 -0.059036195278167725
4.966239929199219 5.949404716491699 -0.058735474944114685
4.922133445739746 5.947300434112549 -0.057898104190826416
4.905076503753662 5.951793670654297 -0.057836271822452545
4.8570966720581055 5.9444074630737305 -0.056640781462192535
4.811136722564697 5.96429443359375 -0.055919528007507324
4.74859619140625 5.963323593139648 -0.05451919138431549
4.703483581542969 5.9834794998168945 -0.05335751920938492
4.640483379364014 5.980854034423828 -0.05247068405151367
4.606569290161133 5.988533020019531 -0.05159120261669159
4.583200454711914 5.984326362609863 -0.05133313313126564
4.561575412750244 6.00781774520874 -0.050899941474199295
4.529721736907959 5.992164134979248 -0.05023081600666046
4.4927849769592285 5.995100498199463 -0.049646928906440735
4.473324775695801 5.995542526245117 -0.04911721870303154
4.4528350830078125 6.020290374755859 -0.04870254918932915
4.4258317947387695 6.010355472564697 -0.04809122160077095
4.4191131591796875 6.0276288986206055 -0.04800859093666077
4.386995315551758 6.0099358558654785 -0.04734957963228226
4.378637313842773 6.025232315063477 -0.04738830029964447
4.357729911804199 6.022946357727051 -0.04684579372406006
4.340068817138672 6.025356769561768 -0.04647732526063919
4.3164963722229 6.019170761108398 -0.045915208756923676
4.304059028625488 6.028203010559082 -0.04546318203210831
4.282343864440918 6.024720668792725 -0.045363783836364746
4.27245569229126 6.037545204162598 -0.044944994151592255
4.255441665649414 6.040045261383057 -0.044746242463588715
4.238569259643555 6.043231964111328 -0.044399552047252655
4.215539455413818 6.0372514724731445 -0.043844133615493774
4.204516887664795 6.048165798187256 -0.0437183752655983
4.1789469718933105 6.038622856140137 -0.04313601180911064
4.166843414306641 6.048162460327148 -0.04313988238573074
4.150029182434082 6.050593852996826 -0.04265454411506653
4.137233734130859 6.059649467468262 -0.04220812767744064
4.1232099533081055 6.066103935241699 -0.04204688221216202
4.099916934967041 6.058841705322266 -0.04163900017738342
4.079992294311523 6.057234287261963 -0.041121017187833786
4.070230007171631 6.069888591766357 -0.04099854826927185
4.047837257385254 6.06365966796875 -0.04046524316072464
4.035871505737305 6.073793411254883 -0.04016897827386856
4.017877578735352 6.074020862579346 -0.039981745183467865
4.003191947937012 6.079754829406738 -0.039499759674072266
3.9778037071228027 6.068829536437988 -0.039250247180461884
3.967646598815918 6.080819129943848 -0.038956619799137115
3.945780038833618 6.075626850128174 -0.03844037279486656
3.9337093830108643 6.084646701812744 -0.03829958289861679
3.9136040210723877 6.081189155578613 -0.03762039542198181
3.9071242809295654 6.099714279174805 -0.03755379468202591
3.8838071823120117 6.0911054611206055 -0.03699216619133949
3.852046251296997 6.097792625427246 -0.03649701178073883
3.839996337890625 6.106746673583984 -0.036071740090847015
3.804901123046875 6.1078667640686035 -0.03539815917611122
3.7853522300720215 6.104677200317383 -0.03503993898630142
3.771299362182617 6.111124038696289 -0.03460453823208809
3.748173713684082 6.101947784423828 -0.03436622396111488
3.7194478511810303 6.112756729125977 -0.03345930948853493
3.71063232421875 6.126864433288574 -0.03349803388118744
3.668238878250122 6.114835739135742 -0.03277900069952011
3.6525630950927734 6.1174468994140625 -0.03232523426413536
3.6208276748657227 6.122730731964111 -0.0318317636847496
3.6103858947753906 6.134092330932617 -0.03141377866268158
3.5786280632019043 6.139133453369141 -0.03079257905483246
3.559837818145752 6.13640022277832 -0.030443858355283737
3.5220165252685547 6.130271911621094 -0.029474394395947456
3.508328437805176 6.136161804199219 -0.029033884406089783
3.485342025756836 6.155707359313965 -0.02862691879272461
3.467667579650879 6.154518127441406 -0.028152016922831535
3.451897621154785 6.156972885131836 -0.027987871319055557
3.4298510551452637 6.147797584533691 -0.02750205248594284
3.4212071895599365 6.162325382232666 -0.027235426008701324
3.39875864982605 6.152548789978027 -0.027031011879444122
3.3844871520996094 6.157144546508789 -0.02658633515238762
3.365677833557129 6.153140068054199 -0.026111237704753876
3.361232280731201 6.1760334968566895 -0.026034442707896233
3.3425631523132324 6.172483444213867 -0.02569979801774025
3.32778263092041 6.175760269165039 -0.025252845138311386
10.646893501281738 4.888798236846924 -0.21684512495994568
10.515446662902832 4.908717632293701 -0.21431772410869598
10.394264221191406 4.9319682121276855 -0.21395020186901093
10.295909881591797 4.938529014587402 -0.21213704347610474
10.261853218078613 4.948415279388428 -0.21115905046463013
9.00114917755127 5.136914253234863 -0.18792526423931122
8.904966354370117 5.156506538391113 -0.18616226315498352
8.873560905456543 5.16294002532959 -0.18508891761302948
8.802375793457031 5.171264171600342 -0.18406149744987488
8.765873908996582 5.174319267272949 -0.18289068341255188
8.737092018127441 5.182529449462891 -0.18253342807292938
8.707603454589844 5.189494609832764 -0.18215090036392212
8.666154861450195 5.18919563293457 -0.18087609112262726
8.644006729125977 5.201051712036133 -0.18191084265708923
8.59414291381836 5.195370674133301 -0.18089652061462402
8.569729804992676 5.20541524887085 -0.18020294606685638
8.49886417388916 5.211006164550781 -0.17916861176490784
8.403221130371094 5.225334644317627 -0.177214115858078
8.323785781860352 5.249272346496582 -0.17565925419330597
8.231005668640137 5.263375282287598 -0.1737811416387558
7.605449676513672 5.349573135375977 -0.1612308919429779
7.5160017013549805 5.357598781585693 -0.15949492156505585
7.497188091278076 5.367905139923096 -0.15894989669322968
7.426298141479492 5.364383220672607 -0.15735170245170593
7.410579204559326 5.37668514251709 -0.1572456955909729
7.367711067199707 5.369425296783447 -0.1565890610218048
7.362325191497803 5.388928413391113 -0.15615221858024597
7.322132110595703 5.383098125457764 -0.15553200244903564
7.304673194885254 5.394120216369629 -0.15502585470676422
7.282898426055908 5.401432037353516 -0.15462873876094818
7.250080585479736 5.401137351989746 -0.15400175750255585
7.228787899017334 5.408638000488281 -0.15324413776397705
7.1990556716918945 5.409948348999023 -0.15247830748558044
7.169881820678711 5.411811828613281 -0.15209409594535828
7.1481523513793945 5.418732643127441 -0.15170085430145264
7.110491752624512 5.41367244720459 -0.15076594054698944
7.097867012023926 5.427833557128906 -0.15074895322322845
7.066613674163818 5.427211284637451 -0.14977380633354187
7.039369583129883 5.42976713180542 -0.14943650364875793
7.02609920501709 5.443292140960693 -0.14940747618675232
6.989077091217041 5.437856197357178 -0.1483178436756134
6.962864875793457 5.441380023956299 -0.14799755811691284
6.930728912353516 5.439470291137695 -0.14719444513320923
6.888016700744629 5.452980995178223 -0.1462291032075882
6.854751110076904 5.44982385635376 -0.14559195935726166
6.8158721923828125 5.465919494628906 -0.1448937952518463
6.783773422241211 5.463348388671875 -0.14428037405014038
6.448450088500977 5.513727188110352 -0.13673026859760284
6.379112243652344 5.524238586425781 -0.13547872006893158
6.307481288909912 5.531978130340576 -0.13418683409690857
6.28720235824585 5.537317752838135 -0.13364779949188232
6.244871139526367 5.546910285949707 -0.1327274739742279
6.222908973693848 5.5505475997924805 -0.1325031816959381
6.192376613616943 5.546895980834961 -0.13159555196762085
6.1722846031188965 5.552243709564209 -0.1314135491847992
6.151045322418213 5.5562744140625 -0.1310487687587738
6.132972717285156 5.563787460327148 -0.13057175278663635
6.099985122680664 5.556981563568115 -0.13011391460895538
6.087394714355469 5.569138050079346 -0.12958283722400665
6.066838264465332 5.5737199783325195 -0.12870608270168304
6.035706043243408 5.568259239196777 -0.1281374841928482
6.014286518096924 5.572328090667725 -0.127594456076622
6.000572204589844 5.582807540893555 -0.12739473581314087
5.96970796585083 5.577249526977539 -0.1266397088766098
5.953888416290283 5.586337089538574 -0.12655571103096008
5.92448091506958 5.581908226013184 -0.12568417191505432
5.910229682922363 5.5921454429626465 -0.12563681602478027
5.878015518188477 5.58504581451416 -0.12469621002674103
5.8661699295043945 5.597000598907471 -0.12469080090522766
5.842452049255371 5.598045349121094 -0.12395048886537552
5.824924468994141 5.604698657989502 -0.12384013831615448
5.79689359664917 5.6009416580200195 -0.12313822656869888
5.785072326660156 5.613247871398926 -0.12298081070184708
5.755014896392822 5.607532978057861 -0.12259553372859955
5.73525333404541 5.6115264892578125 -0.12193536013364792
5.69815731048584 5.6223955154418945 -0.12131771445274353
5.662492752075195 5.610912799835205 -0.12030821293592453
5.636978626251221 5.632407188415527 -0.12011578679084778
5.6142473220825195 5.6334943771362305 -0.11955953389406204
5.571040153503418 5.637424468994141 -0.11864824593067169
5.5468316078186035 5.6362738609313965 -0.11790843307971954
5.5013298988342285 5.637331008911133 -0.11695931851863861
5.453507423400879 5.659067153930664 -0.11589782685041428
5.3830671310424805 5.6567158699035645 -0.11467007547616959
5.339780807495117 5.658761501312256 -0.1137838363647461
5.331539630889893 5.673789024353027 -0.11337612569332123
5.287747859954834 5.674668788909912 -0.1126360148191452
5.265478610992432 5.674554347991943 -0.11225415766239166
5.231269836425781 5.685301780700684 -0.11156526207923889
5.205679416656494 5.681326866149902 -0.11096352338790894
5.186580657958984 5.684595584869385 -0.11064690351486206
5.1740899085998535 5.6945953369140625 -0.11031075567007065
5.15585470199585 5.698460578918457 -0.11004382371902466
5.1306586265563965 5.694798469543457 -0.10942258685827255
5.106555938720703 5.691752910614014 -0.10917159914970398
5.098967552185059 5.707778453826904 -0.10880722105503082
5.072351455688477 5.701754570007324 -0.1080254539847374
5.054635524749756 5.705862045288086 -0.1078990176320076
5.026321887969971 5.69815731048584 -0.1070869192481041
5.019826412200928 5.714654922485352 -0.10720562934875488
5.000044822692871 5.716237545013428 -0.10657547414302826
4.975597381591797 5.712646484375 -0.1063045784831047
4.953911781311035 5.711637496948242 -0.10563775151968002
4.940698623657227 5.720567226409912 -0.105612613260746
4.925108432769775 5.726978302001953 -0.10521695017814636
4.902462482452393 5.724632740020752 -0.10453160107135773
4.878763675689697 5.721654415130615 -0.10428283363580704
4.857393741607666 5.720594882965088 -0.1036209985613823
4.846104621887207 5.7313642501831055 -0.1036323755979538
4.83261775970459 5.740239143371582 -0.10315407812595367
4.817965507507324 5.746999263763428 -0.10309890657663345
4.793574333190918 5.7422919273376465 -0.10237593203783035
4.773002624511719 5.742314338684082 -0.10219477862119675
4.759878635406494 5.750760555267334 -0.10171672701835632
4.738341808319092 5.749701976776123 -0.10152125358581543
4.721186637878418 5.753170013427734 -0.10095478594303131
4.7010393142700195 5.753149509429932 -0.10047119855880737
4.681605339050293 5.754183769226074 -0.10017596930265427
4.664226055145264 5.757186412811279 -0.09973959624767303
4.643739700317383 5.756509304046631 -0.09940710663795471
4.623804092407227 5.756690979003906 -0.09894944727420807
4.612989902496338 5.767700672149658 -0.09882649034261703
4.590529441833496 5.764822006225586 -0.09829465299844742
4.573728084564209 5.768247604370117 -0.09805100411176682
4.560416221618652 5.776039123535156 -0.09772368520498276
4.5386505126953125 5.773789405822754 -0.09738427400588989
4.51271915435791 5.76538610458374 -0.09676272422075272
4.499503135681152 5.773143768310547 -0.09629467874765396
4.480885028839111 5.774656772613525 -0.09616566449403763
4.460405349731445 5.772959232330322 -0.09554532915353775
4.4522905349731445 5.787971019744873 -0.09562592208385468
4.430499076843262 5.784440994262695 -0.09496074914932251
4.414658069610596 5.788603782653809 -0.09488986432552338
4.397608757019043 5.791865825653076 -0.09433794021606445
4.3874077796936035 5.803397178649902 -0.09408476948738098
4.36796760559082 5.802674293518066 -0.09378726780414581
4.3555426597595215 5.811966896057129 -0.09347958117723465
4.322803497314453 5.793293476104736 -0.09288281202316284
4.313547134399414 5.8059868812561035 -0.0926501452922821
4.300952911376953 5.814943313598633 -0.09250672161579132
4.278099536895752 5.809222221374512 -0.09196922183036804
4.244390487670898 5.814575672149658 -0.09133581817150116
4.2280683517456055 5.817527770996094 -0.0907968059182167
4.21053409576416 5.819501876831055 -0.0908455029129982
4.196054458618164 5.82490348815918 -0.09049926698207855
4.177186012268066 5.824670791625977 -0.09037278592586517
4.16791296005249 5.83751916885376 -0.08999336510896683
4.145974636077881 5.832347869873047 -0.0893416702747345
4.127538681030273 5.83251953125 -0.08920245617628098
4.110233306884766 5.83394193649292 -0.08866647630929947
4.0972161293029785 5.84117317199707 -0.08865350484848022
4.078836917877197 5.841473579406738 -0.0880897119641304
4.061818599700928 5.8428955078125 -0.08768974244594574
4.047881126403809 5.848706245422363 -0.08751177787780762
4.027721881866455 5.846227645874023 -0.08703401684761047
4.006723880767822 5.841660499572754 -0.08641382306814194
3.9969677925109863 5.853964805603027 -0.08648098260164261
3.9727866649627686 5.844799518585205 -0.08578499406576157
3.967172622680664 5.862673282623291 -0.08592647314071655
3.946610450744629 5.858968734741211 -0.08530930429697037
3.930727005004883 5.861849308013916 -0.08495776355266571
3.914046287536621 5.863241195678711 -0.08470556139945984
3.8996529579162598 5.8685455322265625 -0.08437424153089523
3.8811581134796143 5.867336273193359 -0.08410372585058212
3.8656716346740723 5.870362281799316 -0.08374397456645966
3.852015256881714 5.876917839050293 -0.08328279852867126
3.8304176330566406 5.87050199508667 -0.08294807374477386
3.8131561279296875 5.871167182922363 -0.08299658447504044
3.799938201904297 5.877730369567871 -0.08268709480762482
3.780944585800171 5.875055313110352 -0.08240529894828796
3.7671384811401367 5.880922317504883 -0.08208765089511871
3.7534773349761963 5.88670539855957 -0.08163301646709442
3.7198686599731445 5.888302803039551 -0.08100797235965729
3.700601577758789 5.885066986083984 -0.0805666446685791
3.6733508110046387 5.896440505981445 -0.08009319007396698
3.6560301780700684 5.8961181640625 -0.07955799996852875
3.6213040351867676 5.895406723022461 -0.07891494035720825
3.5825915336608887 5.915448188781738 -0.07817190885543823
3.5338797569274902 5.918671607971191 -0.07707657665014267
3.5044121742248535 5.925875186920166 -0.07655730098485947
3.4781153202056885 5.90936279296875 -0.07582009583711624
3.4487552642822266 5.916337013244629 -0.07531370967626572
3.434027910232544 5.919839859008789 -0.07542973756790161
10.761120796203613 5.300527572631836 -0.12120352685451508
10.62933349609375 5.318907737731934 -0.11936232447624207
10.549558639526367 5.334658622741699 -0.11850832402706146
10.511164665222168 5.34266471862793 -0.11992359906435013
10.420952796936035 5.35215425491333 -0.1191653162240982
10.2806396484375 5.362034797668457 -0.11723455786705017
9.086004257202148 5.518491744995117 -0.10295923799276352
8.975975036621094 5.529204845428467 -0.10145849734544754
8.907236099243164 5.538742542266846 -0.10031284391880035
8.875096321105957 5.544329643249512 -0.1000719889998436
8.801145553588867 5.549798965454102 -0.09886518865823746
8.775633811950684 5.559197425842285 -0.09871777892112732
8.744624137878418 5.56501579284668 -0.09849350899457932
8.696331024169922 5.56041955947876 -0.09744282811880112
8.67449951171875 5.571855545043945 -0.0984148234128952
8.628116607666016 5.567898273468018 -0.09759872406721115
8.61439323425293 5.5846333503723145 -0.09758028388023376
8.56668758392334 5.578989505767822 -0.09696777909994125
8.500070571899414 5.586726188659668 -0.09605647623538971
8.48225212097168 5.600254058837891 -0.09600786119699478
8.378976821899414 5.608529090881348 -0.09461238980293274
8.279227256774902 5.617448329925537 -0.09284868091344833
7.649686336517334 5.698108196258545 -0.08425573259592056
7.566427230834961 5.7103986740112305 -0.08314424753189087
7.507896423339844 5.716012954711914 -0.08218947052955627
7.464571952819824 5.707536697387695 -0.08183883875608444
7.42105770111084 5.723950386047363 -0.08105237782001495
7.388349533081055 5.723214626312256 -0.08064930886030197
7.364382743835449 5.7293701171875 -0.08011722564697266
7.330347537994385 5.727842330932617 -0.0798843502998352
7.318395137786865 5.743230819702148 -0.07931919395923615
7.276694297790527 5.735437393188477 -0.07899831235408783
7.252249717712402 5.740610122680664 -0.07867532223463058
7.224191665649414 5.74305534362793 -0.0779319554567337
7.20074462890625 5.749331951141357 -0.07745020091533661
7.17204475402832 5.750830173492432 -0.07706907391548157
7.1399641036987305 5.749717712402344 -0.07647837698459625
7.1253886222839355 5.762887477874756 -0.07645554840564728
7.066051483154297 5.764289379119873 -0.07552123069763184
7.041105270385742 5.768315315246582 -0.07538896799087524
6.9876933097839355 5.7739081382751465 -0.07451131939888
6.970575332641602 5.784146785736084 -0.07409051805734634
6.911757946014404 5.784664154052734 -0.07354629039764404
6.870147705078125 5.774126052856445 -0.07267817854881287
6.819387435913086 5.780643463134766 -0.07201619446277618
6.809311389923096 5.796428680419922 -0.0718773752450943
6.7517499923706055 5.796645164489746 -0.07115107774734497
6.668041706085205 5.797992706298828 -0.06993933022022247
6.460452079772949 5.835763931274414 -0.06606931984424591
6.383066177368164 5.839148044586182 -0.06511547416448593
6.336134910583496 5.845193862915039 -0.0643370971083641
6.320682525634766 5.855492115020752 -0.06432493776082993
6.276669025421143 5.864030838012695 -0.06359553337097168
6.23867130279541 5.852823734283447 -0.06299351900815964
6.228740692138672 5.867857933044434 -0.06284554302692413
6.200708866119385 5.866502285003662 -0.06233307346701622
6.1733832359313965 5.8649749755859375 -0.0620122104883194
6.154889106750488 5.8717546463012695 -0.06159156933426857
6.146841526031494 5.889208793640137 -0.0616425983607769
6.106890678405762 5.875287055969238 -0.06085352227091789
6.0964555740356445 5.890149116516113 -0.060868289321660995
6.063868522644043 5.883272171020508 -0.060142528265714645
6.042862892150879 5.8872857093811035 -0.05935245752334595
6.0108537673950195 5.8811821937561035 -0.05899446830153465
6.005866050720215 5.900745391845703 -0.05872190371155739
5.967638969421387 5.887576580047607 -0.05829613655805588
5.954845428466797 5.90010929107666 -0.05795979127287865
5.926050186157227 5.895999431610107 -0.05778300017118454
5.916659355163574 5.911139488220215 -0.05731162428855896
5.879244804382324 5.898909568786621 -0.05707038938999176
5.867987632751465 5.912100315093994 -0.05656833201646805
5.831960201263428 5.900733470916748 -0.05633949488401413
5.8076491355896 5.9008049964904785 -0.05572398006916046
5.797326564788818 5.914819240570068 -0.05574854835867882
5.77750301361084 5.919609069824219 -0.05532688647508621
5.740175724029541 5.90606164932251 -0.05492750555276871
5.733295440673828 5.9240217208862305 -0.05464674532413483
5.7133402824401855 5.9282002449035645 -0.05441273748874664
5.689737319946289 5.928281307220459 -0.053951818495988846
5.656402587890625 5.918577194213867 -0.05375715345144272
5.648345947265625 5.934985637664795 -0.05330157279968262
5.625292778015137 5.935378074645996 -0.05319886654615402
5.592031955718994 5.925356388092041 -0.052498821169137955
5.564455986022949 5.946105480194092 -0.05198461189866066
5.489632606506348 5.9405694007873535 -0.05079834908246994
5.428333759307861 5.948832988739014 -0.04993274435400963
5.362920761108398 5.951868057250977 -0.04885590821504593
5.325780391693115 5.960938453674316 -0.0482524074614048
5.2715163230896 5.9753899574279785 -0.047283343970775604
5.247590065002441 5.9734416007995605 -0.047033920884132385
5.235013961791992 5.9846296310424805 -0.04668927192687988
5.197759628295898 5.966982841491699 -0.046320416033267975
5.189765930175781 5.983063220977783 -0.04603372514247894
5.163384437561035 5.978168964385986 -0.04575207084417343
5.156871318817139 5.995735168457031 -0.045480936765670776
5.1242995262146 5.983169078826904 -0.04514607414603233
5.103771686553955 5.98479700088501 -0.0447494238615036
5.0847625732421875 5.987629413604736 -0.044691745191812515
5.071454048156738 5.997372150421143 -0.044204916805028915
5.042219638824463 5.988465309143066 -0.04358910769224167
5.031975746154785 6.001769065856934 -0.043604034930467606
5.011058330535889 6.002583026885986 -0.04305487126111984
4.990048885345459 6.002693176269531 -0.04298631101846695
4.970117092132568 6.0042548179626465 -0.04246414080262184
4.957167625427246 6.014486789703369 -0.04212002456188202
4.929458141326904 6.006218910217285 -0.041840337216854095
4.919356346130371 6.0195770263671875 -0.04153267666697502
4.887781143188477 6.0068464279174805 -0.04123330116271973
4.87694787979126 6.019241809844971 -0.0409185029566288
4.850062370300293 6.012033939361572 -0.040800198912620544
4.8366594314575195 6.020945072174072 -0.040321074426174164
4.817842483520508 6.023317337036133 -0.040269430726766586
4.794611930847168 6.020356178283691 -0.03970196843147278
4.7711076736450195 6.016421318054199 -0.039293158799409866
4.75890588760376 6.02692174911499 -0.039158642292022705
4.739377975463867 6.028385162353516 -0.03877543658018112
4.7291669845581055 6.041156768798828 -0.038656506687402725
4.693989276885986 6.022682189941406 -0.03814494609832764
4.6837239265441895 6.035300254821777 -0.03802407160401344
4.663321018218994 6.034824371337891 -0.037638187408447266
4.652361869812012 6.047298431396484 -0.03719019144773483
4.634456634521484 6.049962043762207 -0.03716103732585907
4.616611957550049 6.052886486053467 -0.03664858266711235
4.585888862609863 6.039074897766113 -0.03634404018521309
4.5800461769104 6.057438850402832 -0.03608866408467293
4.560276031494141 6.058149814605713 -0.03588920831680298
4.537642955780029 6.054189682006836 -0.035484012216329575
4.511350631713867 6.045209884643555 -0.03523208200931549
4.504167079925537 6.062559604644775 -0.03496459126472473
4.484212875366211 6.061939239501953 -0.03476445749402046
4.464171409606934 6.0611138343811035 -0.0343901701271534
4.448904514312744 6.067487716674805 -0.03391995280981064
4.432133674621582 6.070994853973389 -0.033884741365909576
4.406552314758301 6.062331676483154 -0.03332223743200302
4.394292831420898 6.072700023651123 -0.033325303345918655
4.373994827270508 6.071137428283691 -0.03281587362289429
4.3651275634765625 6.086200714111328 -0.032539159059524536
4.336939811706543 6.073471546173096 -0.03226849064230919
4.3268632888793945 6.086026191711426 -0.031984321773052216
4.300936222076416 6.077005386352539 -0.03173967823386192
4.293414115905762 6.093153476715088 -0.03147312253713608
4.273405075073242 6.092355251312256 -0.030968375504016876
4.255145072937012 6.093179702758789 -0.030926957726478577
4.240083694458008 6.098534107208252 -0.030459601432085037
4.226825714111328 6.107259750366211 -0.03046010248363018
4.194433212280273 6.087413787841797 -0.02985142171382904
4.1817307472229 6.096015453338623 -0.029544075950980186
4.165406227111816 6.100113391876221 -0.029394708573818207
4.15330696105957 6.109580039978027 -0.029248274862766266
4.128226280212402 6.099874496459961 -0.029154233634471893
4.11482048034668 6.108137130737305 -0.028702015057206154
4.095203876495361 6.106326103210449 -0.02834540233016014
4.08527135848999 6.119479179382324 -0.02822113409638405
4.058597564697266 6.1071858406066895 -0.027830444276332855
4.049082279205322 6.120382308959961 -0.027709592133760452
4.022751331329346 6.108643054962158 -0.02729823812842369
4.01495361328125 6.124692916870117 -0.02690240368247032
3.991658926010132 6.116805076599121 -0.02682652696967125
3.9766669273376465 6.122367858886719 -0.02637256123125553
3.9592032432556152 6.123260498046875 -0.026032710447907448
3.9448020458221436 6.129406452178955 -0.02588983066380024
3.929033041000366 6.13309383392334 -0.025567306205630302
3.912700653076172 6.135594367980957 -0.025399625301361084
3.8953850269317627 6.137059211730957 -0.025063328444957733
3.87890625 6.139482498168945 -0.02460121363401413
3.865309238433838 6.146169662475586 -0.024604562669992447
3.849531888961792 6.149932861328125 -0.024136196821928024
3.8274035453796387 6.143153667449951 -0.02377651259303093
3.8069422245025635 6.139230728149414 -0.023586120456457138
3.7935075759887695 6.146270751953125 -0.02314126305282116
3.7790067195892334 6.151301383972168 -0.0231277197599411
3.7561864852905273 6.143275260925293 -0.022628553211688995
3.746185302734375 6.155853271484375 -0.022817151620984077
3.7246856689453125 6.1492228507995605 -0.022455835714936256
3.7122271060943604 6.15803337097168 -0.022314127534627914
3.6910557746887207 6.152019500732422 -0.0218324176967144
3.6773314476013184 6.158659934997559 -0.021526556462049484
3.660369873046875 6.159255027770996 -0.021366070955991745
3.6413638591766357 6.156599998474121 -0.021031765267252922
3.626154661178589 6.160611629486084 -0.02059030719101429
3.6136250495910645 6.168843746185303 -0.02058960311114788
3.596064567565918 6.1681809425354 -0.02012838050723076
3.563511848449707 6.171936988830566 -0.019655030220746994
3.5487000942230225 6.175843715667725 -0.01933838613331318
3.5154008865356445 6.177978038787842 -0.018876902759075165
3.4648923873901367 6.179266929626465 -0.017940135672688484
3.3840818405151367 6.1865057945251465 -0.016566675156354904
3.3398666381835938 6.197903633117676 -0.01598270609974861
8.751462936401367 5.291015148162842 -0.14425216615200043
7.61006498336792 5.449243545532227 -0.12450146675109863
7.538872241973877 5.4702863693237305 -0.12370374798774719
7.455334663391113 5.481545448303223 -0.1223260909318924
7.396842002868652 5.4866790771484375 -0.12119375914335251
7.369118690490723 5.4898576736450195 -0.1209261491894722
7.303101539611816 5.488653659820557 -0.11965446919202805
7.281252861022949 5.495914459228516 -0.11948664486408234
7.233824729919434 5.508090019226074 -0.11891242861747742
7.199427604675293 5.5055389404296875 -0.11815465241670609
7.141902923583984 5.509367942810059 -0.11743731796741486
7.127632141113281 5.5219926834106445 -0.11736153066158295
7.074339866638184 5.528534889221191 -0.11634255945682526
7.047150611877441 5.530881881713867 -0.11624006181955338
6.994118690490723 5.537018775939941 -0.11424432694911957
6.920233726501465 5.5496506690979 -0.11307333409786224
6.3805413246154785 5.619780540466309 -0.10386121273040771
6.310197353363037 5.628660678863525 -0.10277746617794037
6.250574111938477 5.64643669128418 -0.10186688601970673
6.195831298828125 5.644552230834961 -0.10085153579711914
6.174899101257324 5.6489763259887695 -0.10069533437490463
6.133742332458496 5.65895938873291 -0.1002625823020935
6.107878684997559 5.659083366394043 -0.09967349469661713
6.084748268127441 5.661379814147949 -0.09934211522340775
6.055662155151367 5.657808303833008 -0.09905946999788284
6.038804531097412 5.666052341461182 -0.09861890971660614
6.022954940795898 5.674944877624512 -0.09840735793113708
5.995660781860352 5.672762393951416 -0.09815417230129242
5.973986625671387 5.67627477645874 -0.09762673079967499
5.94200325012207 5.669610977172852 -0.09715503454208374
5.925471305847168 5.677374839782715 -0.09708133339881897
5.8994975090026855 5.676492691040039 -0.09651518613100052
5.894194602966309 5.695212364196777 -0.09575926512479782
5.866889953613281 5.692418098449707 -0.0955163985490799
5.837276458740234 5.687943458557129 -0.09509283304214478
5.819683074951172 5.694392681121826 -0.09463948011398315
5.807635307312012 5.706242561340332 -0.09463536739349365
5.782071590423584 5.7054524421691895 -0.09426835179328918
5.753693103790283 5.701064109802246 -0.09365828335285187
5.718218803405762 5.713839530944824 -0.09332039952278137
5.684102535247803 5.703371524810791 -0.09246578812599182
5.651524066925049 5.718649387359619 -0.09231491386890411
5.6370768547058105 5.727756500244141 -0.09211975336074829
5.583784103393555 5.7216057777404785 -0.09116126596927643
5.527079105377197 5.735193252563477 -0.09034119546413422
5.469385147094727 5.747201919555664 -0.08950892090797424
5.343970775604248 5.758920669555664 -0.08718578517436981
5.280465126037598 5.76320743560791 -0.08611322194337845
5.224207401275635 5.774270057678223 -0.08531489968299866
5.162265300750732 5.778411388397217 -0.08442427963018417
5.123469352722168 5.783339023590088 -0.08370251208543777
5.111110687255859 5.794055938720703 -0.08370710164308548
5.086086273193359 5.789863586425781 -0.08334657549858093
5.060810565948486 5.7854814529418945 -0.08281516283750534
5.050437927246094 5.798349380493164 -0.08270077407360077
5.026916027069092 5.7958083152771 -0.08250617235898972
5.007633209228516 5.798332214355469 -0.08192053437232971
4.988614559173584 5.800600051879883 -0.08181337267160416
4.967242240905762 5.800277233123779 -0.08152853697538376
4.947476863861084 5.80201530456543 -0.08106835931539536
4.929510116577148 5.805302619934082 -0.08082455396652222
4.913437366485596 5.8109965324401855 -0.08061988651752472
4.886690139770508 5.8042426109313965 -0.08005677908658981
4.873884677886963 5.813701629638672 -0.0800446942448616
4.855981826782227 5.817317962646484 -0.07949455827474594
4.837579727172852 5.819780349731445 -0.07939180731773376
4.813540935516357 5.815593719482422 -0.07905936986207962
4.801740646362305 5.826406478881836 -0.0787409320473671
4.785077095031738 5.830799579620361 -0.07851894944906235
4.768820762634277 5.835870742797852 -0.07846121490001678
4.7404913902282715 5.826334476470947 -0.07773911207914352
4.728666305541992 5.836499214172363 -0.0777488574385643
4.714912414550781 5.8445048332214355 -0.07757415622472763
4.691307544708252 5.840505123138428 -0.07707902789115906
4.6784467697143555 5.849542617797852 -0.07705327123403549
4.661393165588379 5.853080749511719 -0.07652109116315842
4.630388259887695 5.839476585388184 -0.07622062414884567
4.616252899169922 5.846760272979736 -0.07604262232780457
4.594029903411865 5.844010353088379 -0.07557516545057297
4.585963726043701 5.858962059020996 -0.0754995346069336
4.55969762802124 5.850378036499023 -0.07526642829179764
4.523708343505859 5.8548903465271 -0.07462196052074432
4.510885238647461 5.8634033203125 -0.07416991889476776
4.465612888336182 5.855416774749756 -0.07369014620780945
4.456134796142578 5.868203163146973 -0.07358382642269135
4.419724464416504 5.871431827545166 -0.07295120507478714
4.4065752029418945 5.879316806793213 -0.07292546331882477
4.391263008117676 5.885041236877441 -0.07274249196052551
4.373979568481445 5.8873291015625 -0.0723547488451004
4.336751937866211 5.888865947723389 -0.07170011848211288
4.324324607849121 5.897583484649658 -0.07155759632587433
4.27713680267334 5.885042667388916 -0.07075170427560806
4.266236782073975 5.895732402801514 -0.07075818628072739
4.231042861938477 5.899250030517578 -0.07015298306941986
4.211116790771484 5.897268772125244 -0.06988239288330078
4.1972761154174805 5.904516220092773 -0.06955992430448532
4.177677154541016 5.902846813201904 -0.06928981840610504
4.159968852996826 5.904295921325684 -0.06889986991882324
4.146633148193359 5.911624431610107 -0.06874747574329376
4.127885341644287 5.91094970703125 -0.06864824891090393
4.11208963394165 5.915209770202637 -0.06814902275800705
4.0834527015686035 5.900103569030762 -0.0678824633359909
4.066439628601074 5.901655673980713 -0.06737102568149567
4.059329986572266 5.918357849121094 -0.06774581968784332
4.044050216674805 5.922391891479492 -0.06726666539907455
4.030080318450928 5.928311347961426 -0.06723300367593765
4.016469478607178 5.93552303314209 -0.06678084284067154
3.9903268814086914 5.923335075378418 -0.06655848771333694
3.973783016204834 5.925276279449463 -0.0663428008556366
3.962742328643799 5.936187267303467 -0.06607522815465927
3.946408271789551 5.938369274139404 -0.06586910784244537
3.9319489002227783 5.944118499755859 -0.06541155278682709
3.9142603874206543 5.944148540496826 -0.06531012058258057
3.9002130031585693 5.94965934753418 -0.06528995931148529
3.8766050338745117 5.941288948059082 -0.06467870622873306
3.8592684268951416 5.941624164581299 -0.06445024162530899
3.8439316749572754 5.944983005523682 -0.06410878896713257
3.8298499584198 5.951047420501709 -0.0639544129371643
3.813122272491455 5.952160835266113 -0.06387580186128616
3.792179822921753 5.946852684020996 -0.06330541521310806
3.7820801734924316 5.958806037902832 -0.06334523856639862
3.7651522159576416 5.959434509277344 -0.06284436583518982
3.7466132640838623 5.957684516906738 -0.06273157894611359
3.7367947101593018 5.970082759857178 -0.06235520541667938
3.71920108795166 5.969483852386475 -0.06226780638098717
3.7053065299987793 5.975586414337158 -0.06211402267217636
3.6867332458496094 5.973274230957031 -0.06171903759241104
3.6738975048065186 5.980463981628418 -0.06157462298870087
3.6498353481292725 5.969596862792969 -0.06139858812093735
3.635622262954712 5.9741716384887695 -0.06092747673392296
3.6202187538146973 5.977010726928711 -0.06087958812713623
3.608548402786255 5.986307621002197 -0.06076814606785774
3.585587501525879 5.976232051849365 -0.060300011187791824
3.5766358375549316 5.989709854125977 -0.06021903455257416
3.555936813354492 5.983790397644043 -0.05965401232242584
3.5387983322143555 5.983187675476074 -0.059581562876701355
3.520264148712158 5.980974197387695 -0.05906406790018082
3.509880542755127 5.991740703582764 -0.05909764766693115
3.4769415855407715 5.993241786956787 -0.05854739621281624
3.455669641494751 5.9851555824279785 -0.05826067551970482
8.653681755065918 5.688248157501221 -0.05820793658494949
7.510277271270752 5.81843900680542 -0.04537736997008324
7.493459224700928 5.8303327560424805 -0.04535960406064987
7.428920745849609 5.830509662628174 -0.0445496141910553
7.4026875495910645 5.834786415100098 -0.044456854462623596
7.343167304992676 5.838177680969238 -0.04407034069299698
7.312685489654541 5.838750839233398 -0.043567024171352386
7.293102264404297 5.8486714363098145 -0.043518342077732086
7.2684736251831055 5.8537468910217285 -0.04325199872255325
7.2286858558654785 5.846473693847656 -0.043105315417051315
7.174808502197266 5.853052616119385 -0.04235783964395523
7.15806770324707 5.864176273345947 -0.042337819933891296
7.097267150878906 5.864490032196045 -0.041553523391485214
7.015415191650391 5.871458530426025 -0.03993920981884003
6.949625015258789 5.89108419418335 -0.03921645134687424
6.860539436340332 5.890315055847168 -0.038366250693798065
6.319269180297852 5.9534101486206055 -0.03223348408937454
6.275539398193359 5.962297439575195 -0.03160392493009567
6.253911972045898 5.96649169921875 -0.03155713528394699
6.207395553588867 5.972249984741211 -0.030929408967494965
6.175834655761719 5.96661376953125 -0.030829928815364838
6.127229690551758 5.969749450683594 -0.03019663691520691
6.115586280822754 5.983696937561035 -0.030189793556928635
6.096466064453125 5.9900312423706055 -0.029992710798978806
6.061808109283447 5.980751037597656 -0.029548857361078262
6.0365495681762695 5.981104850769043 -0.02930043824017048
6.020357131958008 5.9900994300842285 -0.029285479336977005
5.9896697998046875 5.984352111816406 -0.02885640412569046
5.9757819175720215 5.995811462402344 -0.02866506390273571
5.948558330535889 5.993548393249512 -0.028600193560123444
