VERSION .7
FIELDS x y z
SIZE 4 4 4
TYPE F F F
COUNT 1 1 1
WIDTH 855
HEIGHT 1
VIEWPOINT 0 0 0 1 0 0 0
POINTS 855
DATA ascii
16.61046600341797 -9.232943534851074 0.4865144193172455
16.682369232177734 -9.227648735046387 0.4882020354270935
16.749305725097656 -9.218162536621094 0.490609347820282
16.83599281311035 -9.220240592956543 0.4927268624305725
16.896316528320312 -9.207748413085938 0.49393412470817566
16.977035522460938 -9.20491886138916 0.49689799547195435
17.040203094482422 -9.193297386169434 0.49818533658981323
17.10575294494629 -9.182883262634277 0.5005859136581421
17.192110061645508 -9.181985855102539 0.5026810169219971
17.268291473388672 -9.176666259765625 0.5043517351150513
17.33496856689453 -9.16601848602295 0.5058883428573608
17.42247772216797 -9.16472053527832 0.5089245438575745
17.488563537597656 -9.153199195861816 0.5104489326477051
17.558948516845703 -9.142306327819824 0.5119298696517944
17.6424503326416 -9.139294624328613 0.5150243043899536
17.797752380371094 -9.124884605407715 0.5195040106773376
17.866540908813477 -9.11337947845459 0.5211076140403748
17.93086814880371 -9.099349975585938 0.522433340549469
18.016084671020508 -9.094249725341797 0.5255840420722961
18.09383773803711 -9.086431503295898 0.5272974967956543
18.172353744506836 -9.077302932739258 0.5301111936569214
18.250804901123047 -9.069214820861816 0.5320003032684326
18.342491149902344 -9.067359924316406 0.5341224074363708
18.421085357666016 -9.057296752929688 0.5370990633964539
18.49620819091797 -9.046619415283203 0.5387399792671204
18.575010299682617 -9.036211013793945 0.5404759645462036
18.64940071105957 -9.02441692352295 0.5433588027954102
18.741239547729492 -9.020906448364258 0.5454855561256409
18.804584503173828 -9.001969337463379 0.548042356967926
18.89909553527832 -8.999053955078125 0.5502529740333557
18.992769241333008 -8.995355606079102 0.5524325966835022
19.06093406677246 -8.977837562561035 0.5551450252532959
19.155506134033203 -8.973859786987305 0.5573554039001465
19.22422981262207 -8.956023216247559 0.5600928068161011
19.3281307220459 -8.955659866333008 0.5625765323638916
19.40361213684082 -8.941770553588867 0.5642333030700684
19.490230560302734 -8.931259155273438 0.5675052404403687
19.568111419677734 -8.917858123779297 0.5692346692085266
19.65613555908203 -8.908759117126465 0.5712546110153198
19.749553680419922 -8.900291442871094 0.5747385025024414
19.834871292114258 -8.889266967773438 0.5766835808753967
19.93696403503418 -8.883926391601562 0.5790966153144836
20.025407791137695 -8.873573303222656 0.5824686884880066
20.112110137939453 -8.86210823059082 0.5844548344612122
20.205673217773438 -8.851837158203125 0.5867871046066284
20.281158447265625 -8.83478832244873 0.5896327495574951
20.385282516479492 -8.828563690185547 0.5921118259429932
20.488462448120117 -8.822620391845703 0.594739556312561
20.575679779052734 -8.80960750579834 0.5979405045509338
20.660465240478516 -8.793729782104492 0.5998563170433044
20.771142959594727 -8.789969444274902 0.6027055978775024
20.853107452392578 -8.773492813110352 0.6057679057121277
20.958662033081055 -8.765436172485352 0.6082901358604431
21.051897048950195 -8.753145217895508 0.6106383800506592
21.145675659179688 -8.740528106689453 0.6140563488006592
21.24754524230957 -8.729723930358887 0.6177051663398743
21.336355209350586 -8.714505195617676 0.6197590827941895
21.441539764404297 -8.704068183898926 0.6235137581825256
21.53997230529785 -8.692004203796387 0.6258516907691956
21.65467643737793 -8.685891151428223 0.6288294792175293
21.77223777770996 -8.67928695678711 0.6329607367515564
22.056699752807617 -8.632387161254883 0.6410879492759705
22.15677833557129 -8.618575096130371 0.6434758901596069
22.365360260009766 -8.591445922851562 0.6486563682556152
22.488788604736328 -8.58515453338623 0.6530045866966248
22.605592727661133 -8.574653625488281 0.6560451984405518
22.70908546447754 -8.560046195983887 0.658531904220581
22.82381820678711 -8.547653198242188 0.662634551525116
22.929311752319336 -8.53294849395752 0.6651825904846191
23.15935516357422 -8.507688522338867 0.6709945201873779
23.263816833496094 -8.491312026977539 0.6748365163803101
23.844079971313477 -8.420516014099121 0.6935112476348877
24.064449310302734 -8.384523391723633 0.6988884210586548
24.18954849243164 -8.371858596801758 0.7033868432044983
24.44464111328125 -8.3450345993042 0.7097769379615784
24.676790237426758 -8.308416366577148 0.7170857787132263
24.821439743041992 -8.299810409545898 0.7207850813865662
24.93562889099121 -8.280292510986328 0.7236009836196899
25.074764251708984 -8.26727294921875 0.7273210287094116
25.184906005859375 -8.245473861694336 0.731438934803009
25.322479248046875 -8.230874061584473 0.7349239587783813
25.44985580444336 -8.213921546936035 0.7381236553192139
25.57720947265625 -8.196246147155762 0.7415222525596619
25.703203201293945 -8.1763277053833 0.7446679472923279
25.841236114501953 -8.161224365234375 0.749627411365509
25.978126525878906 -8.144996643066406 0.7531041502952576
26.11564064025879 -8.127092361450195 0.7567919492721558
26.24277114868164 -8.106746673583984 0.7599842548370361
26.528728485107422 -8.073071479797363 0.768761932849884
26.649219512939453 -8.049135208129883 0.7719762921333313
26.798166275024414 -8.031912803649902 0.7757932543754578
26.94431495666504 -8.014816284179688 0.7855679392814636
27.08357048034668 -7.994880199432373 0.7891412377357483
27.22280502319336 -7.973019599914551 0.7942224740982056
27.348052978515625 -7.947897434234619 0.7973920702934265
27.502714157104492 -7.929393291473389 0.8014079332351685
27.649999618530273 -7.909745693206787 0.8054341077804565
27.797962188720703 -7.889479160308838 0.809264063835144
27.955476760864258 -7.869918346405029 0.8149166703224182
28.08192253112793 -7.842430591583252 0.8181257247924805
28.25884437561035 -7.827031135559082 0.8227918148040771
28.39022445678711 -7.800020694732666 0.8263648748397827
28.699861526489258 -7.755250453948975 0.8360128998756409
29.195602416992188 -7.692596912384033 0.8492542505264282
29.498653411865234 -7.639736175537109 0.8587597608566284
29.678333282470703 -7.62058687210083 0.8635275959968567
29.979467391967773 -7.563473701477051 0.8715871572494507
30.491268157958984 -7.489027500152588 0.8867636919021606
31.018627166748047 -7.411858558654785 0.9041450023651123
31.37647247314453 -7.358067035675049 0.915634036064148
31.576915740966797 -7.335726737976074 0.9210352301597595
31.752887725830078 -7.305400371551514 0.925712525844574
31.91575050354004 -7.273166179656982 0.930019199848175
32.10675811767578 -7.246387004852295 0.9369074106216431
32.2948112487793 -7.216614246368408 0.9421917200088501
24.404165267944336 -5.399963855743408 0.7118399739265442
23.277019500732422 -5.099970817565918 0.6784783601760864
23.268695831298828 -5.046262264251709 0.677920937538147
23.272071838378906 -4.9962687492370605 0.6777142882347107
23.27324676513672 -4.944718360900879 0.6774407625198364
23.268932342529297 -4.893174171447754 0.67701655626297
23.268136978149414 -4.842608451843262 0.678151547908783
23.352602005004883 -4.808345317840576 0.6803118586540222
23.632808685302734 -4.814757347106934 0.6881771683692932
23.638486862182617 -4.764843463897705 0.6880587339401245
34.66057586669922 -6.834808349609375 1.0080347061157227
34.875404357910156 -6.800075531005859 1.013859510421753
23.286455154418945 -4.388664722442627 0.6776219606399536
23.104341506958008 -4.3045334815979 0.6722092628479004
23.136642456054688 -4.259610176086426 0.674143373966217
23.213083267211914 -4.173971652984619 0.6758551001548767
23.27236557006836 -4.13350772857666 0.6773252487182617
23.472089767456055 -4.068382740020752 0.682640016078949
23.562610626220703 -4.032424449920654 0.6850215196609497
23.76166343688965 -3.963562488555908 0.6903170347213745
24.090599060058594 -3.8627448081970215 0.7006428837776184
23.09239959716797 -3.5539326667785645 0.6709505915641785
23.07159423828125 -3.4515058994293213 0.6699186563491821
23.07748794555664 -3.403263568878174 0.6698822975158691
23.114534378051758 -3.309326171875 0.670721173286438
23.30802345275879 -3.2876839637756348 0.6761317849159241
23.607166290283203 -3.278639793395996 0.6846028566360474
24.611289978027344 -3.3658647537231445 0.7150415778160095
24.692340850830078 -3.3247640132904053 0.7171937227249146
24.848909378051758 -3.2920050621032715 0.7215357422828674
25.023357391357422 -3.262101173400879 0.7264015674591064
26.032451629638672 -3.1710915565490723 0.7548967003822327
26.014739990234375 -3.1139628887176514 0.7543900012969971
26.00078582763672 -3.0575764179229736 0.7537997364997864
26.01258659362793 -3.002640962600708 0.7539533972740173
26.076143264770508 -2.9551565647125244 0.7556143403053284
26.378433227539062 -2.9339847564697266 0.7641922235488892
36.85905456542969 -3.9426305294036865 1.0673401355743408
36.88239288330078 -3.7880914211273193 1.067544937133789
36.888675689697266 -3.7113945484161377 1.0675013065338135
36.923973083496094 -3.557934284210205 1.0680803060531616
36.946533203125 -3.480746269226074 1.070503830909729
36.979949951171875 -3.3288300037384033 1.071061372756958
37.000221252441406 -3.0962929725646973 1.0676459074020386
36.83993148803711 -2.381979465484619 1.0615339279174805
36.83345413208008 -2.225832462310791 1.0610644817352295
36.78075408935547 -2.1460509300231934 1.059417724609375
36.775917053222656 -1.9903998374938965 1.059028148651123
36.78911209106445 -1.914554476737976 1.0592892169952393
36.754661560058594 -1.8340411186218262 1.0581828355789185
36.778743743896484 -1.7587374448776245 1.0587680339813232
36.77067565917969 -1.6818785667419434 1.0581542253494263
36.748863220214844 -1.6022199392318726 1.0574266910552979
36.753726959228516 -1.5260227918624878 1.0574731826782227
36.731266021728516 -1.4484635591506958 1.0567394495010376
36.71028518676758 -1.3693761825561523 1.0521129369735718
36.690460205078125 -1.2923964262008667 1.0520198345184326
36.65561294555664 -1.2127727270126343 1.0509427785873413
36.64524841308594 -1.136305570602417 1.0505766868591309
36.65020751953125 -1.0603348016738892 1.0486887693405151
36.59156799316406 -0.9804091453552246 1.0489134788513184
36.586273193359375 -0.9042935967445374 1.046743631362915
36.62900161743164 -0.8290193676948547 1.047910213470459
36.59626007080078 -0.7503392100334167 1.0469272136688232
36.55480194091797 -0.6736017465591431 1.0457017421722412
36.57854461669922 -0.59587562084198 1.0463402271270752
36.57495880126953 -0.5198993682861328 1.0462030172348022
36.5412483215332 -0.4435764253139496 1.0452141761779785
36.507991790771484 -0.2894063889980316 1.0442187786102295
43.751731872558594 0.019021283835172653 1.609574794769287
43.63425827026367 0.10952054709196091 1.6052638292312622
43.69938278198242 0.2030366212129593 1.6076653003692627
43.68891906738281 0.2936538755893707 1.607297420501709
43.76907730102539 0.47853681445121765 1.6099693775177002
43.31100845336914 1.5659563541412354 1.5914324522018433
43.27781677246094 1.8372479677200317 1.5882803201675415
43.21590042114258 2.106868028640747 1.5844749212265015
43.19956970214844 2.2884740829467773 1.58420991897583
43.197715759277344 2.3782811164855957 1.5843229293823242
43.18281936645508 2.5599167346954346 1.5838302373886108
43.17066192626953 2.6491098403930664 1.5812678337097168
43.081871032714844 2.825828790664673 1.5784380435943604
43.0750846862793 2.9151692390441895 1.578400731086731
43.059120178222656 3.0065083503723145 1.5780483484268188
42.980709075927734 3.090674877166748 1.5750868320465088
42.92726516723633 3.176712989807129 1.5733668804168701
42.89618682861328 3.2662413120269775 1.5701701641082764
42.86715316772461 3.35351824760437 1.5693600177764893
42.84603500366211 3.4439706802368164 1.568852424621582
42.79216384887695 3.52903151512146 1.5671436786651611
42.79548645019531 3.6190574169158936 1.567537784576416
42.74186325073242 3.7061753273010254 1.5655369758605957
42.69588088989258 3.791473627090454 1.5641404390335083
42.6608772277832 3.9695138931274414 1.5565680265426636
42.60606384277344 4.053611755371094 1.5551902055740356
42.56732940673828 4.230892181396484 1.554093837738037
42.450050354003906 4.488912105560303 1.5485241413116455
42.31550598144531 4.743862152099609 1.5443570613861084
42.000484466552734 5.51502799987793 1.5315337181091309
41.871795654296875 5.766125679016113 1.5255533456802368
41.79240036010742 6.023143291473389 1.5236924886703491
41.74321365356445 6.195614814758301 1.5205714702606201
41.68290710449219 6.275096893310547 1.5188506841659546
41.58585739135742 6.439705848693848 1.51596999168396
41.54170608520508 6.521171569824219 1.512596845626831
41.465457916259766 6.688254356384277 1.5108298063278198
41.38945007324219 6.7641496658325195 1.5085718631744385
41.329795837402344 6.845080375671387 1.506613850593567
41.24370193481445 6.918787956237793 1.5017532110214233
41.174861907958984 6.99544095993042 1.499781608581543
41.11608123779297 7.075537204742432 1.4981861114501953
41.0694694519043 7.155298233032227 1.4967111349105835
40.96824264526367 7.227869510650635 1.4913530349731445
40.91278839111328 7.305663108825684 1.489882230758667
40.86265563964844 7.38456392288208 1.4886143207550049
40.78187942504883 7.459649562835693 1.4859379529953003
40.76537322998047 7.544088840484619 1.4836770296096802
40.64523696899414 7.699032306671143 1.4804773330688477
40.61784744262695 7.781192779541016 1.479753017425537
40.45912170410156 7.927573204040527 1.472968578338623
40.43077850341797 8.009178161621094 1.472222924232483
40.288177490234375 8.157405853271484 1.4682714939117432
40.138633728027344 8.390148162841797 1.4622044563293457
39.963836669921875 8.616171836853027 1.4552818536758423
39.58763885498047 9.059932708740234 1.4406805038452148
39.414127349853516 9.28136157989502 1.4364596605300903
39.22776794433594 9.498151779174805 1.4293522834777832
39.12993621826172 9.649096488952637 1.4247914552688599
39.0771369934082 9.722145080566406 1.4235998392105103
38.92965316772461 9.859734535217285 1.417279601097107
38.93800354003906 9.947880744934082 1.4180233478546143
38.79009246826172 10.084305763244629 1.4141682386398315
38.67023468017578 10.138864517211914 1.4081202745437622
38.355018615722656 10.143835067749023 1.3974350690841675
38.014991760253906 10.138361930847168 1.3858108520507812
37.62929916381836 10.119187355041504 1.3701326847076416
37.26639175415039 10.107010841369629 1.3577042818069458
36.91764450073242 10.094720840454102 1.3457592725753784
36.5721435546875 10.084264755249023 1.331632137298584
36.25154113769531 10.076857566833496 1.32071852684021
35.937591552734375 10.069974899291992 1.3100391626358032
35.64443588256836 10.070003509521484 1.2978644371032715
35.31418228149414 10.05588150024414 1.2866004705429077
34.67527770996094 10.032015800476074 1.262646198272705
34.3697395324707 10.020959854125977 1.252273440361023
33.76143264770508 9.998063087463379 1.2294821739196777
33.492488861083984 9.994062423706055 1.2204397916793823
32.93634033203125 9.979358673095703 1.203276515007019
32.661415100097656 9.970107078552246 1.1937248706817627
32.12229537963867 9.95361614227295 1.1737436056137085
31.368738174438477 9.936676025390625 1.1462041139602661
30.60411834716797 9.906595230102539 1.118553638458252
29.90575408935547 9.890689849853516 1.0933762788772583
29.194894790649414 9.859627723693848 1.0677489042282104
28.53559112548828 9.837249755859375 1.044032096862793
28.11483383178711 9.824869155883789 1.0283231735229492
27.8944149017334 9.812844276428223 1.021003246307373
27.485641479492188 9.79931640625 1.0057578086853027
27.271127700805664 9.786670684814453 1.0017545223236084
26.87700653076172 9.77319622039795 0.9870336055755615
26.692607879638672 9.76890754699707 0.9809999465942383
26.2970027923584 9.74990177154541 0.9662491679191589
26.115150451660156 9.744169235229492 0.9600967764854431
25.91058349609375 9.730948448181152 0.9518564343452454
25.748201370239258 9.730979919433594 0.9466283321380615
25.546796798706055 9.715497016906738 0.9397579431533813
25.37029266357422 9.710458755493164 0.9325711727142334
25.170114517211914 9.693772315979004 0.9257477521896362
24.997690200805664 9.688522338867188 0.9187273383140564
24.826396942138672 9.681655883789062 0.9129675030708313
24.657651901245117 9.674848556518555 0.9074990749359131
24.475872039794922 9.663909912109375 0.9001575112342834
24.306615829467773 9.655434608459473 0.8944708704948425
24.133350372314453 9.64463996887207 0.8874371647834778
23.973974227905273 9.64039134979248 0.8821359872817993
23.80385971069336 9.629417419433594 0.875234842300415
23.504405975341797 9.623662948608398 0.8655136823654175
23.324243545532227 9.606460571289062 0.8582618832588196
23.019567489624023 9.594563484191895 0.849677562713623
22.859066009521484 9.583393096923828 0.8444845676422119
22.544742584228516 9.563446998596191 0.8328572511672974
22.433982849121094 9.571442604064941 0.828004777431488
22.1375789642334 9.55538272857666 0.817068874835968
21.295896530151367 9.512845039367676 0.787523627281189
20.8707218170166 9.480941772460938 0.771191418170929
20.49505615234375 9.466168403625488 0.758114218711853
20.243927001953125 9.45363712310791 0.7489227056503296
20.111202239990234 9.442727088928223 0.7445714473724365
19.862579345703125 9.428284645080566 0.7356525659561157
19.747962951660156 9.42414379119873 0.7331368327140808
19.51932144165039 9.41616153717041 0.7249531149864197
19.385942459106445 9.401460647583008 0.7194066047668457
19.2635555267334 9.391534805297852 0.7155866026878357
19.159076690673828 9.39130687713623 0.7111448645591736
19.064712524414062 9.394171714782715 0.7083632946014404
18.9395694732666 9.382842063903809 0.7042970061302185
18.811769485473633 9.36819839477539 0.6991422176361084
18.715587615966797 9.36882209777832 0.6961295008659363
18.60940170288086 9.365434646606445 0.6918048858642578
18.490089416503906 9.35352897644043 0.6868245005607605
18.38817024230957 9.35118293762207 0.6837770938873291
18.285850524902344 9.34713363647461 0.6805395483970642
18.16582679748535 9.333380699157715 0.6756991147994995
18.063840866088867 9.32963752746582 0.6724894046783447
17.962158203125 9.32456111907959 0.6683415174484253
17.84957504272461 9.313191413879395 0.6647177338600159
17.75802230834961 9.313739776611328 0.6609739065170288
17.646570205688477 9.30202865600586 0.6573923826217651
17.570619583129883 9.308637619018555 0.6542138457298279
17.452957153320312 9.294103622436523 0.6493635773658752
17.360422134399414 9.291121482849121 0.6464882493019104
17.24235725402832 9.2752046585083 0.6417781114578247
17.165555953979492 9.28003978729248 0.639489471912384
17.08047866821289 9.279899597167969 0.6361399292945862
16.887924194335938 9.26761245727539 0.6292396783828735
16.77933692932129 9.253382682800293 0.6257652044296265
16.614646911621094 9.254023551940918 0.6199072599411011
16.514259338378906 9.244224548339844 0.6158806085586548
15.79963207244873 9.195820808410645 0.5902978181838989
15.56583309173584 9.191231727600098 0.581636369228363
15.323726654052734 9.178838729858398 0.5735103487968445
15.083954811096191 9.164555549621582 0.5635799169540405
15.000317573547363 9.156414031982422 0.5612956285476685
14.930360794067383 9.157393455505371 0.5583349466323853
14.85294246673584 9.152534484863281 0.5552170276641846
14.771461486816406 9.144673347473145 0.5527499914169312
14.712347984313965 9.151609420776367 0.5502079725265503
14.627265930175781 9.140838623046875 0.547734260559082
14.5504150390625 9.134854316711426 0.5445173978805542
14.464982032775879 9.124357223510742 0.5420476198196411
14.398412704467773 9.124189376831055 0.5392181873321533
14.312385559082031 9.112434387207031 0.5356876850128174
14.249452590942383 9.114128112792969 0.5340402722358704
14.162983894348145 9.10029125213623 0.530478835105896
14.1012544631958 9.103097915649414 0.528889536857605
14.022971153259277 9.093994140625 0.5256437659263611
13.952136993408203 9.089241981506348 0.5236945152282715
13.89834213256836 9.096546173095703 0.521386981010437
13.81855297088623 9.08534049987793 0.5180892944335938
13.748649597167969 9.081357955932617 0.5161939859390259
13.670438766479492 9.070648193359375 0.5129625797271729
13.596100807189941 9.062016487121582 0.5108793377876282
13.548749923706055 9.072169303894043 0.508825957775116
13.469287872314453 9.059648513793945 0.5055582523345947
13.401333808898926 9.054389953613281 0.5037115216255188
13.345063209533691 9.057807922363281 0.5021988153457642
13.26408863067627 9.043255805969238 0.49899840354919434
13.207015991210938 9.044548034667969 0.4965791702270508
13.140020370483398 9.039962768554688 0.4947851002216339
13.068309783935547 9.0306396484375 0.49182045459747314
13.018178939819336 9.037002563476562 0.4905370771884918
12.869695663452148 9.013456344604492 0.4845479130744934
12.827094078063965 9.02437973022461 0.48366641998291016
12.695387840270996 9.0108642578125 0.4790399968624115
12.503397941589355 8.993330001831055 0.47215205430984497
12.329054832458496 8.987083435058594 0.4658477008342743
12.144896507263184 8.970301628112793 0.45916539430618286
12.013517379760742 8.951704025268555 0.45459288358688354
11.969712257385254 8.957895278930664 0.4528384804725647
11.848974227905273 8.945491790771484 0.44798773527145386
11.791465759277344 8.940691947937012 0.4464057683944702
11.682401657104492 8.935591697692871 0.4420080780982971
11.636310577392578 8.938812255859375 0.4409676194190979
11.510128021240234 8.919071197509766 0.4358256757259369
11.457747459411621 8.916736602783203 0.43454304337501526
11.401435852050781 8.911947250366211 0.43224194645881653
11.337921142578125 8.90040397644043 0.4296565055847168
11.31177806854248 8.917882919311523 0.42936378717422485
11.240569114685059 8.900609016418457 0.4265037775039673
11.19509506225586 8.902600288391113 0.42537298798561096
11.135730743408203 8.893176078796387 0.42305421829223633
11.09560489654541 8.899880409240723 0.42137929797172546
11.033268928527832 8.887707710266113 0.4196067750453949
10.975643157958984 8.87890625 0.4173601567745209
10.928086280822754 8.87912368774414 0.41541051864624023
10.881490707397461 8.878816604614258 0.41423499584198
10.832307815551758 8.877164840698242 0.41232922673225403
10.777273178100586 8.869647026062012 0.4100852310657501
10.722529411315918 8.861979484558105 0.40859782695770264
10.671832084655762 8.858381271362305 0.4066396653652191
10.625104904174805 8.857034683227539 0.404715895652771
10.591331481933594 8.86619758605957 0.4032846987247467
10.527132034301758 8.850638389587402 0.4007156491279602
10.48928451538086 8.856171607971191 0.39913833141326904
10.440366744995117 8.853004455566406 0.3979915678501129
10.389131546020508 8.846687316894531 0.39590632915496826
10.32297134399414 8.827505111694336 0.3932558596134186
10.306354522705078 8.851346969604492 0.39333799481391907
10.243012428283691 8.834081649780273 0.3907955288887024
10.202463150024414 8.836097717285156 0.38912299275398254
10.156330108642578 8.834049224853516 0.3880781829357147
10.095590591430664 8.818218231201172 0.3856426775455475
10.063253402709961 8.826854705810547 0.3842877149581909
10.017675399780273 8.824679374694824 0.3831629753112793
9.973336219787598 8.822577476501465 0.3814537823200226
9.921993255615234 8.81488037109375 0.37939754128456116
9.868054389953613 8.803668975830078 0.3779352903366089
9.83182144165039 8.808187484741211 0.37654000520706177
9.792381286621094 8.810500144958496 0.37494152784347534
9.685518264770508 8.78749942779541 0.3714481592178345
9.654165267944336 8.79659366607666 0.37016406655311584
9.516683578491211 8.781455993652344 0.3654198944568634
9.291595458984375 8.75612735748291 0.35716959834098816
9.17284107208252 8.753744125366211 0.35316231846809387
9.051797866821289 8.74761962890625 0.34898146986961365
8.974494934082031 8.746306419372559 0.3459802269935608
8.92207145690918 8.731389045715332 0.34456437826156616
8.896830558776855 8.743037223815918 0.3436228632926941
8.840971946716309 8.725215911865234 0.34142348170280457
8.803335189819336 8.724339485168457 0.34057921171188354
8.76618480682373 8.723654747009277 0.3390851318836212
8.731884956359863 8.726595878601074 0.33781352639198303
8.680408477783203 8.7113618850708 0.33577409386634827
8.65110969543457 8.71806812286377 0.3352472186088562
8.604039192199707 8.70762825012207 0.3333926200866699
8.558777809143066 8.697980880737305 0.3316883444786072
8.529972076416016 8.705698013305664 0.331195592880249
8.493016242980957 8.704039573669434 0.32971882820129395
8.450394630432129 8.696520805358887 0.3280267119407654
8.419949531555176 8.702177047729492 0.327562153339386
8.372978210449219 8.689643859863281 0.3256983458995819
8.338578224182129 8.690092086791992 0.3243291974067688
8.294266700744629 8.680829048156738 0.32259008288383484
8.260295867919922 8.681401252746582 0.3219720125198364
8.220787048339844 8.675859451293945 0.32040318846702576
8.196285247802734 8.686966896057129 0.3194371163845062
8.152975082397461 8.677196502685547 0.31836387515068054
8.125504493713379 8.684001922607422 0.31735679507255554
8.079996109008789 8.672296524047852 0.31557661294937134
8.045228004455566 8.67111587524414 0.3142000436782837
8.003971099853516 8.663564682006836 0.3132196068763733
7.981657028198242 8.675593376159668 0.31242063641548157
7.9364776611328125 8.662495613098145 0.3106379508972168
7.908882141113281 8.669355392456055 0.30956199765205383
7.867066860198975 8.659672737121582 0.30854332447052
7.829159259796143 8.653962135314941 0.30713632702827454
7.792727470397949 8.650636672973633 0.30571675300598145
7.759993076324463 8.650458335876465 0.30505073070526123
7.724809169769287 8.64820384979248 0.30368301272392273
7.678491592407227 8.632338523864746 0.3019481897354126
7.653001308441162 8.639850616455078 0.30094635486602783
7.617382049560547 8.63661003112793 0.30079904198646545
7.586280822753906 8.637413024902344 0.30019184947013855
7.550993919372559 8.633434295654297 0.2988923490047455
7.525625228881836 8.641483306884766 0.2979143261909485
7.445828914642334 8.621977806091309 0.2953912317752838
7.42018461227417 8.629350662231445 0.2944064736366272
7.349923133850098 8.620816230773926 0.2917584776878357
7.311647891998291 8.612056732177734 0.29086214303970337
7.247208595275879 8.609384536743164 0.288448303937912
7.2191009521484375 8.61220645904541 0.2873554229736328
7.158751964569092 8.613636016845703 0.28562626242637634
7.112360954284668 8.594035148620605 0.28388774394989014
7.066196441650391 8.611837387084961 0.28272584080696106
6.957832336425781 8.58932113647461 0.2786042094230652
6.892547607421875 8.582374572753906 0.27667927742004395
6.858365058898926 8.57620620727539 0.27593904733657837
6.800032615661621 8.577070236206055 0.2743733823299408
6.769126892089844 8.574580192565918 0.27317702770233154
6.742528915405273 8.57850456237793 0.2721770405769348
6.7104811668396 8.574294090270996 0.27160054445266724
6.679881572723389 8.571918487548828 0.27042001485824585
6.655050754547119 8.577652931213379 0.26949065923690796
6.610379219055176 8.556679725646973 0.26774048805236816
6.596225738525391 8.575214385986328 0.26722779870033264
6.559234619140625 8.564791679382324 0.26646822690963745
6.521294593811035 8.551958084106445 0.264990895986557
6.495052814483643 8.554434776306152 0.26399141550064087
6.4747443199157715 8.565485954284668 0.2632502317428589
6.445337772369385 8.563468933105469 0.26269665360450745
6.410701274871826 8.554471015930176 0.2614379823207855
6.37985897064209 8.551187515258789 0.2602695822715759
6.349600791931152 8.54758358001709 0.25910863280296326
6.314665794372559 8.538599014282227 0.257779061794281
6.295726776123047 8.55004596710205 0.257649689912796
6.258450508117676 8.536602020263672 0.2562839686870575
6.234659671783447 8.542226791381836 0.25540757179260254
6.1973795890808105 8.5282564163208 0.253961443901062
6.1798415184021 8.541473388671875 0.25332656502723694
6.134552955627441 8.516996383666992 0.2526974678039551
6.115477561950684 8.527774810791016 0.25207799673080444
6.0877580642700195 8.52656078338623 0.25102686882019043
6.06671142578125 8.535446166992188 0.2508287727832794
6.029598236083984 8.520620346069336 0.24938727915287018
6.00616979598999 8.525113105773926 0.2485155314207077
5.971728801727295 8.514667510986328 0.24728275835514069
5.945775508880615 8.515196800231934 0.24630434811115265
5.906889915466309 8.498124122619629 0.24481403827667236
5.880345344543457 8.497507095336914 0.24436718225479126
5.852312088012695 8.49461555480957 0.24330364167690277
5.833765029907227 8.5065336227417 0.2426578402519226
5.807844161987305 8.506529808044434 0.24176064133644104
5.777313709259033 8.499773025512695 0.24059948325157166
5.75262451171875 8.502324104309082 0.24024707078933716
5.732952117919922 8.511251449584961 0.2395353466272354
5.701453685760498 8.503636360168457 0.238353431224823
5.67618465423584 8.504049301147461 0.2374095916748047
5.647193908691406 8.498756408691406 0.23638682067394257
5.618845462799072 8.49540901184082 0.23588325083255768
5.592020511627197 8.49310302734375 0.23487573862075806
5.531452178955078 8.47864055633545 0.23259322345256805
5.510383605957031 8.484769821166992 0.23182927072048187
5.459019184112549 8.483684539794922 0.23109416663646698
5.4311652183532715 8.479013442993164 0.23004426062107086
5.380960941314697 8.479045867919922 0.22827666997909546
5.355996131896973 8.478545188903809 0.2278885394334793
5.319608211517334 8.460919380187988 0.22649869322776794
5.302680969238281 8.472968101501465 0.22591587901115417
5.270982265472412 8.461312294006348 0.22470402717590332
5.243585586547852 8.457536697387695 0.2236981838941574
5.216246128082275 8.452558517456055 0.2226734459400177
5.203841686248779 8.4717435836792 0.22236071527004242
5.16693639755249 8.452095985412598 0.22148115932941437
5.145766735076904 8.456851959228516 0.22072093188762665
5.103300094604492 8.467157363891602 0.21921920776367188
5.067785263061523 8.447834968566895 0.2178446352481842
5.008118629455566 8.428637504577637 0.21620526909828186
4.9892964363098145 8.436777114868164 0.21554958820343018
4.9498419761657715 8.451091766357422 0.21418440341949463
4.912629127502441 8.427610397338867 0.21273501217365265
4.895701885223389 8.439960479736328 0.2122587263584137
4.8724684715271 8.440213203430176 0.21193791925907135
4.839517593383789 8.423458099365234 0.21119213104248047
4.817739009857178 8.427177429199219 0.2104339301586151
4.792232036590576 8.423081398010254 0.2094912827014923
4.77091121673584 8.426241874694824 0.20873184502124786
4.745070457458496 8.422515869140625 0.20779770612716675
4.718489646911621 8.41612720489502 0.20688080787658691
4.6980085372924805 8.421722412109375 0.2061823159456253
4.667598724365234 8.408174514770508 0.20554128289222717
4.655084609985352 8.42679214477539 0.20517173409461975
4.627366065979004 8.419057846069336 0.2041558176279068
4.604012966156006 8.417905807495117 0.2033098340034485
4.574366569519043 8.405085563659668 0.20218631625175476
4.553255558013916 8.409029006958008 0.2015339434146881
4.523921489715576 8.396421432495117 0.20042429864406586
5.7602386474609375 -10.107446670532227 0.2694212794303894
5.78022575378418 -10.093766212463379 0.2694628834724426
5.828676700592041 -10.079699516296387 0.27107569575309753
5.919322967529297 -10.08955192565918 0.2744794189929962
6.003340721130371 -10.086930274963379 0.276949942111969
6.425965785980225 -10.06196117401123 0.2905227541923523
6.5069756507873535 -10.048979759216309 0.2934266924858093
6.601254463195801 -10.055452346801758 0.29638051986694336
6.6228556632995605 -10.042865753173828 0.297149121761322
6.6514153480529785 -10.039443016052246 0.29811322689056396
6.683510780334473 -10.042562484741211 0.2993531823158264
6.740094184875488 -10.035691261291504 0.30082130432128906
6.779506683349609 -10.04925537109375 0.3023889660835266
6.805312156677246 -10.042492866516113 0.30334991216659546
6.823352336883545 -10.022941589355469 0.303849995136261
6.854726791381836 -10.024247169494629 0.3050609230995178
6.894406318664551 -10.037504196166992 0.3059898614883423
6.910784721374512 -10.015436172485352 0.30651041865348816
6.956337928771973 -10.036833763122559 0.30835142731666565
6.979058265686035 -10.023970603942871 0.30915871262550354
7.039187431335449 -10.021219253540039 0.3113774359226227
7.075254440307617 -10.026957511901855 0.3121170699596405
7.090425968170166 -10.004322052001953 0.3125273287296295
7.136402606964111 -10.025030136108398 0.31438714265823364
7.1584882736206055 -10.010721206665039 0.31516915559768677
7.192830562591553 -10.014759063720703 0.316518634557724
7.225235462188721 -10.014810562133789 0.3177590072154999
7.255427837371826 -10.012646675109863 0.3181699812412262
7.282137870788574 -10.005741119384766 0.31918591260910034
7.316929817199707 -10.008694648742676 0.3205331861972809
7.3445539474487305 -10.002687454223633 0.3215879201889038
7.372884273529053 -9.997715950012207 0.3220125436782837
7.434928894042969 -9.9934663772583 0.3243093490600586
7.46852970123291 -9.995250701904297 0.3256312608718872
7.52632474899292 -9.984626770019531 0.3271731734275818
7.623884201049805 -9.982865333557129 0.3308866620063782
7.71918249130249 -9.976991653442383 0.33518657088279724
7.812878608703613 -9.967981338500977 0.3380747437477112
7.911271572113037 -9.96370792388916 0.3412613272666931
8.01036262512207 -9.958200454711914 0.34505146741867065
8.108543395996094 -9.951504707336426 0.348146915435791
8.20130729675293 -9.93712329864502 0.3511112332344055
8.279162406921387 -9.945836067199707 0.3541317880153656
8.300673484802246 -9.929698944091797 0.3549603521823883
8.370321273803711 -9.92774772644043 0.35694047808647156
8.40769100189209 -9.930182456970215 0.3584496080875397
8.435029029846191 -9.920499801635742 0.3588307797908783
8.479532241821289 -9.92992877960205 0.36062172055244446
8.506620407104492 -9.919890403747559 0.3636989891529083
8.541311264038086 -9.91846752166748 0.3643961250782013
8.565314292907715 -9.90362548828125 0.3652215898036957
8.60624885559082 -9.909319877624512 0.36689120531082153
8.6358003616333 -9.901616096496582 0.36807361245155334
8.678764343261719 -9.908217430114746 0.3691036105155945
8.708869934082031 -9.901058197021484 0.3702159821987152
8.756875991821289 -9.91285514831543 0.372163861989975
8.778617858886719 -9.896001815795898 0.3730221390724182
8.822272300720215 -9.90358829498291 0.3740992248058319
8.852212905883789 -9.894707679748535 0.37518635392189026
8.89535903930664 -9.901510238647461 0.3769565224647522
8.916889190673828 -9.883988380432129 0.37780874967575073
8.959367752075195 -9.88866901397705 0.37881574034690857
8.995312690734863 -9.887030601501465 0.38018369674682617
9.039327621459961 -9.89393424987793 0.38199084997177124
9.062103271484375 -9.876559257507324 0.3821642994880676
9.105238914489746 -9.882325172424316 0.3838379979133606
9.139981269836426 -9.877606391906738 0.38523438572883606
9.16511058807373 -9.863622665405273 0.38625210523605347
9.205534934997559 -9.865842819213867 0.38719016313552856
9.237296104431152 -9.857728958129883 0.3883664906024933
9.27957534790039 -9.861750602722168 0.39011019468307495
9.351533889770508 -9.85473346710205 0.3944018483161926
9.395354270935059 -9.85970401763916 0.39548489451408386
9.456459999084473 -9.840662002563477 0.39787667989730835
9.500039100646973 -9.844889640808105 0.39894944429397583
9.617441177368164 -9.841972351074219 0.4036921262741089
9.699039459228516 -9.842209815979004 0.40632164478302
9.728249549865723 -9.830961227416992 0.4074309468269348
9.809920310974121 -9.830342292785645 0.4100663959980011
9.927841186523438 -9.82420539855957 0.41411247849464417
10.04002857208252 -9.811068534851074 0.41792598366737366
10.128802299499512 -9.814767837524414 0.42151525616645813
10.151521682739258 -9.796018600463867 0.4217184782028198
10.242460250854492 -9.800806999206543 0.42540404200553894
10.27081298828125 -9.786138534545898 0.4273429214954376
10.32463264465332 -9.796475410461426 0.42960184812545776
10.354318618774414 -9.783890724182129 0.4300975799560547
10.406716346740723 -9.79155158996582 0.43217402696609497
10.4291410446167 -9.771781921386719 0.43313106894493103
10.48281192779541 -9.780248641967773 0.4346024692058563
10.51357650756836 -9.768220901489258 0.43580520153045654
10.565467834472656 -9.7755126953125 0.43799152970314026
10.60235595703125 -9.76783561706543 0.4387655258178711
10.641019821166992 -9.76270866394043 0.4402996301651001
10.685150146484375 -9.762288093566895 0.4421687722206116
10.732942581176758 -9.764115333557129 0.4433934986591339
10.770052909851074 -9.756958961486816 0.4448651969432831
10.815330505371094 -9.757189750671387 0.44678807258605957
10.84681224822998 -9.743788719177246 0.4472302496433258
10.898039817810059 -9.748870849609375 0.44939830899238586
10.924072265625 -9.730374336242676 0.45050904154777527
10.97403335571289 -9.734108924865723 0.4517364799976349
11.01239013671875 -9.727229118347168 0.4533781409263611
11.066652297973633 -9.733298301696777 0.45565885305404663
11.098052978515625 -9.719996452331543 0.4561164379119873
11.150745391845703 -9.725329399108887 0.45835623145103455
11.182072639465332 -9.71081829071045 0.45890337228775024
11.227930068969727 -9.709696769714355 0.46075010299682617
11.273386001586914 -9.708189964294434 0.4626970589160919
11.322774887084961 -9.708672523498535 0.4647827446460724
11.35890007019043 -9.69881820678711 0.4655502140522003
11.437105178833008 -9.682611465454102 0.467995285987854
11.490684509277344 -9.687105178833008 0.47028249502182007
11.585558891296387 -9.683915138244629 0.4734143912792206
11.725448608398438 -9.676281929016113 0.47849375009536743
11.80673599243164 -9.660065650939941 0.4810779392719269
11.864391326904297 -9.666204452514648 0.48354458808898926
11.952288627624512 -9.6543550491333 0.4864036440849304
11.998922348022461 -9.650945663452148 0.488426148891449
12.087806701660156 -9.638879776000977 0.4913314878940582
12.180593490600586 -9.629233360290527 0.49439913034439087
12.243439674377441 -9.63769817352295 0.4970897138118744
12.283117294311523 -9.626651763916016 0.497867226600647
12.331703186035156 -9.623339653015137 0.49997881054878235
12.378698348999023 -9.61874771118164 0.5002334713935852
12.426475524902344 -9.613369941711426 0.5024105906486511
12.482593536376953 -9.615442276000977 0.5039896965026855
12.539413452148438 -9.616747856140137 0.5063032507896423
12.569791793823242 -9.598536491394043 0.5068398714065552
12.625946044921875 -9.60000228881836 0.5092688798904419
12.681329727172852 -9.599578857421875 0.5106775164604187
12.720906257629395 -9.587929725646973 0.5124391913414001
12.763062477111816 -9.578235626220703 0.5141907930374146
12.826469421386719 -9.583206176757812 0.5160422921180725
12.873373985290527 -9.576537132263184 0.5179860591888428
12.923577308654785 -9.571215629577637 0.519305408000946
12.97898006439209 -9.570455551147461 0.521714985370636
13.034680366516113 -9.569832801818848 0.5231545567512512
13.067636489868164 -9.55128288269043 0.5246489644050598
13.134481430053711 -9.55823802947998 0.5265323519706726
13.191287994384766 -9.557767868041992 0.529008686542511
13.246230125427246 -9.554640769958496 0.5312708616256714
13.284208297729492 -9.54003620147705 0.5321184992790222
13.34280014038086 -9.539129257202148 0.5345301628112793
13.38495922088623 -9.527207374572754 0.5355459451675415
13.448868751525879 -9.530709266662598 0.5383177995681763
13.491158485412598 -9.517601013183594 0.5391981601715088
13.546842575073242 -9.514691352844238 0.5416420102119446
13.604125022888184 -9.51282787322998 0.5413620471954346
13.655783653259277 -9.505578994750977 0.5428579449653625
13.717695236206055 -9.506475448608398 0.5455528497695923
13.82374095916748 -9.494038581848145 0.5491998791694641
13.882489204406738 -9.492050170898438 0.550750195980072
14.008070945739746 -9.491589546203613 0.5551750659942627
14.123598098754883 -9.483325004577637 0.5592055916786194
14.165007591247559 -9.468541145324707 0.5611075758934021
14.271193504333496 -9.452808380126953 0.5647776126861572
14.347330093383789 -9.460461616516113 0.5670123100280762
14.465436935424805 -9.451173782348633 0.5711578130722046
14.504755020141602 -9.433971405029297 0.572993278503418
14.558039665222168 -9.424433708190918 0.5743020176887512
14.633015632629395 -9.429935455322266 0.577549397945404
14.697714805603027 -9.427409172058105 0.5793097615242004
14.739147186279297 -9.410717010498047 0.5812377333641052
14.867735862731934 -9.404912948608398 0.5858163833618164
14.926624298095703 -9.398852348327637 0.587367057800293
14.993857383728027 -9.397790908813477 0.5874789357185364
15.062356948852539 -9.395967483520508 0.5896403193473816
15.11995792388916 -9.3883695602417 0.5922181606292725
15.178862571716309 -9.380232810974121 0.593742311000824
15.234710693359375 -9.370957374572754 0.5962556600570679
15.306385040283203 -9.371317863464355 0.5982977151870728
15.418411254882812 -9.350861549377441 0.6022353768348694
15.475507736206055 -9.340486526489258 0.6046556234359741
15.572057723999023 -9.354569435119629 0.6078006029129028
15.618857383728027 -9.338630676269531 0.6098456382751465
15.68350601196289 -9.332018852233887 0.6117304563522339
15.740966796875 -9.321874618530273 0.6132122874259949
15.815324783325195 -9.321635246276855 0.6164764165878296
15.870805740356445 -9.308711051940918 0.6178622841835022
15.945395469665527 -9.308040618896484 0.621141791343689
16.018678665161133 -9.305156707763672 0.6232215762138367
16.08771514892578 -9.300500869750977 0.6262878179550171
16.14391326904297 -9.288346290588379 0.6277253031730652
16.216630935668945 -9.28412914276123 0.6309211254119873
16.274551391601562 -9.272500991821289 0.6324246525764465
16.347837448120117 -9.269371032714844 0.63466477394104
16.413888931274414 -9.260541915893555 0.6374696493148804
16.493865966796875 -9.26059341430664 0.6398274302482605
16.6173038482666 -9.238073348999023 0.6425104737281799
16.692508697509766 -9.234586715698242 0.6456959247589111
16.764245986938477 -9.227555274963379 0.6478508710861206
16.815587997436523 -9.210399627685547 0.6490961909294128
16.967472076416016 -9.200908660888672 0.6546368598937988
17.04315948486328 -9.196235656738281 0.6578568816184998
17.256162643432617 -9.1715726852417 0.6651811599731445
17.32598876953125 -9.161270141601562 0.6671183705329895
17.41714859008789 -9.163272857666016 0.6709475517272949
17.484703063964844 -9.152538299560547 0.6729645729064941
17.5517635345459 -9.13992691040039 0.6747918725013733
17.63441276550293 -9.136497497558594 0.6784534454345703
17.70771598815918 -9.126544952392578 0.6805226802825928
17.79943084716797 -9.127118110656738 0.6845399141311646
17.86845588684082 -9.115731239318848 0.6864635944366455
17.937395095825195 -9.102662086486816 0.689443826675415
18.020652770996094 -9.097933769226074 0.69206702709198
18.109535217285156 -9.095698356628418 0.6947520971298218
18.18126678466797 -9.083139419555664 0.6980012655258179
18.246898651123047 -9.068662643432617 0.6997997164726257
18.33605194091797 -9.064178466796875 0.7026268839836121
18.418699264526367 -9.05751895904541 0.7050722241401672
18.491226196289062 -9.045581817626953 0.7071277499198914
18.581724166870117 -9.0407075881958 0.7111109495162964
18.65384292602539 -9.027970314025879 0.7131524085998535
18.740251541137695 -9.02060317993164 0.7169899940490723
18.80828857421875 -9.00515365600586 0.7188742160797119
18.896120071411133 -8.999052047729492 0.7215176224708557
18.99407196044922 -8.995972633361816 0.7258053421974182
19.07135009765625 -8.984166145324707 0.7280446290969849
19.158044815063477 -8.97647476196289 0.7306420803070068
19.25395965576172 -8.971303939819336 0.7348634004592896
19.321868896484375 -8.954191207885742 0.7367458939552307
19.41486930847168 -8.946958541870117 0.7397218942642212
19.497295379638672 -8.935935974121094 0.743304431438446
19.592899322509766 -8.930599212646484 0.7462396621704102
19.671354293823242 -8.915657043457031 0.749819815158844
19.770017623901367 -8.910965919494629 0.7528747320175171
19.846538543701172 -8.895949363708496 0.7550857663154602
19.94007682800293 -8.886770248413086 0.7592537999153137
20.02365493774414 -8.874259948730469 0.7617327570915222
20.123794555664062 -8.867255210876465 0.7648205757141113
20.208791732788086 -8.854673385620117 0.7686980962753296
20.3004150390625 -8.844650268554688 0.7714831829071045
20.39249038696289 -8.832983016967773 0.7744311690330505
20.485244750976562 -8.82271671295166 0.7784541249275208
20.663631439208984 -8.7965669631958 0.7851896286010742
20.752887725830078 -8.783738136291504 0.7878875136375427
20.870410919189453 -8.780956268310547 0.7916334271430969
20.967615127563477 -8.770683288574219 0.7960180640220642
21.153589248657227 -8.74398422241211 0.8016730546951294
21.25563621520996 -8.734564781188965 0.8050248622894287
21.440519332885742 -8.705178260803223 0.8118724226951599
21.546592712402344 -8.69620418548584 0.8153783082962036
21.662628173828125 -8.689268112182617 0.8203153610229492
21.752912521362305 -8.67312240600586 0.823050856590271
21.874805450439453 -8.669154167175293 0.8271563053131104
21.958208084106445 -8.647978782653809 0.8308767676353455
22.062000274658203 -8.636013984680176 0.8341237902641296
22.161949157714844 -8.621953010559082 0.8374005556106567
22.286375045776367 -8.615782737731934 0.8426873087882996
22.389101028442383 -8.602131843566895 0.8458948135375977
22.48441505432129 -8.583677291870117 0.8488022685050964
22.587682723999023 -8.569437026977539 0.8522075414657593
22.71080780029297 -8.562085151672363 0.8587807416915894
22.820236206054688 -8.547900199890137 0.8622275590896606
22.931716918945312 -8.535435676574707 0.8657702207565308
23.040964126586914 -8.520103454589844 0.870522141456604
23.147022247314453 -8.504761695861816 0.87386155128479
23.249616622924805 -8.487540245056152 0.8772498965263367
23.361953735351562 -8.472234725952148 0.880808413028717
23.485883712768555 -8.462072372436523 0.8861547708511353
23.60015869140625 -8.447754859924316 0.8899874091148376
23.724580764770508 -8.4353609085083 0.8939984440803528
23.849151611328125 -8.423944473266602 0.8980330228805542
23.970584869384766 -8.409285545349121 0.9032888412475586
24.08807373046875 -8.394403457641602 0.9072489738464355
24.192834854125977 -8.3744478225708 0.9105367064476013
24.31882095336914 -8.360128402709961 0.9159860610961914
24.447649002075195 -8.34772777557373 0.9201828241348267
24.5618896484375 -8.329657554626465 0.9240233302116394
24.67928695678711 -8.310934066772461 0.9277710318565369
24.795194625854492 -8.292716979980469 0.9328809380531311
24.92383575439453 -8.276583671569824 0.9372504353523254
25.06364631652832 -8.265304565429688 0.9418599605560303
25.317771911621094 -8.231051445007324 0.9515266418457031
25.43389892578125 -8.210485458374023 0.9554477334022522
25.57367706298828 -8.19532585144043 0.9629203081130981
25.710716247558594 -8.18044662475586 0.9672373533248901
25.965024948120117 -8.141100883483887 0.9757086038589478
26.102130889892578 -8.124635696411133 0.9816908240318298
26.379701614379883 -8.08933162689209 0.9910470247268677
26.490070343017578 -8.062857627868652 0.9945626854896545
26.628379821777344 -8.043058395385742 1.000601887702942
26.775842666625977 -8.027003288269043 1.0055137872695923
26.93333625793457 -8.013120651245117 1.010798692703247
27.05141258239746 -7.985606670379639 1.0148024559020996
27.193435668945312 -7.966220855712891 1.019507646560669
27.331098556518555 -7.944778919219971 1.0255727767944336
27.480106353759766 -7.924691677093506 1.0305280685424805
27.628393173217773 -7.905165195465088 1.0356836318969727
27.77009391784668 -7.881793022155762 1.0403655767440796
27.918228149414062 -7.861270904541016 1.0468567609786987
28.078548431396484 -7.84333610534668 1.052253007888794
28.211027145385742 -7.815639972686768 1.0565928220748901
28.378442764282227 -7.798418998718262 1.0624721050262451
28.530807495117188 -7.775005340576172 1.0675543546676636
28.689783096313477 -7.754405498504639 1.0744918584823608
28.838340759277344 -7.730146408081055 1.0794503688812256
29.000877380371094 -7.70758056640625 1.091355800628662
29.142534255981445 -7.680516242980957 1.096085786819458
29.295534133911133 -7.6556243896484375 1.101238489151001
29.47403907775879 -7.635281562805176 1.107334017753601
29.64911651611328 -7.614777565002441 1.1135427951812744
29.787675857543945 -7.582806587219238 1.1181385517120361
