VERSION .7
FIELDS x y z
SIZE 4 4 4
TYPE F F F
COUNT 1 1 1
WIDTH 856
HEIGHT 1
VIEWPOINT 0 0 0 1 0 0 0
POINTS 856
DATA ascii
18.090435028076172 7.138981819152832 0.05548030883073807
17.92928695678711 7.162801265716553 0.05507706105709076
17.822925567626953 7.163233757019043 0.05479776859283447
17.644390106201172 7.177937030792236 0.05434216558933258
17.552446365356445 7.183021545410156 0.05410357937216759
17.29218864440918 7.203760147094727 0.05296154320240021
15.819572448730469 7.303243637084961 0.04926673322916031
15.566116333007812 7.305295467376709 0.04862106963992119
15.429439544677734 7.320600986480713 0.04912494495511055
15.371576309204102 7.332266330718994 0.048354458063840866
15.210424423217773 7.334188461303711 0.04794537276029587
15.137439727783203 7.3377509117126465 0.04776480793952942
14.993130683898926 7.345938205718994 0.0474051907658577
14.92108154296875 7.349074363708496 0.04722548648715019
14.804974555969238 7.3695244789123535 0.04695405066013336
14.722991943359375 7.366878509521484 0.04674314707517624
14.651019096374512 7.370041370391846 0.04656520485877991
14.593206405639648 7.378946304321289 0.04642821103334427
14.524177551269531 7.381929397583008 0.046261195093393326
14.442957878112793 7.379515171051025 0.04605153948068619
14.392202377319336 7.391285419464111 0.04593716561794281
14.314546585083008 7.389199733734131 0.04574096202850342
14.261119842529297 7.400032043457031 0.04562168940901756
14.17319393157959 7.391778469085693 0.04557564854621887
14.111257553100586 7.396979331970215 0.04542726278305054
14.045759201049805 7.400725841522217 0.04527008533477783
13.929919242858887 7.414808750152588 0.04577214643359184
13.866458892822266 7.417998313903809 0.04561381787061691
13.751564025878906 7.431190490722656 0.04419678822159767
13.677538871765137 7.427901268005371 0.04477563872933388
13.55216121673584 7.433888912200928 0.04446880891919136
13.4968900680542 7.440047740936279 0.04433659836649895
13.37716293334961 7.447677135467529 0.04404750466346741
13.314847946166992 7.449221134185791 0.043890032917261124
13.196122169494629 7.455940246582031 0.043606169521808624
13.031696319580078 7.471504211425781 0.043215423822402954
12.362503051757812 7.508059501647949 0.041979074478149414
12.194950103759766 7.511646270751953 0.04157064110040665
12.034250259399414 7.517426013946533 0.04118230938911438
11.942758560180664 7.530381202697754 0.04167376458644867
11.870851516723633 7.519515514373779 0.04147692024707794
11.846275329589844 7.538439750671387 0.041444819420576096
11.793994903564453 7.540616989135742 0.041318826377391815
11.74450969696045 7.543358325958252 0.04119827598333359
11.689593315124512 7.5423970222473145 0.04106071591377258
11.642723083496094 7.547430038452148 0.04095358029007912
11.593894958496094 7.54999303817749 0.04083580523729324
11.543121337890625 7.551088333129883 0.04071348160505295
11.483534812927246 7.547187328338623 0.04056037589907646
11.42409896850586 7.54211950302124 0.04040905088186264
11.378186225891113 7.546756744384766 0.04046232998371124
11.339472770690918 7.55501127243042 0.0403832346200943
11.301481246948242 7.563608646392822 0.04030076786875725
11.255050659179688 7.567397117614746 0.04019211232662201
11.192201614379883 7.55891227722168 0.040689241141080856
11.153565406799316 7.5665693283081055 0.04062832146883011
11.098447799682617 7.563848495483398 0.04048651456832886
11.069028854370117 7.577486038208008 0.04043646901845932
11.019974708557129 7.577538967132568 0.040314555168151855
10.959282875061035 7.570337295532227 0.04015161842107773
10.918060302734375 7.57537841796875 0.04005846753716469
10.896329879760742 7.59483528137207 0.04003813862800598
10.832295417785645 7.583651542663574 0.040017589926719666
10.786389350891113 7.584916114807129 0.03990594297647476
10.747407913208008 7.591867923736572 0.03982143476605415
10.713706970214844 7.601438522338867 0.03975535184144974
10.667496681213379 7.602771759033203 0.039642661809921265
10.570700645446777 7.600329399108887 0.03940016031265259
10.44151496887207 7.607474327087402 0.03973199427127838
10.305347442626953 7.6078996658325195 0.03939548134803772
10.179869651794434 7.615384578704834 0.03925006091594696
10.04605770111084 7.614248752593994 0.03970857709646225
9.821138381958008 7.640263080596924 0.03919682651758194
9.696189880371094 7.641389846801758 0.03903551027178764
9.615384101867676 7.643385410308838 0.03944294899702072
9.573243141174316 7.642545700073242 0.03933577239513397
9.496516227722168 7.646997451782227 0.03915197402238846
9.46268081665039 7.652175426483154 0.039078500121831894
9.416388511657715 7.647881984710693 0.03895408660173416
9.390449523925781 7.659397602081299 0.038912802934646606
9.349369049072266 7.6582536697387695 0.03880828246474266
9.30163860321045 7.652232646942139 0.038677334785461426
9.265485763549805 7.654972076416016 0.0387360043823719
9.233121871948242 7.660529136657715 0.038667093962430954
9.189799308776855 7.6577887535095215 0.03973090276122093
9.158777236938477 7.664196968078613 0.03938048705458641
9.121395111083984 7.66515588760376 0.03928807005286217
9.091130256652832 7.672916412353516 0.03981480374932289
9.051311492919922 7.671529293060303 0.03971009701490402
9.025558471679688 7.682708740234375 0.039809372276067734
8.98318862915039 7.679034233093262 0.039693109691143036
8.940397262573242 7.67462158203125 0.039574094116687775
8.90322208404541 7.675621509552002 0.03948109596967697
8.875256538391113 7.683861255645752 0.03942875936627388
8.826103210449219 7.673407554626465 0.03928060829639435
8.794551849365234 7.6790266036987305 0.03921272233128548
8.752647399902344 7.674506664276123 0.0390976257622242
8.736083030700684 7.692107677459717 0.039094217121601105
8.682900428771973 7.678272247314453 0.039499372243881226
8.657691955566406 7.688055038452148 0.03959360346198082
8.624000549316406 7.690964698791504 0.03951495140790939
8.595254898071289 7.697595596313477 0.03945646062493324
8.549809455871582 7.68892765045166 0.03932151570916176
8.522292137145996 7.696992874145508 0.0392700657248497
8.478643417358398 7.689759254455566 0.0391426682472229
8.45652961730957 7.701747894287109 0.03911428153514862
8.399297714233398 7.682331085205078 0.0389244519174099
8.397135734558105 7.712602138519287 0.038989096879959106
8.354342460632324 7.706080913543701 0.04011862352490425
8.278106689453125 7.699779033660889 0.0399068221449852
8.249818801879883 7.70621919631958 0.03984776511788368
8.14416790008545 7.703971862792969 0.039571426808834076
7.989800930023193 7.718481063842773 0.03988948091864586
7.887168884277344 7.715778350830078 0.03961874172091484
7.801751136779785 7.728796005249023 0.03956461697816849
7.704376220703125 7.728902816772461 0.03985226899385452
7.648525714874268 7.737775802612305 0.039732564240694046
7.610538482666016 7.731554985046387 0.03961651399731636
7.579316139221191 7.731863498687744 0.04007161036133766
7.537315368652344 7.721763610839844 0.04019036516547203
7.515393257141113 7.7315216064453125 0.040161408483982086
7.495591640472412 7.743997097015381 0.040144115686416626
7.460189342498779 7.739496231079102 0.04004046320915222
7.4374518394470215 7.7482075691223145 0.04013199359178543
7.401937484741211 7.744071960449219 0.040028899908065796
7.375720977783203 7.748773097991943 0.03997458517551422
7.335378646850586 7.738668441772461 0.03984282165765762
7.317330360412598 7.752546310424805 0.040359094738960266
7.2812981605529785 7.746697425842285 0.04025004059076309
7.2483344078063965 7.743765830993652 0.040155455470085144
7.217911720275879 7.744173049926758 0.040076468139886856
7.188475608825684 7.744936466217041 0.04012850299477577
7.169308185577393 7.757269859313965 0.04011480510234833
7.1392502784729 7.756978988647461 0.0400356724858284
7.101774215698242 7.748654365539551 0.0399162732064724
7.0825605392456055 7.760724067687988 0.03990131616592407
7.049428462982178 7.756872177124023 0.04032084345817566
7.025979042053223 7.763377666473389 0.0402788370847702
6.993230819702148 7.760263442993164 0.04018494486808777
6.970388412475586 7.767452716827393 0.040271297097206116
6.933441162109375 7.75861120223999 0.04015039652585983
6.9079718589782715 7.763238906860352 0.040098097175359726
6.880799293518066 7.765277862548828 0.04003530740737915
6.850119590759277 7.763818740844727 0.040321625769138336
6.8226237297058105 7.765077114105225 0.04025457799434662
6.802113056182861 7.774397373199463 0.04022928699851036
6.765316486358643 7.765568256378174 0.040614958852529526
6.73638391494751 7.764832496643066 0.04053816199302673
6.706099033355713 7.762595176696777 0.04045316204428673
6.680228233337402 7.765937328338623 0.04039650410413742
6.627699375152588 7.7708282470703125 0.04039794206619263
6.606403350830078 7.778494834899902 0.04036642238497734
6.541688919067383 7.768368721008301 0.04066930711269379
6.514854431152344 7.769167423248291 0.04060234874486923
6.473270416259766 7.785943031311035 0.040547698736190796
6.438920021057129 7.777401924133301 0.04055385664105415
6.394799709320068 7.790671348571777 0.04048224538564682
6.339527606964111 7.79000186920166 0.04083310440182686
6.306641101837158 7.782524108886719 0.04072509706020355
6.247393608093262 7.7761335372924805 0.04067222774028778
6.23002290725708 7.7875566482543945 0.04066426306962967
6.180774211883545 7.793050289154053 0.040911950170993805
6.155821323394775 7.7947587966918945 0.04085395485162735
6.103973388671875 7.796388626098633 0.0407271608710289
6.075690269470215 7.793720245361328 0.04076434671878815
6.060386657714844 7.808241844177246 0.041258759796619415
6.034340858459473 7.808082103729248 0.041190892457962036
5.998737335205078 7.795586585998535 0.04105962812900543
5.9750566482543945 7.799036026000977 0.04101066291332245
5.960500240325928 7.81356954574585 0.041021570563316345
5.924870014190674 7.801366806030273 0.04089145362377167
5.902894973754883 7.806010723114014 0.04096757620573044
5.87919807434082 7.808302879333496 0.04139608144760132
5.851590156555176 7.806282997131348 0.041318923234939575
5.82742166519165 7.807749271392822 0.0412624292075634
5.810390472412109 7.8189215660095215 0.04125724732875824
5.772527694702148 7.802538871765137 0.041106369346380234
5.755383491516113 7.813225746154785 0.04109950736165047
5.728305816650391 7.810551166534424 0.041137903928756714
5.713740348815918 7.825495719909668 0.04162788391113281
5.682425498962402 7.816615581512451 0.04151853919029236
5.661405563354492 7.821972846984863 0.04148385673761368
5.635595321655273 7.821240425109863 0.040942832827568054
5.606358051300049 7.81480598449707 0.04119173809885979
5.587703704833984 7.824038028717041 0.04117625951766968
5.559342861175537 7.818581581115723 0.041559696197509766
5.535634994506836 7.819547653198242 0.04150218516588211
5.508337020874023 7.816341400146484 0.041424088180065155
5.49445915222168 7.831110954284668 0.04144051671028137
5.466421604156494 7.825837135314941 0.04146537557244301
5.4299445152282715 7.808900833129883 0.04131581261754036
5.413017749786377 7.819127082824707 0.04131002351641655
5.3836669921875 7.8115153312683105 0.041677799075841904
5.370412826538086 7.827821254730225 0.04170290008187294
5.336421489715576 7.812982559204102 0.04156475514173508
5.327714920043945 7.836124420166016 0.04162706434726715
5.299747943878174 7.829887866973877 0.041648104786872864
5.276756286621094 7.831079483032227 0.041595209389925
5.255666732788086 7.835649013519287 0.04202461615204811
5.236539840698242 7.842263221740723 0.042001232504844666
5.204191207885742 7.829985618591309 0.04187622293829918
5.190754413604736 7.845033645629883 0.04189780727028847
5.162712574005127 7.837949752807617 0.04180298000574112
5.144752025604248 7.847122669219971 0.0419047586619854
5.11151647567749 7.831827163696289 0.04222644120454788
5.100043296813965 7.849789619445801 0.04226541519165039
5.066264629364014 7.834381103515625 0.041666414588689804
5.045422077178955 7.837772846221924 0.04185057431459427
5.020888805389404 7.83534049987793 0.04178234934806824
5.011000633239746 7.856805801391602 0.0422961451113224
4.971505165100098 7.8306756019592285 0.042101480066776276
4.958509922027588 7.847204208374023 0.042132772505283356
4.935275554656982 7.846445083618164 0.04207257181406021
4.916220188140869 7.85225772857666 0.04215972125530243
4.885458946228027 7.8403143882751465 0.042040761560201645
4.867839336395264 7.848276615142822 0.04248189553618431
4.84541130065918 7.848430633544922 0.04242822155356407
4.828348159790039 7.858298301696777 0.04242493212223053
4.802191734313965 7.852212905883789 0.04233932867646217
4.7764739990234375 7.8466997146606445 0.04236511513590813
4.7539567947387695 7.847404479980469 0.042766693979501724
4.74165678024292 7.863877296447754 0.0428013913333416
4.71680212020874 7.860581874847412 0.042727746069431305
4.694150447845459 7.859756946563721 0.04266999661922455
4.678219795227051 7.870136260986328 0.04267297312617302
4.653661727905273 7.867035865783691 0.0426022969186306
4.624383926391602 7.85469388961792 0.04304102435708046
4.607019901275635 7.86247444152832 0.04302995651960373
4.58632230758667 7.865624904632568 0.04299366846680641
4.565952777862549 7.868168830871582 0.042956363409757614
4.548450946807861 7.876721382141113 0.04294894263148308
4.519925117492676 7.864967346191406 0.042942747473716736
4.498537063598633 7.865488052368164 0.04289301484823227
4.48281192779541 7.876990795135498 0.04290447756648064
4.4498610496521 7.856975078582764 0.04274466261267662
4.439485549926758 7.876729965209961 0.043246492743492126
4.4151997566223145 7.872912883758545 0.043280892074108124
4.383749961853027 7.854996204376221 0.04313303530216217
4.376307487487793 7.880044460296631 0.04321946203708649
4.355228424072266 7.881710052490234 0.043177857995033264
4.324429035186768 7.864480972290039 0.043475694954395294
4.3018083572387695 7.862858295440674 0.04341699182987213
4.283919811248779 7.869121074676514 0.0435076579451561
4.262504577636719 7.86862325668335 0.04345621168613434
22.436864852905273 -2.4480929374694824 0.07569978386163712
22.052059173583984 -0.2686934471130371 0.06948482245206833
21.9727840423584 -0.12958040833473206 0.06904441118240356
16.9670467376709 8.050315856933594 0.2831423878669739
16.704002380371094 8.054549217224121 0.278542160987854
16.450000762939453 8.059922218322754 0.2741437554359436
23.492431640625 4.652637481689453 0.25798892974853516
23.42688751220703 4.792901992797852 0.2564134895801544
23.345104217529297 4.9292731285095215 0.2558497190475464
23.294431686401367 5.021142959594727 0.2543185353279114
23.271944046020508 5.066854953765869 0.2542131543159485
23.218883514404297 5.157818794250488 0.2557344436645508
23.20081329345703 5.204349994659424 0.25564244389533997
22.176061630249023 6.818611145019531 0.24152728915214539
22.092269897460938 6.945159912109375 0.24107977747917175
22.04562759399414 7.032651901245117 0.2394907921552658
22.002464294433594 7.069222450256348 0.23917275667190552
21.941913604736328 7.151853561401367 0.23883099853992462
21.922517776489258 7.195891857147217 0.238786518573761
21.852115631103516 7.274868488311768 0.2382531613111496
21.837005615234375 7.320211410522461 0.2382522076368332
21.782459259033203 7.353450298309326 0.23782891035079956
21.753755569458008 7.394359111785889 0.23767900466918945
21.65345573425293 7.410430431365967 0.2355867475271225
21.388975143432617 7.420697212219238 0.2329506278038025
21.289113998413086 7.435585021972656 0.2320023775100708
21.075851440429688 7.460837364196777 0.22886037826538086
20.954967498779297 7.467016220092773 0.2276955097913742
20.698163986206055 7.473894119262695 0.22415482997894287
20.568557739257812 7.476530075073242 0.22266250848770142
20.341625213623047 7.490036487579346 0.22054442763328552
17.684885025024414 7.587472915649414 0.19028480350971222
17.412471771240234 7.600564956665039 0.18670915067195892
17.153762817382812 7.616379261016846 0.18443582952022552
16.877700805664062 7.621185302734375 0.18084579706192017
16.722545623779297 7.636070251464844 0.17953290045261383
16.616323471069336 7.629514694213867 0.17765498161315918
16.546104431152344 7.638888359069824 0.17707706987857819
16.460582733154297 7.641871452331543 0.176115944981575
16.369726181030273 7.641255855560303 0.1753169298171997
16.29242706298828 7.647370338439941 0.1746603548526764
16.208824157714844 7.649217128753662 0.17392678558826447
16.13226318359375 7.654291152954102 0.1732768565416336
16.056690216064453 7.660268306732178 0.17264677584171295
15.956429481506348 7.653126239776611 0.170858234167099
15.890989303588867 7.662572860717773 0.1703355312347412
15.802955627441406 7.661545753479004 0.1695549339056015
15.745573997497559 7.674121379852295 0.1691189557313919
15.664270401000977 7.674993515014648 0.16755349934101105
15.576074600219727 7.672858238220215 0.16678282618522644
15.430458068847656 7.6820478439331055 0.16556574404239655
15.346905708312988 7.680233955383301 0.16398899257183075
15.197367668151855 7.685600280761719 0.1625431478023529
15.120474815368652 7.686158657073975 0.16108651459217072
14.978960037231445 7.693776607513428 0.15909361839294434
14.903779983520508 7.694291114807129 0.15827038884162903
14.75422191619873 7.695948600769043 0.1561935842037201
14.700191497802734 7.706613063812256 0.1558004468679428
22.720056533813477 7.722756862640381 0.3460712432861328
22.33217430114746 7.747871398925781 0.33889806270599365
21.944202423095703 7.76817512512207 0.3320268392562866
17.79007339477539 7.899122714996338 0.2629583477973938
17.498964309692383 7.9019341468811035 0.25814732909202576
17.324417114257812 7.9111199378967285 0.25603073835372925
17.235849380493164 7.913944721221924 0.2540164291858673
17.13756561279297 7.911918640136719 0.2528022229671478
17.052736282348633 7.916993141174316 0.25155630707740784
16.963430404663086 7.918362617492676 0.25048455595970154
16.788528442382812 7.923001289367676 0.24744555354118347
16.691152572631836 7.919439315795898 0.2462437003850937
16.526653289794922 7.9268293380737305 0.24338825047016144
16.440631866455078 7.927579879760742 0.2421228587627411
16.201902389526367 7.938386917114258 0.2383933812379837
15.951926231384277 7.9406514167785645 0.23455767333507538
15.69702434539795 7.938272476196289 0.22920209169387817
13.74815559387207 7.9604997634887695 0.1988191455602646
13.677498817443848 7.957737922668457 0.19725078344345093
13.554184913635254 7.962381839752197 0.1959093064069748
13.475398063659668 7.953962326049805 0.19420966506004333
13.41787338256836 7.958504676818848 0.1936398297548294
13.347858428955078 7.954466819763184 0.19280573725700378
13.301796913146973 7.964673042297363 0.1914886236190796
13.223922729492188 7.95626974105835 0.19056788086891174
13.165386199951172 7.958307266235352 0.18919381499290466
13.095782279968262 7.953587532043457 0.1884314864873886
13.050613403320312 7.964165210723877 0.18801547586917877
12.989554405212402 7.964146137237549 0.18664057552814484
12.934300422668457 7.968135833740234 0.18606263399124146
12.87271499633789 7.967095375061035 0.18541067838668823
12.799509048461914 7.958770751953125 0.18360581994056702
12.74967098236084 7.965398788452148 0.18315082788467407
12.697550773620605 7.96951961517334 0.18262174725532532
12.635674476623535 7.967480182647705 0.18122951686382294
12.576093673706055 7.967311859130859 0.18061500787734985
12.508163452148438 7.960697650909424 0.17952218651771545
12.454687118530273 7.9632248878479 0.17896060645580292
12.402554512023926 7.967071533203125 0.17778147757053375
12.347332000732422 7.967843055725098 0.17719785869121552
12.284902572631836 7.964779376983643 0.1756371110677719
12.235469818115234 7.96884298324585 0.17515620589256287
12.121196746826172 7.967320442199707 0.17324581742286682
12.06345272064209 7.965263366699219 0.17266713082790375
11.89404296875 7.961226463317871 0.1700393259525299
11.117685317993164 7.959682464599609 0.15810006856918335
10.974769592285156 7.96219539642334 0.15609699487686157
10.887447357177734 7.969043731689453 0.15449172258377075
10.839463233947754 7.9685187339782715 0.15407730638980865
10.745856285095215 7.969635486602783 0.1525210440158844
10.693377494812012 7.9651641845703125 0.1513196974992752
10.637432098388672 7.95869255065918 0.15078319609165192
10.604260444641113 7.968440055847168 0.15053211152553558
10.55760383605957 7.967714309692383 0.1492898315191269
10.505945205688477 7.963823318481445 0.14878171682357788
10.459389686584473 7.962950706481934 0.14770245552062988
10.411531448364258 7.960699081420898 0.1472804993391037
10.358404159545898 7.9552001953125 0.1467469185590744
10.316217422485352 7.95689058303833 0.14572080969810486
10.271010398864746 7.956070899963379 0.14530020952224731
10.231648445129395 7.960610866546631 0.14419513940811157
10.181811332702637 7.955808639526367 0.14371973276138306
10.144375801086426 7.961331844329834 0.14343395829200745
10.104816436767578 7.964412689208984 0.14289064705371857
10.06180191040039 7.96441650390625 0.14189399778842926
10.013618469238281 7.961129188537598 0.14145790040493011
9.953407287597656 7.947028636932373 0.14074759185314178
9.918575286865234 7.952977180480957 0.13992273807525635
9.883766174316406 7.95981502532959 0.13965173065662384
9.835417747497559 7.954581260681152 0.13859756290912628
9.79653549194336 7.957625389099121 0.13813675940036774
9.74467658996582 7.949308395385742 0.13763822615146637
9.70826530456543 7.953215599060059 0.1367160528898239
9.672101020812988 7.957993030548096 0.1364603042602539
9.624014854431152 7.9521636962890625 0.13535690307617188
9.582708358764648 7.951552391052246 0.135019913315773
9.538634300231934 7.949264049530029 0.1346169263124466
9.495928764343262 7.9473090171813965 0.13346967101097107
9.462156295776367 7.953293800354004 0.13329477608203888
9.380521774291992 7.95153284072876 0.13196085393428802
9.335521697998047 7.947537422180176 0.1315162479877472
9.255559921264648 7.946139812469482 0.1302858293056488
9.223011016845703 7.952298164367676 0.12929703295230865
9.147717475891113 7.954789161682129 0.12810148298740387
9.099939346313477 7.946465969085693 0.12776213884353638
9.019962310791016 7.943827152252197 0.12648937106132507
8.986946105957031 7.947925567626953 0.12613292038440704
8.904129981994629 7.941763401031494 0.12482863664627075
8.800897598266602 7.949592590332031 0.12348721921443939
8.730111122131348 7.952672958374023 0.1222744807600975
8.683151245117188 7.942928791046143 0.12120623886585236
8.61346435546875 7.946069717407227 0.12073194235563278
8.581546783447266 7.94983434677124 0.11992212384939194
8.534786224365234 7.940280437469482 0.11946765333414078
8.49934196472168 7.940272331237793 0.11848907917737961
8.473064422607422 7.94890022277832 0.11839164048433304
8.429981231689453 7.942225456237793 0.11740121990442276
8.397329330444336 7.94442081451416 0.11718954890966415
8.35416030883789 7.936679840087891 0.1167866513133049
8.319997787475586 7.937926292419434 0.1160104051232338
8.293931007385254 7.946001052856445 0.1157137081027031
8.247188568115234 7.934289455413818 0.1147119477391243
8.221612930297852 7.943390369415283 0.11483677476644516
8.1848726272583 7.940800666809082 0.11456432193517685
8.14257526397705 7.933600902557373 0.1134980171918869
8.110111236572266 7.934844970703125 0.11327724158763885
8.081986427307129 7.940402984619141 0.11312366276979446
8.039606094360352 7.932406425476074 0.1121988520026207
8.004170417785645 7.930290699005127 0.11190716922283173
7.979628562927246 7.93903923034668 0.11126432567834854
7.941951751708984 7.935203552246094 0.110829658806324
7.909249305725098 7.935395240783691 0.11003688722848892
7.870414733886719 7.92945671081543 0.10972607880830765
7.8487653732299805 7.941322326660156 0.10911604017019272
7.8031005859375 7.927957057952881 0.10868284851312637
7.76721715927124 7.925293922424316 0.10840413719415665
7.7446489334106445 7.935139179229736 0.10767538100481033
7.712850570678711 7.93543815612793 0.10746341198682785
7.67864465713501 7.934086322784424 0.10666420310735703
7.645308494567871 7.932516098022461 0.10640518367290497
7.609866142272949 7.9295735359191895 0.10562729835510254
7.579535961151123 7.930848121643066 0.10543912649154663
7.539890766143799 7.922214508056641 0.10498543828725815
7.510634422302246 7.925307750701904 0.10424187034368515
7.478647232055664 7.924427032470703 0.1040407344698906
7.454822063446045 7.932093620300293 0.10341071337461472
7.417353630065918 7.926087379455566 0.10358283668756485
7.386486053466797 7.9260077476501465 0.10286641865968704
7.324899673461914 7.926591873168945 0.10181014984846115
7.29119348526001 7.923040866851807 0.10154660046100616
7.266867637634277 7.930539608001709 0.1014467403292656
7.227957248687744 7.921013832092285 0.10060601681470871
7.210116386413574 7.934468746185303 0.10059921443462372
7.16268253326416 7.9161810874938965 0.09961077570915222
7.1471333503723145 7.9320197105407715 0.09952247142791748
7.103670120239258 7.916758060455322 0.09860929846763611
7.078645706176758 7.922852993011475 0.09851594269275665
7.055540084838867 7.930052280426025 0.09789840131998062
7.024847507476807 7.92862606048584 0.09769865870475769
6.9929046630859375 7.926624298095703 0.09684255719184875
6.958436489105225 7.92062520980835 0.09656620770692825
6.928675174713135 7.920810699462891 0.09588373452425003
6.904830455780029 7.926685333251953 0.09577331691980362
6.8749284744262695 7.925506114959717 0.09558754414319992
6.836956024169922 7.915831089019775 0.0947640910744667
6.813449859619141 7.921787738800049 0.0945633202791214
6.790950298309326 7.92964506149292 0.09396658092737198
6.753299713134766 7.919070720672607 0.09363318979740143
6.7285542488098145 7.92329740524292 0.09302644431591034
6.694023609161377 7.9166646003723145 0.09302575141191483
6.667786598205566 7.919093132019043 0.0923691913485527
6.636559963226318 7.915287017822266 0.09217912703752518
6.61184024810791 7.919921398162842 0.09142147749662399
6.583002090454102 7.918909072875977 0.09126817435026169
6.553879737854004 7.917242050170898 0.09056601673364639
6.518497943878174 7.908833980560303 0.09030742198228836
6.494169235229492 7.912716865539551 0.09019691497087479
6.466473579406738 7.913195610046387 0.0895577222108841
6.444630146026611 7.920137405395508 0.08934228122234344
6.408605575561523 7.909336566925049 0.08855392038822174
6.384490966796875 7.913891315460205 0.08846905082464218
6.34679651260376 7.900848388671875 0.08765588700771332
6.324115753173828 7.906162261962891 0.0875750184059143
6.303711414337158 7.915258407592773 0.0870237797498703
6.272533416748047 7.909737586975098 0.08670662343502045
6.252294540405273 7.917910099029541 0.08615420758724213
6.212488174438477 7.902148723602295 0.08583792299032211
6.188604354858398 7.905478000640869 0.08523286134004593
6.1676154136657715 7.913248062133789 0.0851726084947586
6.129528522491455 7.898319244384766 0.08426015079021454
6.119582653045654 7.919379234313965 0.08436811715364456
6.089130401611328 7.914669990539551 0.08368252962827682
6.057466506958008 7.907602310180664 0.08346454799175262
6.031645774841309 7.907835006713867 0.08331511169672012
6.010357856750488 7.914740562438965 0.08276789635419846
5.979609489440918 7.908461093902588 0.08256033807992935
5.954828262329102 7.910566329956055 0.08185561001300812
5.918753623962402 7.896887302398682 0.08157648891210556
5.9038286209106445 7.911129474639893 0.08111529797315598
5.880148887634277 7.914424896240234 0.08104318380355835
5.845643043518066 7.902376174926758 0.08027808368206024
5.821953773498535 7.904608249664307 0.08007349073886871
5.800450325012207 7.910555362701416 0.0795135349035263
5.770569324493408 7.904341697692871 0.07931528985500336
5.751420021057129 7.912538528442383 0.07881855219602585
5.7237091064453125 7.909695148468018 0.07866471260786057
5.693906784057617 7.903184413909912 0.07799381017684937
5.610365867614746 7.891359329223633 0.07692698389291763
5.571677207946777 7.9072465896606445 0.07638535648584366
5.539443016052246 7.8962507247924805 0.0760577917098999
5.482151031494141 7.885006904602051 0.07520066946744919
5.41187047958374 7.889280319213867 0.07424862682819366
5.346567153930664 7.900097846984863 0.07308895140886307
5.3016862869262695 7.905303001403809 0.072346031665802
5.27307653427124 7.898868560791016 0.07219383865594864
5.248253345489502 7.897124767303467 0.07161562144756317
5.220996379852295 7.891787052154541 0.07143258303403854
5.1952433586120605 7.889233589172363 0.07086741179227829
5.1819963455200195 7.904781341552734 0.07080190628767014
5.150241851806641 7.892212867736816 0.07012160867452621
5.125950336456299 7.891571521759033 0.06999970227479935
5.10341739654541 7.892688751220703 0.0694807916879654
5.075331687927246 7.8852925300598145 0.06929439306259155
5.053647041320801 7.8883771896362305 0.06876643747091293
5.030387878417969 7.888062000274658 0.06857727468013763
5.006905555725098 7.888360023498535 0.06801120936870575
4.983149528503418 7.887060165405273 0.0679270476102829
4.967617034912109 7.898933410644531 0.06746599078178406
4.942166805267334 7.895638465881348 0.06734602153301239
4.914396286010742 7.887619972229004 0.06673713028430939
4.896955490112305 7.896295070648193 0.06661970913410187
4.873648643493652 7.8961181640625 0.06651467084884644
4.850894927978516 7.895867347717285 0.06566224992275238
4.8257598876953125 7.891833782196045 0.06553931534290314
4.808435916900635 7.901169776916504 0.06508029997348785
4.783120155334473 7.896422863006592 0.06494396179914474
4.757620811462402 7.8923234939575195 0.0643586739897728
4.729948997497559 7.883373737335205 0.06412313133478165
4.707195281982422 7.882482051849365 0.06358223408460617
4.690284252166748 7.892416000366211 0.06357500702142715
4.667201995849609 7.890814781188965 0.0630270466208458
4.636057376861572 7.876509666442871 0.06281520426273346
4.618457317352295 7.883988857269287 0.062366969883441925
4.598104476928711 7.886726379394531 0.062194470316171646
4.544157981872559 7.870185852050781 0.061484068632125854
25.0506591796875 8.631122589111328 0.597303032875061
24.550504684448242 8.6318359375 0.584980845451355
23.25265884399414 8.616703033447266 0.5541937351226807
18.270296096801758 8.574612617492676 0.43593308329582214
17.97243881225586 8.573105812072754 0.4298025667667389
17.676965713500977 8.568987846374512 0.4216836094856262
17.4958553314209 8.572378158569336 0.4172712564468384
17.398834228515625 8.569660186767578 0.4151487350463867
17.224390029907227 8.574064254760742 0.41084063053131104
17.121782302856445 8.56736946105957 0.4088106155395508
16.923871994018555 8.557647705078125 0.40393587946891785
16.862274169921875 8.570486068725586 0.4029083847999573
16.679431915283203 8.56613540649414 0.3982235789299011
16.57337760925293 8.555179595947266 0.3961018919944763
16.40767478942871 8.557347297668457 0.39205190539360046
16.327516555786133 8.558687210083008 0.3905152678489685
16.06766128540039 8.55270004272461 0.3844304382801056
15.821300506591797 8.549636840820312 0.3776897192001343
14.23195743560791 8.521404266357422 0.34180891513824463
14.02271556854248 8.516334533691406 0.33626455068588257
13.817327499389648 8.510958671569824 0.33162611722946167
13.622333526611328 8.509441375732422 0.32737135887145996
13.489463806152344 8.505627632141113 0.32485127449035645
13.423958778381348 8.50330924987793 0.32288858294487
13.360762596130371 8.50239086151123 0.32175499200820923
13.288599014282227 8.496195793151855 0.3197008967399597
13.230691909790039 8.497903823852539 0.3186940848827362
13.156832695007324 8.48929214477539 0.3173344135284424
13.101105690002441 8.492819786071777 0.31559059023857117
13.046252250671387 8.495970726013184 0.3145958185195923
12.989827156066895 8.498591423034668 0.31361520290374756
12.916632652282715 8.489034652709961 0.3114747405052185
12.866225242614746 8.49439811706543 0.31069380044937134
12.795219421386719 8.486614227294922 0.3094474673271179
12.733623504638672 8.48386287689209 0.3075728416442871
12.674063682556152 8.482416152954102 0.3065185546875
12.619368553161621 8.48469352722168 0.3047596216201782
12.50345516204834 8.483437538146973 0.3025893270969391
12.439090728759766 8.477517127990723 0.3012832999229431
12.321642875671387 8.473687171936035 0.2985474765300751
12.283580780029297 8.485111236572266 0.29807472229003906
12.15400505065918 8.471435546875 0.2950294315814972
12.090495109558105 8.464503288269043 0.2931583523750305
11.977447509765625 8.460746765136719 0.29108917713165283
11.929540634155273 8.464069366455078 0.2896060347557068
11.195988655090332 8.449296951293945 0.27400872111320496
11.031148910522461 8.434460639953613 0.269694060087204
10.892672538757324 8.437618255615234 0.266886830329895
10.841157913208008 8.433769226074219 0.2660602331161499
10.740560531616211 8.42835807800293 0.2637382447719574
10.70057201385498 8.432915687561035 0.2630518078804016
10.656312942504883 8.435001373291016 0.2617500424385071
10.603181838989258 8.428793907165527 0.2608186602592468
10.55018424987793 8.422452926635742 0.25927066802978516
10.508665084838867 8.426126480102539 0.2587389349937439
10.450347900390625 8.415055274963379 0.2577100098133087
10.421697616577148 8.427694320678711 0.2567383944988251
10.34382152557373 8.401328086853027 0.25508615374565125
10.328917503356934 8.424858093261719 0.254513144493103
10.265740394592285 8.408863067626953 0.2533624470233917
10.23215103149414 8.417938232421875 0.25298213958740234
10.178269386291504 8.409088134765625 0.2514248192310333
10.138162612915039 8.412261962890625 0.2508707046508789
10.091869354248047 8.409467697143555 0.24946635961532593
10.056941032409668 8.415785789489746 0.24886813759803772
10.00940227508545 8.412425994873047 0.24813224375247955
9.967636108398438 8.412680625915527 0.24751007556915283
9.911516189575195 8.401443481445312 0.2457357794046402
9.873442649841309 8.40463638305664 0.24527037143707275
9.82325267791748 8.39713191986084 0.24377071857452393
9.77499771118164 8.391895294189453 0.2430097460746765
9.73591423034668 8.393692970275879 0.24247847497463226
9.70397663116455 8.401327133178711 0.2415008842945099
9.646326065063477 8.387340545654297 0.24047696590423584
9.61424732208252 8.39474105834961 0.23935472965240479
9.564898490905762 8.386697769165039 0.23853667080402374
9.528087615966797 8.390298843383789 0.23747621476650238
9.478894233703613 8.382160186767578 0.23660914599895477
9.44132137298584 8.384749412536621 0.23614180088043213
9.361604690551758 8.383903503417969 0.23422569036483765
9.310674667358398 8.374011039733887 0.23279932141304016
9.246068000793457 8.385772705078125 0.23144064843654633
9.1944580078125 8.374641418457031 0.23054185509681702
9.12669563293457 8.383515357971191 0.22914066910743713
8.992691040039062 8.365264892578125 0.2263888716697693
8.886277198791504 8.37109661102295 0.22427168488502502
8.81672477722168 8.375935554504395 0.22282299399375916
8.778955459594727 8.374784469604492 0.22173035144805908
8.688272476196289 8.358447074890137 0.22031712532043457
8.657360076904297 8.363370895385742 0.2193371057510376
8.581055641174316 8.359807968139648 0.21752890944480896
8.53916072845459 8.35379409790039 0.2169276624917984
8.466699600219727 8.352785110473633 0.21539992094039917
8.431814193725586 8.35315990447998 0.21431145071983337
8.392570495605469 8.349687576293945 0.21365733444690704
8.36469554901123 8.356568336486816 0.21341153979301453
8.336296081542969 8.363024711608887 0.21255165338516235
8.289603233337402 8.351597785949707 0.21176967024803162
8.251111030578613 8.347393035888672 0.21066246926784515
8.222875595092773 8.353620529174805 0.21038073301315308
8.169624328613281 8.334874153137207 0.2087135910987854
8.148149490356445 8.347545623779297 0.20885209739208221
8.099885940551758 8.333642959594727 0.20807799696922302
8.078606605529785 8.346333503723145 0.20782580971717834
8.028112411499023 8.328875541687012 0.20640376210212708
8.007454872131348 8.342845916748047 0.20634451508522034
7.971747398376465 8.340219497680664 0.20529994368553162
7.934947490692139 8.336477279663086 0.20477071404457092
7.899408340454102 8.334527969360352 0.20376929640769958
7.86715030670166 8.335067749023438 0.20323418080806732
7.824875354766846 8.325839042663574 0.2020454704761505
7.793414115905762 8.326922416687012 0.2016507387161255
7.77259635925293 8.339491844177246 0.20103073120117188
7.727935314178467 8.326976776123047 0.20030485093593597
7.69638204574585 8.327569961547852 0.19993126392364502
7.661988258361816 8.325139999389648 0.19879157841205597
7.620602607727051 8.315561294555664 0.19816192984580994
7.593006134033203 8.320045471191406 0.19733721017837524
7.55814266204834 8.316632270812988 0.1968916356563568
7.534043312072754 8.325586318969727 0.1961870789527893
7.490713119506836 8.312310218811035 0.195463627576828
7.456481456756592 8.309951782226562 0.19435293972492218
7.43035364151001 8.315485000610352 0.19411225616931915
7.411380767822266 8.328974723815918 0.19353918731212616
7.360392093658447 8.307341575622559 0.19266006350517273
7.326780319213867 8.304059028625488 0.1927221566438675
7.272655487060547 8.31302261352539 0.1915605068206787
7.234618186950684 8.304256439208984 0.1904708445072174
7.180572032928467 8.312644004821777 0.18941164016723633
7.149864673614502 8.311902046203613 0.18907079100608826
7.114786148071289 8.306949615478516 0.18803659081459045
7.082869529724121 8.30450439453125 0.1875096559524536
7.056849956512451 8.308858871459961 0.18675874173641205
7.018669128417969 8.299772262573242 0.18619263172149658
6.992303371429443 8.303482055664062 0.18596342206001282
6.918213844299316 8.2860746383667 0.18425458669662476
6.895814895629883 8.294172286987305 0.18359152972698212
6.867465019226074 8.296060562133789 0.18330930173397064
6.84628438949585 8.305501937866211 0.18269690871238708
6.802210807800293 8.287013053894043 0.18194988369941711
6.78214168548584 8.298648834228516 0.18136799335479736
6.740559101104736 8.282788276672363 0.18056055903434753
6.716368675231934 8.288135528564453 0.17985326051712036
6.687643527984619 8.288825035095215 0.17954322695732117
6.660990238189697 8.290937423706055 0.17876623570919037
6.627399444580078 8.28531551361084 0.17835287749767303
6.608879566192627 8.297403335571289 0.1780337542295456
6.573205471038818 8.287848472595215 0.17750860750675201
6.543064117431641 8.286140441894531 0.17654737830162048
6.514764785766602 8.28559684753418 0.1762554943561554
6.4824748039245605 8.27983570098877 0.17530784010887146
6.453774452209473 8.279556274414062 0.17500421404838562
6.433093547821045 8.288439750671387 0.17491796612739563
6.393188953399658 8.272411346435547 0.1736588478088379
6.37579870223999 8.2864351272583 0.17368140816688538
6.330544471740723 8.263041496276855 0.17237631976604462
6.320313930511475 8.286096572875977 0.17258982360363007
6.279546737670898 8.2683744430542 0.17142383754253387
6.256621360778809 8.273778915405273 0.17124617099761963
6.222846031188965 8.265759468078613 0.1702033132314682
6.192325115203857 8.260839462280273 0.16980727016925812
6.168862342834473 8.266074180603027 0.16913357377052307
6.142187118530273 8.266261100769043 0.16885705292224884
6.109946250915527 8.258615493774414 0.1679447591304779
6.089337348937988 8.267439842224121 0.16775193810462952
6.059962749481201 8.263616561889648 0.16693182289600372
6.033511161804199 8.263452529907227 0.16663721203804016
6.01476526260376 8.27463436126709 0.1661258190870285
5.98293399810791 8.26706314086914 0.1657334715127945
5.956173419952393 8.266148567199707 0.16494539380073547
5.9263739585876465 8.261743545532227 0.16457052528858185
5.8950982093811035 8.254459381103516 0.16410285234451294
5.871982574462891 8.259139060974121 0.16341985762119293
5.835639953613281 8.24439811706543 0.16288863122463226
5.822053909301758 8.261506080627441 0.16252349317073822
5.797062873840332 8.263274192810059 0.16230501234531403
5.7679314613342285 8.258350372314453 0.16132903099060059
5.735410690307617 8.248196601867676 0.1608782559633255
5.712314128875732 8.25233268737793 0.16025085747241974
5.683134078979492 8.246899604797363 0.1599121242761612
5.666159152984619 8.258894920349121 0.15941160917282104
5.630926609039307 8.245038032531738 0.1589301973581314
5.607125282287598 8.247088432312012 0.15812090039253235
5.562118053436279 8.255451202392578 0.15733952820301056
5.523327827453613 8.234703063964844 0.15671376883983612
5.479567050933838 8.244302749633789 0.15586036443710327
5.413170337677002 8.256531715393066 0.1544763296842575
5.335953235626221 8.251422882080078 0.15315324068069458
5.260676860809326 8.248275756835938 0.15186062455177307
5.209124565124512 8.243820190429688 0.1507634073495865
5.175255298614502 8.228882789611816 0.14983734488487244
5.128275394439697 8.229991912841797 0.1489562690258026
5.1070756912231445 8.23489761352539 0.14873643219470978
5.062330722808838 8.23911190032959 0.14797863364219666
5.032449245452881 8.229628562927246 0.14711861312389374
5.009872913360596 8.231038093566895 0.14696848392486572
4.984226226806641 8.227510452270508 0.14623796939849854
4.9596147537231445 8.226272583007812 0.1459105759859085
4.929793357849121 8.215314865112305 0.14503218233585358
4.907987117767334 8.218720436096191 0.14493851363658905
4.884368896484375 8.217864036560059 0.14426207542419434
4.8638176918029785 8.222305297851562 0.14416874945163727
4.838993549346924 8.220144271850586 0.14347121119499207
4.822958469390869 8.23193359375 0.1433890461921692
4.789848327636719 8.214674949645996 0.14243827760219574
4.779101848602295 8.236410140991211 0.14265288412570953
4.7495927810668945 8.224824905395508 0.14226725697517395
4.727819442749023 8.227657318115234 0.14133320748806
4.698058128356934 8.21528148651123 0.140965536236763
4.685011863708496 8.232287406921387 0.1406213343143463
4.650081634521484 8.211442947387695 0.14007823169231415
4.630250930786133 8.216141700744629 0.13942885398864746
4.608722686767578 8.217989921569824 0.13930879533290863
4.582852840423584 8.2127103805542 0.1385621279478073
4.559342861175537 8.210575103759766 0.13837367296218872
4.53781795501709 8.21214485168457 0.13778188824653625
4.507602214813232 8.198559761047363 0.137400820851326
4.498566627502441 8.222498893737793 0.13709419965744019
4.4687018394470215 8.209511756896973 0.1366877555847168
4.44839334487915 8.21274471282959 0.13613328337669373
4.410747528076172 8.183749198913574 0.13547690212726593
30.989748001098633 0.4659588038921356 0.6515142917633057
30.95611000061035 0.9853368997573853 0.6493249535560608
30.67530059814453 1.362654685974121 0.6463071703910828
30.650863647460938 1.554695963859558 0.6457028985023499
30.23124122619629 3.1300559043884277 0.6376261115074158
30.200761795043945 3.318922758102417 0.6359344124794006
30.06670379638672 3.815936803817749 0.6321942210197449
30.026229858398438 4.00275993347168 0.6303420066833496
30.03995704650879 4.068053245544434 0.6308408379554749
29.993057250976562 4.190406799316406 0.6302515268325806
29.958568572998047 4.248989582061768 0.6324347257614136
29.938922882080078 4.374902248382568 0.6309161186218262
29.924657821655273 4.436262607574463 0.6307851076126099
29.94159507751465 4.567722320556641 0.6315888166427612
29.78989601135254 4.73640251159668 0.6271713972091675
28.93062400817871 5.981104373931885 0.6075608730316162
28.869413375854492 6.095339298248291 0.6067831516265869
28.851913452148438 6.154213905334473 0.606698751449585
28.737873077392578 6.256538391113281 0.6029792428016663
28.731407165527344 6.317909240722656 0.6031864881515503
28.645238876342773 6.425248622894287 0.6004377603530884
28.604904174804688 6.478878974914551 0.5998932123184204
28.576385498046875 6.536327362060547 0.5992864966392517
28.531715393066406 6.588445663452148 0.5985870361328125
28.47831916809082 6.63869571685791 0.5962862968444824
28.44277000427246 6.694201946258545 0.5958305597305298
28.4084415435791 6.7483720779418945 0.5953894257545471
28.385143280029297 6.8053975105285645 0.5952193737030029
28.338340759277344 6.857927322387695 0.5927360653877258
28.307363510131836 6.912944793701172 0.5924263596534729
28.267330169677734 6.966888427734375 0.5924679040908813
28.23896598815918 7.022089958190918 0.5921556353569031
28.209665298461914 7.077297210693359 0.591910719871521
28.175464630126953 7.13242769241333 0.5900514125823975
28.085174560546875 7.235565185546875 0.5884748101234436
28.042343139648438 7.286619186401367 0.587871789932251
27.932632446289062 7.445879936218262 0.5847811102867126
27.845090866088867 7.610351085662842 0.5824788212776184
26.571701049804688 8.169804573059082 0.5521851181983948
26.220355987548828 8.1828031539917 0.545097827911377
26.046663284301758 8.18795394897461 0.540260374546051
25.728635787963867 8.20720386505127 0.5336493849754333
25.55919647216797 8.211631774902344 0.5289905071258545
25.244590759277344 8.228008270263672 0.5227546095848083
25.107608795166016 8.241040229797363 0.5200477242469788
24.947111129760742 8.2474365234375 0.5152568817138672
24.785593032836914 8.251136779785156 0.5120643377304077
24.63665008544922 8.25838565826416 0.509120523929596
24.482818603515625 8.265040397644043 0.5049768686294556
24.304702758789062 8.261136054992676 0.5016563534736633
24.126422882080078 8.256428718566895 0.4980444014072418
23.975555419921875 8.26205825805664 0.4939838945865631
23.810577392578125 8.260525703430176 0.49091827869415283
23.64406967163086 8.25938892364502 0.4878562092781067
23.486804962158203 8.259180068969727 0.48365652561187744
23.32666778564453 8.257301330566406 0.4816667437553406
23.16653060913086 8.25634765625 0.47654587030410767
23.014022827148438 8.255860328674316 0.472504198551178
22.85237693786621 8.252731323242188 0.46950000524520874
22.708393096923828 8.254327774047852 0.4666323959827423
22.56278419494629 8.254447937011719 0.46279197931289673
22.41140365600586 8.25311279296875 0.4599948227405548
22.278566360473633 8.257015228271484 0.4576250910758972
22.135316848754883 8.256208419799805 0.453575074672699
21.98746109008789 8.254331588745117 0.4508594870567322
21.841320037841797 8.251497268676758 0.44821611046791077
21.71249008178711 8.254356384277344 0.4447272717952728
21.42498207092285 8.248491287231445 0.4392809271812439
21.306718826293945 8.254995346069336 0.4360382854938507
21.041641235351562 8.253166198730469 0.43129464983940125
20.65105438232422 8.250137329101562 0.4229002296924591
20.28177833557129 8.252019882202148 0.41508033871650696
19.930490493774414 8.255505561828613 0.4062759578227997
19.6806583404541 8.249296188354492 0.40078455209732056
19.57181739807129 8.251466751098633 0.3988843262195587
19.34739875793457 8.252986907958984 0.39375248551368713
19.22507095336914 8.248255729675293 0.39151641726493835
19.012451171875 8.251763343811035 0.3866344094276428
18.90631866455078 8.252616882324219 0.3847843110561371
18.801837921142578 8.254624366760254 0.3820142447948456
18.685991287231445 8.250057220458984 0.37996748089790344
18.587581634521484 8.25299072265625 0.3772831857204437
18.477157592773438 8.251012802124023 0.3751674294471741
18.378416061401367 8.252706527709961 0.373505175113678
18.28517723083496 8.256721496582031 0.3709888458251953
18.181909561157227 8.25665283203125 0.36918237805366516
18.0732479095459 8.252833366394043 0.3660917282104492
17.974416732788086 8.252824783325195 0.3644329607486725
17.887962341308594 8.25920295715332 0.36300182342529297
17.777477264404297 8.253230094909668 0.36013299226760864
17.691308975219727 8.2589693069458 0.35849928855895996
17.600467681884766 8.261089324951172 0.35701891779899597
17.502153396606445 8.259547233581543 0.3563235104084015
17.394546508789062 8.254008293151855 0.3511354327201843
17.31507682800293 8.260601997375488 0.34989121556282043
17.226146697998047 8.263160705566406 0.3482295572757721
17.13051414489746 8.261058807373047 0.3456721901893616
17.04102897644043 8.261772155761719 0.3442056179046631
16.95199203491211 8.263141632080078 0.34182292222976685
16.85332489013672 8.258376121520996 0.34017592668533325
16.769866943359375 8.260913848876953 0.3385794162750244
16.678936004638672 8.260210990905762 0.3361877202987671
16.59363555908203 8.26089096069336 0.3347814679145813
16.509489059448242 8.263055801391602 0.3325115144252777
16.413297653198242 8.257550239562988 0.3306606411933899
16.339231491088867 8.26305103302002 0.3286547362804413
16.243913650512695 8.258240699768066 0.32705631852149963
16.148202896118164 8.251798629760742 0.32544636726379395
