VERSION .7
FIELDS x y z
SIZE 4 4 4
TYPE F F F
COUNT 1 1 1
WIDTH 857
HEIGHT 1
VIEWPOINT 0 0 0 1 0 0 0
POINTS 857
DATA ascii
9.189105033874512 7.027460098266602 0.15900474786758423
9.14590835571289 7.024552345275879 0.15850812196731567
9.090078353881836 7.01259708404541 0.15765559673309326
9.074600219726562 7.03074312210083 0.15708613395690918
9.022947311401367 7.020914077758789 0.15644119679927826
8.983263969421387 7.020719528198242 0.15531224012374878
8.94521713256836 7.020934581756592 0.15491244196891785
8.911904335021973 7.024900913238525 0.1547241508960724
8.859681129455566 7.014296054840088 0.1539326161146164
8.834684371948242 7.024381160736084 0.15320506691932678
8.751958847045898 7.018967151641846 0.15213799476623535
8.727279663085938 7.028984069824219 0.15141960978507996
8.614624977111816 7.028171539306641 0.1494109034538269
8.212200164794922 7.021542072296143 0.14203739166259766
8.10861587524414 7.0223870277404785 0.14035792648792267
8.027360916137695 7.010706901550293 0.1398429274559021
8.005345344543457 7.0215067863464355 0.13920626044273376
7.965717315673828 7.016049861907959 0.13863849639892578
7.934079647064209 7.017648696899414 0.13782230019569397
7.909457206726074 7.025869369506836 0.13765740394592285
7.866774082183838 7.017214775085449 0.1365220695734024
7.841154098510742 7.023808479309082 0.13633215427398682
7.792426109313965 7.01004695892334 0.13509730994701385
7.777297019958496 7.025692462921143 0.13509337604045868
7.738401412963867 7.019947052001953 0.13467568159103394
7.701355934143066 7.016217231750488 0.13364727795124054
7.676316261291504 7.022785186767578 0.13346929848194122
7.650393486022949 7.0289764404296875 0.13264328241348267
7.598082542419434 7.01004695892334 0.1319834440946579
7.571268081665039 7.014623165130615 0.13113899528980255
7.5335564613342285 7.009477615356445 0.13074740767478943
7.511190891265869 7.017805576324463 0.13011489808559418
7.464792728424072 7.003697395324707 0.12943436205387115
7.445289611816406 7.015191078186035 0.1288534551858902
7.4123616218566895 7.013260841369629 0.1284129023551941
7.392967700958252 7.024903297424316 0.12784028053283691
7.355991363525391 7.018874168395996 0.12732890248298645
7.33427619934082 7.027289390563965 0.1272059977054596
7.30435037612915 7.028605937957764 0.1264563649892807
7.276820659637451 7.031256675720215 0.12721657752990723
7.2282562255859375 7.0135674476623535 0.12600085139274597
7.201098918914795 7.016971588134766 0.1257898360490799
7.166450023651123 7.012260437011719 0.12482726573944092
7.14075231552124 7.016352653503418 0.12463487684726715
7.103929042816162 7.009888172149658 0.12376410514116287
7.090018272399902 7.025433540344238 0.12365826964378357
7.030994415283203 7.025704383850098 0.12253130972385406
6.994431495666504 7.0184102058410645 0.12166643142700195
6.933106422424316 7.015548229217529 0.12050801515579224
6.9012532234191895 7.01253604888916 0.12008513510227203
6.846247673034668 7.01532506942749 0.11916632950305939
6.816253185272217 7.013821601867676 0.11877782642841339
6.750567436218262 7.005017280578613 0.11754851043224335
6.730521202087402 7.013286113739014 0.11698060482740402
6.673032283782959 7.0122575759887695 0.11590482294559479
6.581462860107422 7.003676891326904 0.11448681354522705
6.5047197341918945 7.01048469543457 0.11368873715400696
6.451624870300293 7.011574745178223 0.11268772184848785
6.418762683868408 7.0056633949279785 0.11237441003322601
6.36299467086792 7.003101825714111 0.11132942140102386
6.340064525604248 7.007711887359619 0.1107294112443924
6.285277843475342 7.005552768707275 0.10970669984817505
6.244594097137451 6.990017414093018 0.10913239419460297
6.224503040313721 6.996870994567871 0.10858308523893356
6.20137357711792 7.000070095062256 0.10831627249717712
6.173405170440674 6.998388767242432 0.10763099789619446
6.145036220550537 6.995612144470215 0.1072799414396286
6.127389430999756 7.005475997924805 0.10678136348724365
6.0957183837890625 6.9985198974609375 0.106479711830616
6.072406768798828 7.001212120056152 0.10576361417770386
6.045780181884766 7.0004963874816895 0.1055561751127243
6.025517463684082 7.006372451782227 0.10488931834697723
5.996842384338379 7.002547264099121 0.10464905947446823
5.969305038452148 7.000430583953857 0.10386260598897934
5.951746940612793 7.009424686431885 0.1038132905960083
5.917874813079834 6.9989190101623535 0.10380810499191284
5.888185977935791 6.993880271911621 0.10355036705732346
5.871431827545166 7.003602027893066 0.10295049101114273
5.846646308898926 7.003506660461426 0.1027764156460762
5.819816589355469 7.0015411376953125 0.10200439393520355
5.798062801361084 7.005066394805908 0.10187889635562897
5.777256011962891 7.01018762588501 0.1013362780213356
5.747124671936035 7.0031867027282715 0.10094771534204483
5.719753265380859 6.999578475952148 0.10027924180030823
5.698922157287598 7.004396438598633 0.09962659329175949
5.674499988555908 7.004195690155029 0.09945376217365265
5.654438018798828 7.009120941162109 0.09880716353654861
5.62333345413208 7.00093936920166 0.09852330386638641
5.603934288024902 7.00669527053833 0.09789587557315826
5.578484058380127 7.005326271057129 0.09770864993333817
5.54145622253418 6.988539695739746 0.09676985442638397
5.532115936279297 7.0067548751831055 0.09685976058244705
5.503988265991211 7.001655101776123 0.09608802944421768
5.482527732849121 7.004400730133057 0.09596855938434601
5.454805374145508 6.998857498168945 0.09519343078136444
5.406216144561768 6.997091770172119 0.09442534297704697
5.381942272186279 6.995632171630859 0.09414391219615936
5.338260650634766 6.999653339385986 0.09390135109424591
5.271020412445068 7.002345085144043 0.09241858124732971
5.222828388214111 6.999481201171875 0.09155410528182983
5.2040019035339355 7.004530429840088 0.09147956222295761
5.148831367492676 6.991586685180664 0.09049463272094727
5.1307172775268555 6.997354984283447 0.08990312367677689
5.086956024169922 6.999298095703125 0.08912499248981476
5.066246509552002 7.001307487487793 0.08859756588935852
5.017536163330078 6.995839595794678 0.08773022145032883
4.992264270782471 6.991191387176514 0.08743742108345032
4.94581937789917 6.988193035125732 0.0866144448518753
4.920388221740723 6.983668327331543 0.08601326495409012
4.904569149017334 6.992171287536621 0.08588843047618866
4.883327484130859 6.992710113525391 0.08535145968198776
4.856179237365723 6.98539400100708 0.08513806015253067
4.841163635253906 6.9949049949646 0.08461208641529083
4.814155578613281 6.987549781799316 0.08398687839508057
4.786679267883301 6.97880744934082 0.08375553786754608
4.764101982116699 6.976885795593262 0.0835154801607132
4.75640344619751 6.997478485107422 0.08322716504335403
4.732125282287598 6.993116855621338 0.08295592665672302
4.703776836395264 6.982397079467773 0.08230262249708176
4.684080600738525 6.985130786895752 0.08211508393287659
4.671053409576416 6.997237205505371 0.08173123747110367
4.642040252685547 6.985123157501221 0.08136875182390213
4.619120121002197 6.982761859893799 0.080818772315979
4.601659774780273 6.988024711608887 0.0802624374628067
4.577737808227539 6.983202934265137 0.08009224385023117
4.559003829956055 6.987133502960205 0.0795178934931755
4.538336277008057 6.987098693847656 0.07941137254238129
4.519937515258789 6.990486145019531 0.07883910834789276
4.499299049377441 6.991276741027832 0.07873611897230148
4.482635974884033 6.997251033782959 0.07819242775440216
4.453324317932129 6.984108924865723 0.07794224470853806
4.440301895141602 6.995858192443848 0.07756434381008148
4.413918495178223 6.986292839050293 0.07685153931379318
4.396535873413086 6.9916205406188965 0.0768105685710907
4.371020793914795 6.9833526611328125 0.07611270248889923
4.3504862785339355 6.982725143432617 0.07600875943899155
4.3352203369140625 6.991263389587402 0.07549837976694107
4.310357093811035 6.9836745262146 0.0753214955329895
4.289615631103516 6.982448577880859 0.07481321692466736
4.273885726928711 6.990281105041504 0.07439733296632767
4.250398635864258 6.984392166137695 0.07413673400878906
4.224667072296143 6.9746599197387695 0.07354510575532913
4.211345195770264 6.986302375793457 0.07347224652767181
4.1845927238464355 6.974616050720215 0.0728609561920166
4.16985559463501 6.983827590942383 0.07276789098978043
4.153938293457031 6.990083694458008 0.07234849780797958
4.1292643547058105 6.981512069702148 0.07166975736618042
4.107489109039307 6.978677272796631 0.07154974341392517
4.092051982879639 6.985569477081299 0.07104180753231049
4.07164192199707 6.9839186668396 0.07093915343284607
4.050962448120117 6.982687473297119 0.07034356892108917
21.457138061523438 -5.172210693359375 0.3824736773967743
24.268890380859375 -3.4209961891174316 0.4280071258544922
24.303516387939453 -3.2701892852783203 0.4303642511367798
28.263004302978516 -3.141022205352783 0.499178946018219
28.45709991455078 -1.119826078414917 0.4985625743865967
28.48219871520996 -0.882354199886322 0.500606119632721
28.48832893371582 -0.7624676823616028 0.5006508827209473
28.504465103149414 -0.7037078142166138 0.5009095072746277
28.512882232666016 -0.5837740302085876 0.49962154030799866
28.543182373046875 -0.5251390933990479 0.5001345872879028
28.525665283203125 -0.46386051177978516 0.4998167157173157
28.526714324951172 -0.4046660363674164 0.49981027841567993
28.584640502929688 -0.22576302289962769 0.50080806016922
34.38581848144531 0.015953652560710907 0.883806049823761
34.34425354003906 0.1605735719203949 0.8827442526817322
34.35565948486328 0.2319239377975464 0.8830477595329285
34.35942077636719 0.3766634464263916 0.8831824064254761
34.40163040161133 0.44852644205093384 0.8842880725860596
34.28040313720703 3.262511730194092 0.8839100003242493
34.317203521728516 3.4838407039642334 0.8854120969772339
34.28206253051758 3.552164077758789 0.8847054839134216
34.24320602416992 3.6203951835632324 0.8838966488838196
34.2049560546875 3.68983793258667 0.8826998472213745
34.15806579589844 3.7565059661865234 0.8800081014633179
34.146636962890625 3.8290934562683105 0.8799243569374084
34.11334991455078 3.897059679031372 0.8792698383331299
34.091552734375 3.966256856918335 0.8789227604866028
34.07688903808594 4.038350582122803 0.8787656426429749
34.063262939453125 4.108434677124023 0.8786314129829407
33.973941802978516 4.314517498016357 0.8749268054962158
33.95076370239258 4.528627872467041 0.8750512599945068
33.86590576171875 4.7341837882995605 0.8715316653251648
33.238285064697266 6.802827835083008 0.8664708137512207
33.19207763671875 6.865166664123535 0.8656234741210938
33.169551849365234 7.006302356719971 0.8641488552093506
33.136409759521484 7.071166515350342 0.8636629581451416
33.07393264770508 7.2035980224609375 0.8624156713485718
33.045413970947266 7.269247531890869 0.8620644211769104
33.02906799316406 7.337958335876465 0.860385537147522
32.98423385620117 7.401557922363281 0.8596161603927612
32.74022674560547 7.41819429397583 0.8535678386688232
32.25774383544922 7.451834201812744 0.8413469791412354
31.956153869628906 7.452051639556885 0.8322643041610718
31.421628952026367 7.467066764831543 0.8191561698913574
31.144004821777344 7.469801902770996 0.8119245171546936
30.648578643798828 7.487222194671631 0.7982920408248901
29.876893997192383 7.498046875 0.7824066281318665
29.181638717651367 7.5188822746276855 0.7654301524162292
24.52674102783203 7.5434064865112305 0.6467427611351013
24.024702072143555 7.554644584655762 0.6335270404815674
23.52215576171875 7.559436798095703 0.6212096810340881
23.18977165222168 7.559257507324219 0.6117689609527588
23.025516510009766 7.559857368469238 0.6078402400016785
22.71807289123535 7.563817977905273 0.5993866920471191
22.58022689819336 7.57124137878418 0.5958868861198425
22.44159698486328 7.576903343200684 0.5926494598388672
22.26558494567871 7.5702009201049805 0.5884189605712891
22.13847541809082 7.578273296356201 0.5843331813812256
21.97524642944336 7.573678970336914 0.5804350972175598
21.85408592224121 7.583893775939941 0.5773868560791016
21.67953872680664 7.573764801025391 0.5731837749481201
21.568471908569336 7.585515022277832 0.5695474743843079
21.39752197265625 7.576503276824951 0.5654422044754028
21.285341262817383 7.5865278244018555 0.562614917755127
21.140323638916016 7.5846099853515625 0.558102548122406
21.014934539794922 7.590044975280762 0.557946503162384
20.862749099731445 7.584344863891602 0.5540493130683899
20.594886779785156 7.585031509399414 0.546701967716217
20.463346481323242 7.585129737854004 0.5436224937438965
17.929899215698242 7.560267448425293 0.4789813458919525
17.60961151123047 7.555951118469238 0.4705098867416382
17.322914123535156 7.562237739562988 0.4629611670970917
17.01373291015625 7.554961681365967 0.45504891872406006
16.837366104125977 7.561695575714111 0.4509599804878235
16.728347778320312 7.55547571182251 0.4475688636302948
16.542966842651367 7.554811954498291 0.44322890043258667
16.445358276367188 7.552493572235107 0.44015955924987793
16.361148834228516 7.554973125457764 0.4381050765514374
16.28717041015625 7.562098979949951 0.4365460276603699
16.18106460571289 7.554654598236084 0.4332565665245056
16.109891891479492 7.562421798706055 0.43177729845046997
16.023727416992188 7.56259298324585 0.42966359853744507
15.918272018432617 7.554205894470215 0.426399290561676
15.82984733581543 7.552767753601074 0.4248771071434021
15.728033065795898 7.545243263244629 0.42257463932037354
15.661231994628906 7.553216934204102 0.42035719752311707
15.589998245239258 7.559014320373535 0.41865798830986023
15.401689529418945 7.547986030578613 0.41360336542129517
15.323596954345703 7.549191951751709 0.41171106696128845
15.16086196899414 7.5485310554504395 0.4073587656021118
15.08333969116211 7.549033164978027 0.40569397807121277
14.925312995910645 7.548712253570557 0.40128326416015625
14.676046371459961 7.538874626159668 0.39482617378234863
14.453702926635742 7.5398759841918945 0.38911834359169006
13.379972457885742 7.524956703186035 0.36209553480148315
13.199987411499023 7.533351421356201 0.3575746417045593
13.001246452331543 7.528675556182861 0.35180678963661194
12.936436653137207 7.527036666870117 0.350478857755661
12.81041431427002 7.526103496551514 0.3470160961151123
12.742239952087402 7.521664142608643 0.3455936908721924
12.698835372924805 7.532668590545654 0.34485045075416565
12.636825561523438 7.531380653381348 0.34269794821739197
12.567954063415527 7.526556491851807 0.3412533402442932
12.492136001586914 7.5166239738464355 0.33890753984451294
12.447011947631836 7.524698257446289 0.3379324972629547
12.377961158752441 7.519107818603516 0.3361407518386841
12.325675964355469 7.522407054901123 0.3342570960521698
12.263035774230957 7.519148826599121 0.33298537135124207
12.200359344482422 7.516626358032227 0.33171597123146057
12.143611907958984 7.516475677490234 0.3297249376773834
12.073752403259277 7.5087504386901855 0.3282535970211029
12.021804809570312 7.511289596557617 0.3265801966190338
11.967794418334961 7.512119770050049 0.32536259293556213
11.903345108032227 7.506956577301025 0.32403719425201416
11.849920272827148 7.507883548736572 0.32232221961021423
11.79621696472168 7.508208751678467 0.3211197853088379
11.734182357788086 7.503994941711426 0.319863498210907
11.679343223571777 7.503119468688965 0.31811702251434326
11.62891674041748 7.504860877990723 0.3169930577278137
11.579204559326172 7.5078654289245605 0.31540071964263916
11.534173011779785 7.512711524963379 0.3144339621067047
11.422575950622559 7.508727073669434 0.3115784525871277
11.356622695922852 7.499168395996094 0.31003400683403015
11.205802917480469 7.501164436340332 0.3063740134239197
11.045516014099121 7.494848728179932 0.3021343946456909
10.891165733337402 7.490538597106934 0.29838550090789795
10.448801040649414 7.481388568878174 0.28695276379585266
10.317791938781738 7.486147880554199 0.2838600277900696
10.222784042358398 7.483132362365723 0.2813413739204407
10.163483619689941 7.472166538238525 0.28013408184051514
10.065068244934082 7.465313911437988 0.2775144577026367
10.036981582641602 7.4768195152282715 0.27655795216560364
9.949010848999023 7.4766435623168945 0.2742404341697693
9.889606475830078 7.4641642570495605 0.27318355441093445
9.817893981933594 7.475147247314453 0.2713189721107483
9.766063690185547 7.467750072479248 0.27031224966049194
9.714735984802246 7.461442947387695 0.26858311891555786
9.672551155090332 7.461007118225098 0.2678403854370117
9.631731986999512 7.461452960968018 0.26639512181282043
9.59475040435791 7.465655326843262 0.2658142149448395
9.54050064086914 7.455280303955078 0.26473960280418396
9.50999641418457 7.4634690284729 0.2635841965675354
9.468217849731445 7.463231563568115 0.26286667585372925
9.430471420288086 7.4652605056762695 0.2615169286727905
9.377366065979004 7.455862998962402 0.260480672121048
9.33407211303711 7.4531073570251465 0.2591269910335541
9.299681663513184 7.457303047180176 0.25845596194267273
9.259658813476562 7.457763671875 0.25778400897979736
9.210477828979492 7.449718475341797 0.25611868500709534
9.182430267333984 7.458606719970703 0.2557702958583832
9.138320922851562 7.455236434936523 0.2544150948524475
9.093820571899414 7.4504170417785645 0.25345590710639954
9.011273384094238 7.4464311599731445 0.25131335854530334
8.974637031555176 7.447552680969238 0.25071850419044495
8.88271427154541 7.434662818908691 0.24902909994125366
8.848329544067383 7.437163829803467 0.24792909622192383
8.785894393920898 7.448051929473877 0.24635694921016693
8.735258102416992 7.436334609985352 0.2453649789094925
8.664996147155762 7.439685821533203 0.24357356131076813
8.628286361694336 7.439512252807617 0.24227920174598694
8.557304382324219 7.441184997558594 0.2410215586423874
8.436060905456543 7.429588317871094 0.23768799006938934
8.330521583557129 7.430150985717773 0.235345721244812
8.217764854431152 7.422865390777588 0.2327978014945984
8.113177299499512 7.422269821166992 0.22981572151184082
7.990399360656738 7.4027557373046875 0.22817809879779816
7.938555717468262 7.416373252868652 0.22692039608955383
7.913266181945801 7.424286365509033 0.225982204079628
7.864441871643066 7.409224510192871 0.22502665221691132
7.83811092376709 7.4160871505737305 0.2242019772529602
7.793259143829346 7.404361248016357 0.2232215404510498
7.7696852684021 7.412702560424805 0.22246338427066803
7.7325663566589355 7.408906936645508 0.22171995043754578
7.70932149887085 7.417382717132568 0.220978245139122
7.664551734924316 7.404997825622559 0.2200002372264862
7.641333103179932 7.414191722869873 0.21926665306091309
7.596181869506836 7.401047706604004 0.2184131145477295
7.560311317443848 7.396926403045654 0.21718162298202515
7.535484313964844 7.404026031494141 0.21691611409187317
7.497474193572998 7.397320747375488 0.21561914682388306
7.459418296813965 7.390565872192383 0.21496719121932983
7.437509059906006 7.400228500366211 0.21465903520584106
7.4059271812438965 7.399634838104248 0.2136869728565216
7.3812079429626465 7.406330108642578 0.21329350769519806
7.337567329406738 7.393162727355957 0.21196968853473663
7.318606376647949 7.404911041259766 0.21187090873718262
7.280655860900879 7.397873878479004 0.21059031784534454
7.264792442321777 7.41246223449707 0.21057915687561035
7.215205192565918 7.392673015594482 0.21008744835853577
7.191795349121094 7.400067329406738 0.20973841845989227
7.150361061096191 7.388046741485596 0.20847538113594055
7.130535125732422 7.398404121398926 0.20822197198867798
7.088146209716797 7.385753154754639 0.20694033801555634
7.074437618255615 7.40233850479126 0.20699277520179749
7.029487609863281 7.386651039123535 0.20551197230815887
7.006951808929443 7.393633842468262 0.20530620217323303
6.9673237800598145 7.382625102996826 0.20396935939788818
6.909254550933838 7.382957458496094 0.2025621384382248
6.887568950653076 7.390648365020752 0.202376127243042
6.826141834259033 7.38668155670166 0.20086394250392914
6.728142738342285 7.373274803161621 0.1982462853193283
6.646523475646973 7.376433372497559 0.1964760720729828
6.552673816680908 7.3648576736450195 0.19398775696754456
6.495862007141113 7.36321496963501 0.19357933104038239
6.483538627624512 7.380785942077637 0.19367554783821106
6.424143314361572 7.374860763549805 0.19222348928451538
6.388457298278809 7.365420818328857 0.19102510809898376
6.325217247009277 7.354134559631348 0.18945318460464478
6.302004814147949 7.358703136444092 0.18922725319862366
6.2506303787231445 7.360511779785156 0.18801087141036987
6.213152885437012 7.347952842712402 0.18688340485095978
6.193909645080566 7.356286525726318 0.1866515427827835
6.161538600921631 7.348738193511963 0.18566367030143738
6.145072937011719 7.360796928405762 0.185522198677063
6.109922885894775 7.349826812744141 0.1844552755355835
6.0921149253845215 7.3601484298706055 0.18427398800849915
6.057826995849609 7.349721908569336 0.18323418498039246
6.032785415649414 7.350550651550293 0.18282024562358856
6.009033203125 7.3534016609191895 0.18211369216442108
5.985713005065918 7.355966567993164 0.18175509572029114
5.955920696258545 7.350644588470459 0.18085157871246338
5.939324378967285 7.362074375152588 0.18070939183235168
5.905207633972168 7.351133823394775 0.17967605590820312
5.8829145431518555 7.355323791503906 0.17935338616371155
5.853307247161865 7.349521636962891 0.17937308549880981
5.824064254760742 7.344212055206299 0.17882511019706726
5.798241138458252 7.343632221221924 0.17806211113929749
5.778726100921631 7.350226879119873 0.1774740219116211
5.747072219848633 7.34145450592041 0.17685368657112122
5.723418235778809 7.343317985534668 0.17615526914596558
5.696291446685791 7.340063571929932 0.1756763458251953
5.677156925201416 7.346834182739258 0.175105020403862
5.6500139236450195 7.343894004821777 0.17463481426239014
5.62166166305542 7.338689804077148 0.17377981543540955
5.59784460067749 7.3390960693359375 0.17339929938316345
5.5845184326171875 7.3539628982543945 0.1730181723833084
5.5407633781433105 7.3280558586120605 0.17202341556549072
5.527846336364746 7.343339920043945 0.17165760695934296
5.502053260803223 7.340730667114258 0.17121869325637817
5.473499298095703 7.3344879150390625 0.17035779356956482
5.444761753082275 7.328400611877441 0.16983366012573242
5.429897785186768 7.340353965759277 0.16940735280513763
5.406698226928711 7.3408050537109375 0.16860181093215942
5.384716987609863 7.343574047088623 0.16840219497680664
5.3568010330200195 7.337574481964111 0.16745564341545105
5.3313140869140625 7.334575653076172 0.16713212430477142
5.298026084899902 7.321425437927246 0.16602298617362976
5.283080101013184 7.332954406738281 0.16603338718414307
5.252442359924316 7.322420120239258 0.16555137932300568
5.209662437438965 7.327743053436279 0.16462229192256927
5.163817405700684 7.328417778015137 0.16360114514827728
5.142410755157471 7.330296993255615 0.16340386867523193
5.09454870223999 7.327515602111816 0.16231556236743927
5.06583309173584 7.318570613861084 0.16134321689605713
5.014521598815918 7.3100361824035645 0.16014577448368073
4.976446151733398 7.320431232452393 0.1593729704618454
4.9557390213012695 7.3226094245910645 0.15876396000385284
4.912761688232422 7.325379848480225 0.15783555805683136
4.8855977058410645 7.317657470703125 0.1573391854763031
4.8612589836120605 7.314797401428223 0.1566329449415207
4.838863849639893 7.314175605773926 0.1562928706407547
4.81925630569458 7.31749153137207 0.15572227537631989
4.787117004394531 7.302408695220947 0.1546490490436554
4.774258136749268 7.316057205200195 0.1547316610813141
4.749417304992676 7.311097145080566 0.15388110280036926
4.730053901672363 7.315252304077148 0.15375742316246033
4.697406768798828 7.298129558563232 0.1531916856765747
4.688908576965332 7.31903600692749 0.15299969911575317
4.660412788391113 7.308098793029785 0.15245851874351501
4.650161266326904 7.325511455535889 0.15219958126544952
4.609643459320068 7.2958831787109375 0.15085119009017944
4.600847244262695 7.315738677978516 0.15106500685214996
4.5743818283081055 7.307259559631348 0.15016815066337585
4.553954124450684 7.309098720550537 0.1500040739774704
4.524784088134766 7.29617166519165 0.14902156591415405
4.509900093078613 7.305978298187256 0.1490316390991211
4.489712238311768 7.307953834533691 0.14834822714328766
4.473546981811523 7.315840244293213 0.1483212113380432
4.446097373962402 7.304966449737549 0.1473916620016098
4.425607681274414 7.306400299072266 0.14681321382522583
4.396387577056885 7.292266845703125 0.14623691141605377
4.383087635040283 7.30525016784668 0.14589890837669373
4.355165481567383 7.293179512023926 0.14537088572978973
4.341119289398193 7.304049491882324 0.14499209821224213
4.315263748168945 7.295989036560059 0.1445443034172058
4.305146217346191 7.313477993011475 0.14430011808872223
4.266613960266113 7.2825469970703125 0.1434106081724167
4.260693550109863 7.308191299438477 0.1433258354663849
4.233981609344482 7.297133922576904 0.14242137968540192
4.214924335479736 7.299961566925049 0.1423003375530243
4.185649394989014 7.2843337059021 0.14141760766506195
4.1758904457092285 7.3023881912231445 0.14159873127937317
4.154866695404053 7.301567554473877 0.14090071618556976
4.138946533203125 7.3090434074401855 0.14046867191791534
4.106162071228027 7.286372184753418 0.139759361743927
4.091902256011963 7.297260761260986 0.13939914107322693
4.073133945465088 7.29946756362915 0.1391758918762207
4.051712512969971 7.296622276306152 0.13844865560531616
4.022368907928467 7.2803802490234375 0.13797570765018463
4.008608341217041 7.291177272796631 0.1375192403793335
3.985196352005005 7.284359455108643 0.13682663440704346
3.967852830886841 7.28959846496582 0.13666485249996185
3.9387736320495605 7.272072792053223 0.135776087641716
21.475143432617188 -4.5618743896484375 0.5600975155830383
34.09883499145508 -4.08062744140625 0.882983922958374
34.08029556274414 -3.861250638961792 0.8818556666374207
34.11137771606445 -3.7193381786346436 0.8822618722915649
34.10830307006836 -3.6473965644836426 0.8828220963478088
34.11919403076172 -3.5032918453216553 0.8827233910560608
34.14104461669922 -3.2887771129608154 0.8827387690544128
34.145912170410156 -3.072720766067505 0.8823484182357788
34.152183532714844 -2.8569633960723877 0.8820333480834961
34.449344635009766 -0.4171777367591858 0.8850778937339783
34.41868209838867 -0.2004108875989914 0.886345386505127
34.370357513427734 -0.055379994213581085 0.8833945393562317
33.68314743041992 0.0806071013212204 0.7799203395843506
33.67482376098633 0.15047003328800201 0.7797389030456543
33.63847351074219 1.1403515338897705 0.7772790789604187
33.46297836303711 1.3450605869293213 0.7693136930465698
33.43456268310547 1.484978199005127 0.7671922445297241
33.421024322509766 1.55387544631958 0.7669585347175598
33.40940856933594 1.6244404315948486 0.766743540763855
33.37997817993164 1.6928764581680298 0.7661667466163635
33.3757209777832 1.8336124420166016 0.7658127546310425
33.35831069946289 1.971556305885315 0.7655936479568481
33.35261154174805 2.0427262783050537 0.7639514207839966
33.356082916259766 2.1124279499053955 0.7641288638114929
33.34554672241211 2.182863473892212 0.7639807462692261
33.34544372558594 2.2527875900268555 0.7640842199325562
33.33462142944336 2.3215575218200684 0.7639458775520325
33.28878402709961 2.389834403991699 0.7625983357429504
33.30187225341797 2.460247755050659 0.7630008459091187
33.283531188964844 2.5299675464630127 0.7627153396606445
33.27983474731445 2.5995850563049316 0.7611413598060608
33.289268493652344 2.6698365211486816 0.7614744901657104
33.303287506103516 2.8121657371520996 0.7620480060577393
33.30149841308594 2.8816263675689697 0.762136697769165
33.24714660644531 3.018042802810669 0.7530440092086792
33.25983810424805 3.0904176235198975 0.7534675598144531
33.25221252441406 3.2293920516967773 0.753591775894165
32.99961853027344 3.835941791534424 0.7469285726547241
32.927452087402344 4.037934303283691 0.7438300251960754
32.85883712768555 4.1696319580078125 0.7426707148551941
32.817710876464844 4.23405647277832 0.7419431209564209
32.76670455932617 4.367844581604004 0.739605188369751
32.740943908691406 4.4335808753967285 0.7388094067573547
32.67719268798828 4.565169811248779 0.7377885580062866
32.65917205810547 4.631769180297852 0.7307155728340149
32.62897872924805 4.698189735412598 0.7302626371383667
32.58264923095703 4.760980606079102 0.7278664708137512
32.56525421142578 4.827482223510742 0.7276994585990906
32.521270751953125 4.891984462738037 0.7269531488418579
32.500526428222656 4.95785665512085 0.7262977361679077
32.46482849121094 5.021371841430664 0.7257269024848938
32.43899917602539 5.088355541229248 0.7238110303878784
32.42206954956055 5.154659748077393 0.7236635088920593
32.36909484863281 5.216734409332275 0.722733199596405
32.3433837890625 5.2818989753723145 0.7219808101654053
32.30276870727539 5.344111919403076 0.7213231921195984
32.254146575927734 5.406881332397461 0.7189103960990906
32.22655487060547 5.471035957336426 0.7185559868812561
32.20783996582031 5.538248062133789 0.7183831930160522
32.15799331665039 5.598830699920654 0.7171274423599243
32.1435546875 5.665068626403809 0.7170656323432922
32.045623779296875 5.7870635986328125 0.713855504989624
32.021141052246094 5.851284027099609 0.7131574749946594
31.966365814208984 5.980502605438232 0.7125002145767212
31.95829963684082 6.049259185791016 0.7110233306884766
31.881494522094727 6.172313213348389 0.7026947140693665
31.777315139770508 6.359659194946289 0.7012640237808228
31.67026138305664 6.5471649169921875 0.6978393793106079
31.583419799804688 6.736523151397705 0.6948710680007935
31.51691246032715 6.861233234405518 0.6940279603004456
31.451465606689453 6.915798187255859 0.6925002932548523
31.37851905822754 7.038003921508789 0.6900057792663574
31.37088394165039 7.10512113571167 0.6901393532752991
31.02427864074707 7.164107322692871 0.6811606287956238
30.767864227294922 7.172182559967041 0.6758532524108887
30.52579689025879 7.184133529663086 0.6708629131317139
30.251155853271484 7.186190605163574 0.664772093296051
29.98154640197754 7.187905311584473 0.6591654419898987
29.733806610107422 7.195315837860107 0.6525790691375732
29.4945125579834 7.202629089355469 0.6476473808288574
29.239330291748047 7.204641342163086 0.6375517845153809
28.99665641784668 7.210585117340088 0.6325922608375549
28.790565490722656 7.222809314727783 0.6269673109054565
28.509498596191406 7.215216159820557 0.6208062171936035
28.280569076538086 7.221596717834473 0.61617112159729
28.04762840270996 7.224146842956543 0.6114157438278198
27.81201171875 7.226472854614258 0.6052265167236328
27.581707000732422 7.228140354156494 0.60017991065979
27.346141815185547 7.227087020874023 0.5953803658485413
27.12803840637207 7.231481075286865 0.5909678936004639
26.904159545898438 7.23163366317749 0.5847200751304626
26.675012588500977 7.230813503265381 0.5800734758377075
26.462318420410156 7.23250150680542 0.5757799744606018
26.250469207763672 7.23317813873291 0.5701714158058167
25.819490432739258 7.231553554534912 0.5611414313316345
25.600156784057617 7.227449417114258 0.55669766664505
25.209022521972656 7.231788635253906 0.5472457408905029
25.011734008789062 7.232710838317871 0.5432890057563782
24.634489059448242 7.234888076782227 0.5341716408729553
24.43651580810547 7.233147621154785 0.5302188992500305
24.089855194091797 7.239747047424316 0.5202548503875732
23.55738067626953 7.242748260498047 0.5082184076309204
23.046327590942383 7.244513511657715 0.4978593587875366
22.74078941345215 7.253843307495117 0.4904435873031616
22.57923126220703 7.2542829513549805 0.4872822165489197
22.28536605834961 7.26323938369751 0.4801596999168396
22.121543884277344 7.260973930358887 0.47696635127067566
21.811519622802734 7.261109352111816 0.46952688694000244
21.66452407836914 7.262148380279541 0.4666856527328491
21.36975860595703 7.26359224319458 0.4596107304096222
21.24819564819336 7.271495342254639 0.4573119878768921
21.102914810180664 7.271878242492676 0.45451706647872925
20.956958770751953 7.270567893981934 0.45034554600715637
20.820484161376953 7.271662712097168 0.4477371573448181
20.677555084228516 7.271048069000244 0.44499796628952026
20.5369815826416 7.269832611083984 0.44125333428382874
20.41775131225586 7.2753400802612305 0.4366331100463867
20.271984100341797 7.272242069244385 0.43384796380996704
20.15105438232422 7.27609395980835 0.4315858483314514
19.998783111572266 7.269155979156494 0.4283922016620636
19.887863159179688 7.275882720947266 0.4253028333187103
19.73381805419922 7.265993595123291 0.4223341941833496
19.61383819580078 7.269153118133545 0.4198385179042816
19.48621368408203 7.268161296844482 0.4164176881313324
19.361738204956055 7.2686076164245605 0.4140879213809967
19.23870277404785 7.268282890319824 0.41152074933052063
19.101293563842773 7.261702537536621 0.4079238772392273
18.96628189086914 7.256509780883789 0.40536972880363464
18.850139617919922 7.257227897644043 0.40294888615608215
18.721473693847656 7.252336502075195 0.39955464005470276
18.4923038482666 7.253273963928223 0.39505535364151
18.371570587158203 7.250970363616943 0.39185190200805664
18.146156311035156 7.249459266662598 0.3874349594116211
18.02569007873535 7.245758533477783 0.38425412774086
17.817039489746094 7.248190879821777 0.3801945447921753
17.196224212646484 7.249917984008789 0.36548495292663574
16.87841033935547 7.2412309646606445 0.3585595488548279
16.702335357666016 7.249129295349121 0.35522961616516113
16.597352981567383 7.244781494140625 0.352438360452652
16.395282745361328 7.2386860847473145 0.34769749641418457
16.315135955810547 7.2440409660339355 0.34608983993530273
16.134870529174805 7.2455010414123535 0.3420509397983551
16.031898498535156 7.239275932312012 0.33996933698654175
15.948099136352539 7.24224853515625 0.3385120630264282
15.860282897949219 7.242349147796631 0.33589792251586914
15.771096229553223 7.241213798522949 0.33433184027671814
15.67139720916748 7.235773086547852 0.3325451612472534
15.580737113952637 7.233416557312012 0.32989293336868286
15.511062622070312 7.240232944488525 0.3287277817726135
15.425643920898438 7.24053430557251 0.3270334303379059
15.32981014251709 7.234411239624023 0.32535481452941895
15.257750511169434 7.239157199859619 0.32414114475250244
15.158260345458984 7.231663703918457 0.32133156061172485
15.086409568786621 7.235857009887695 0.3201237916946411
14.990533828735352 7.22907018661499 0.3182084560394287
14.924137115478516 7.235494136810303 0.3163052797317505
14.83128833770752 7.228529930114746 0.3146684765815735
14.758888244628906 7.232302188873291 0.3124525547027588
14.667831420898438 7.225467205047607 0.3108428120613098
14.603686332702637 7.232448101043701 0.30959978699684143
14.530670166015625 7.234104156494141 0.30758607387542725
14.45510482788086 7.233954429626465 0.306302547454834
14.363994598388672 7.2265424728393555 0.3037128746509552
14.300783157348633 7.232194900512695 0.30269575119018555
14.206587791442871 7.22161865234375 0.30081823468208313
14.060348510742188 7.2219557762146 0.2973998486995697
14.002787590026855 7.230013847351074 0.2964997887611389
13.836969375610352 7.217514514923096 0.2926782965660095
13.769949913024902 7.219797134399414 0.29082250595092773
13.221283912658691 7.2175822257995605 0.27955737709999084
13.025607109069824 7.21763277053833 0.27474963665008545
12.884405136108398 7.210267066955566 0.27221569418907166
12.836864471435547 7.218897819519043 0.2708103656768799
12.694628715515137 7.209447860717773 0.2675616443157196
12.654630661010742 7.221504211425781 0.26684656739234924
12.513619422912598 7.211065769195557 0.2636375427246094
12.456695556640625 7.212737560272217 0.26274609565734863
12.384716033935547 7.206222057342529 0.26068270206451416
12.332113265991211 7.210119724273682 0.2598850131034851
12.276894569396973 7.212062835693359 0.25817161798477173
12.2061767578125 7.205430507659912 0.25700533390045166
12.151987075805664 7.207695484161377 0.25599971413612366
12.095247268676758 7.208012580871582 0.25443705916404724
12.035162925720215 7.207091331481934 0.2533096671104431
11.97419261932373 7.204381942749023 0.252197802066803
11.920238494873047 7.205653190612793 0.2506949007511139
11.852778434753418 7.199491500854492 0.24943871796131134
11.806846618652344 7.20517635345459 0.24878114461898804
11.734725952148438 7.195409774780273 0.2467433512210846
11.689703941345215 7.201428413391113 0.24611683189868927
11.6483736038208 7.209356307983398 0.24471841752529144
11.584643363952637 7.204185485839844 0.24370208382606506
11.524901390075684 7.2002410888671875 0.24192705750465393
11.476411819458008 7.2038774490356445 0.2412337362766266
11.417320251464844 7.200057506561279 0.24013641476631165
11.376585960388184 7.207409381866455 0.23893557488918304
11.266862869262695 7.204569339752197 0.23645244538784027
11.20536994934082 7.198052406311035 0.23530499637126923
11.097800254821777 7.195155620574951 0.23287436366081238
11.052343368530273 7.199068069458008 0.23224565386772156
10.936044692993164 7.188333988189697 0.2296248972415924
10.895432472229004 7.194820404052734 0.22829139232635498
10.494860649108887 7.186128616333008 0.21945810317993164
10.356209754943848 7.1872358322143555 0.21656331419944763
10.264564514160156 7.18787145614624 0.21450960636138916
10.20600700378418 7.178667068481445 0.21298730373382568
10.107019424438477 7.172664165496826 0.2108011543750763
10.07412338256836 7.180991172790527 0.21027520298957825
10.026115417480469 7.178194046020508 0.20897775888442993
9.978707313537598 7.1765456199646 0.2081608921289444
9.930529594421387 7.173210144042969 0.2068687379360199
9.883426666259766 7.170444488525391 0.2060544490814209
9.84377670288086 7.173824787139893 0.20495015382766724
9.803930282592773 7.1759843826293945 0.2042723298072815
9.747171401977539 7.16627836227417 0.20340657234191895
9.707355499267578 7.168275356292725 0.20215314626693726
9.663500785827637 7.166927814483643 0.2015519142150879
9.625018119812012 7.170119762420654 0.20032952725887299
9.5784912109375 7.166603088378906 0.19951792061328888
9.538646697998047 7.1677165031433105 0.19769203662872314
9.493666648864746 7.165699005126953 0.19708251953125
9.453314781188965 7.166084289550781 0.19639700651168823
9.413900375366211 7.167016983032227 0.19516202807426453
9.361845016479492 7.159027099609375 0.19440466165542603
9.31342601776123 7.152679443359375 0.19298774003982544
9.285721778869629 7.162804126739502 0.19273249804973602
9.246756553649902 7.163590431213379 0.19151580333709717
9.188868522644043 7.14930534362793 0.19062857329845428
9.155637741088867 7.154900550842285 0.18954402208328247
9.12708568572998 7.163145065307617 0.1892540454864502
9.075006484985352 7.153468132019043 0.1877824068069458
9.043819427490234 7.159547328948975 0.18744565546512604
8.9965181350708 7.15252161026001 0.18606778979301453
8.953836441040039 7.1496758460998535 0.1853591799736023
8.922683715820312 7.155355930328369 0.18446987867355347
8.882702827453613 7.153632164001465 0.18380433320999146
8.756377220153809 7.143818378448486 0.18089020252227783
8.642133712768555 7.141572952270508 0.1786247044801712
8.52549934387207 7.135858535766602 0.174960657954216
8.351653099060059 7.14077615737915 0.17144285142421722
8.232063293457031 7.128595352172852 0.1685757339000702
8.163593292236328 7.12968635559082 0.16712649166584015
8.128763198852539 7.129056453704834 0.16657422482967377
8.083147048950195 7.118960380554199 0.16543245315551758
8.057501792907715 7.126814842224121 0.1650713086128235
8.020709037780762 7.124173164367676 0.16410166025161743
7.98541259765625 7.12252140045166 0.16354931890964508
7.9590253829956055 7.129392623901367 0.16266466677188873
7.919833183288574 7.124143600463867 0.1621709018945694
7.88505744934082 7.122520923614502 0.16111025214195251
7.856884956359863 7.1276092529296875 0.16084176301956177
7.812631607055664 7.117076396942139 0.15959268808364868
7.771909236907959 7.110239028930664 0.15908008813858032
7.742125511169434 7.112740516662598 0.15759830176830292
7.7119269371032715 7.114565372467041 0.15613798797130585
7.674676895141602 7.110428333282471 0.15568633377552032
7.647321701049805 7.114812850952148 0.15479600429534912
7.617773532867432 7.116870880126953 0.15436190366744995
7.576227188110352 7.108249664306641 0.15331779420375824
7.544619560241699 7.108268737792969 0.15285418927669525
7.519751071929932 7.114353179931641 0.15213936567306519
7.474920272827148 7.102083206176758 0.15141452848911285
7.44600248336792 7.104245185852051 0.15063153207302094
7.4172773361206055 7.106991291046143 0.15022483468055725
7.393836975097656 7.114198207855225 0.14941555261611938
7.357348442077637 7.108551979064941 0.1489788442850113
7.318901062011719 7.101519584655762 0.1478862166404724
7.2979302406311035 7.110811233520508 0.14776097238063812
7.268375873565674 7.112168312072754 0.14684399962425232
7.228418350219727 7.10249137878418 0.14621399343013763
7.193492889404297 7.097753047943115 0.14531338214874268
7.176578998565674 7.1112060546875 0.14514729380607605
7.138509750366211 7.102902889251709 0.1441895067691803
7.101065635681152 7.095210075378418 0.1436048150062561
7.077713489532471 7.101977825164795 0.14282111823558807
7.0091047286987305 7.09193754196167 0.1414262056350708
6.988080024719238 7.100762367248535 0.14031969010829926
6.922670364379883 7.093809604644775 0.13900460302829742
6.889225959777832 7.088910102844238 0.13802474737167358
6.825253486633301 7.082519054412842 0.13674110174179077
6.746391773223877 7.089345932006836 0.13532660901546478
6.6606597900390625 7.087954521179199 0.13330571353435516
6.607999801635742 7.091527938842773 0.13225451111793518
6.56264591217041 7.072223663330078 0.1311778575181961
6.51366662979126 7.079000473022461 0.130082368850708
6.490422248840332 7.08336067199707 0.12991569936275482
6.454473495483398 7.074231147766113 0.1289152354001999
6.42381477355957 7.070040702819824 0.12859497964382172
6.40119743347168 7.074767589569092 0.12785650789737701
6.368468284606934 7.068711280822754 0.1273820549249649
6.344248294830322 7.0712809562683105 0.12672798335552216
6.312912940979004 7.065976142883301 0.12627749145030975
6.284209251403809 7.063985824584961 0.1250734031200409
6.266101360321045 7.073134899139404 0.12453743070363998
6.224428176879883 7.055716514587402 0.12343373894691467
6.208641052246094 7.068021297454834 0.1234138160943985
6.183505058288574 7.069116592407227 0.12263210117816925
6.160760402679443 7.073371410369873 0.12236214429140091
6.132656097412109 7.070676326751709 0.12163975834846497
6.104093551635742 7.067501544952393 0.12125420570373535
6.077988624572754 7.067561626434326 0.12057486176490784
6.0448079109191895 7.05855655670166 0.12009749561548233
6.026846885681152 7.067395210266113 0.11946237087249756
6.004143714904785 7.071131706237793 0.11930958926677704
5.977122783660889 7.069169998168945 0.11850446462631226
5.952305793762207 7.069521903991699 0.11773495376110077
5.915667533874512 7.056367874145508 0.11730650812387466
5.892856121063232 7.05903959274292 0.11658766865730286
5.858794212341309 7.048611164093018 0.11620805412530899
5.846847057342529 7.06400728225708 0.11569724977016449
5.8125810623168945 7.05253267288208 0.11520090699195862
5.782708168029785 7.046724796295166 0.11446122080087662
5.764063835144043 7.05380392074585 0.11382859945297241
5.7437849044799805 7.059714317321777 0.1137184202671051
5.714709281921387 7.05382776260376 0.11288069188594818
5.680179595947266 7.041210651397705 0.11238189041614532
5.659231662750244 7.045810699462891 0.11159376055002213
5.645657539367676 7.058862209320068 0.11117234826087952
5.608974456787109 7.043091773986816 0.11063401401042938
5.5863566398620605 7.045344352722168 0.10993081331253052
5.56894588470459 7.053402900695801 0.10987143218517303
5.545926570892334 7.054478645324707 0.10916333645582199
5.515026569366455 7.0459208488464355 0.1083015650510788
5.487726211547852 7.041097164154053 0.10805456340312958
5.4422197341918945 7.0436906814575195 0.10719187557697296
5.389727592468262 7.036805152893066 0.10609746724367142
5.3695149421691895 7.040634632110596 0.10555444657802582
5.310502052307129 7.024410247802734 0.10433273762464523
5.296316623687744 7.035950660705566 0.10390250384807587
5.249452590942383 7.035161972045898 0.1030309647321701
5.208981037139893 7.042608737945557 0.10217590630054474
5.180336952209473 7.03436803817749 0.10147800296545029
5.141303062438965 7.043294906616211 0.10064870119094849
5.119631767272949 7.044257164001465 0.10050944983959198
5.071933746337891 7.040787220001221 0.0990937128663063
5.048740386962891 7.039346694946289 0.09881705790758133
5.014143943786621 7.022737979888916 0.09801892191171646
4.998523712158203 7.031671524047852 0.0974702388048172
4.981473922729492 7.03875732421875 0.09742012619972229
4.951613426208496 7.028171539306641 0.09660542011260986
4.9321465492248535 7.031486511230469 0.09640327095985413
4.900649070739746 7.017699718475342 0.09565990418195724
4.881776809692383 7.022399425506592 0.09546859562397003
4.855179786682129 7.015157222747803 0.09472016990184784
4.840376853942871 7.025064468383789 0.09429760277271271
4.81589412689209 7.021401882171631 0.09400259703397751
4.793629169464111 7.020127296447754 0.09333959966897964
4.775487899780273 7.025741100311279 0.09327572584152222
4.759979724884033 7.0342793464660645 0.09273776412010193
4.7309956550598145 7.022801399230957 0.09193509817123413
4.703847408294678 7.014795303344727 0.09170705080032349
4.686060905456543 7.019718647003174 0.09112691134214401
4.666054725646973 7.021449089050293 0.0910235047340393
4.644143581390381 7.020777702331543 0.09036706387996674
4.614389896392822 7.0073561668396 0.08997248113155365
4.595628261566162 7.010685920715332 0.08948255330324173
4.575986862182617 7.013162612915039 0.08887682110071182
4.544819355010986 6.99727201461792 0.08855947107076645
4.533202648162842 7.0119404792785645 0.08811262995004654
4.507654190063477 7.004260063171387 0.08749425411224365
4.492044448852539 7.012129783630371 0.08736853301525116
4.4647111892700195 7.002157211303711 0.08662203699350357
4.4537458419799805 7.017040252685547 0.08668853342533112
4.426973819732666 7.007150650024414 0.08594472706317902
4.40748405456543 7.009222984313965 0.08534964919090271
4.386312484741211 7.00778341293335 0.0852246880531311
4.368964195251465 7.013337135314941 0.08467001467943192
4.347935199737549 7.011960506439209 0.0844406932592392
4.317148208618164 7.028225421905518 0.0835130512714386
4.280606746673584 7.0012736320495605 0.08298744261264801
4.247021198272705 7.012531280517578 0.08240404725074768
4.21797513961792 6.997300624847412 0.08173034340143204
4.175753116607666 6.993704795837402 0.0808786153793335
4.154943466186523 6.9917755126953125 0.08036551624536514
4.134030818939209 6.99054479598999 0.08014802634716034
4.117394924163818 6.995506286621094 0.0796118974685669
4.102100849151611 7.002723693847656 0.07920248806476593
4.082141876220703 7.002910614013672 0.07900036871433258
4.063994407653809 7.00515079498291 0.07863962650299072
28.88667869567871 -9.26204776763916 0.6852519512176514
29.341100692749023 -9.204736709594727 0.6961401104927063
29.78204917907715 -9.137816429138184 0.7056134939193726
30.077701568603516 -9.090112686157227 0.7132320404052734
30.57272720336914 -9.03036117553711 0.7240049242973328
21.9420223236084 -5.101248741149902 0.5163060426712036
33.064247131347656 -7.468234062194824 0.7774043679237366
21.277591705322266 -4.571756839752197 0.4999377429485321
21.458778381347656 -4.5641279220581055 0.5041824579238892
21.475507736206055 -4.473235130310059 0.5041444897651672
21.451763153076172 -4.42186164855957 0.5033607482910156
21.639995574951172 -4.365736484527588 0.5084149837493896
21.726303100585938 -4.33624792098999 0.5102259516716003
21.92568588256836 -4.280104637145996 0.5144831538200378
33.71156692504883 -4.977612018585205 0.7896100878715515
24.24280548095703 -3.4236345291137695 0.5671809315681458
24.234905242919922 -3.3187882900238037 0.5666592717170715
24.700258255004883 -3.2244560718536377 0.5770543217658997
33.695491790771484 -4.327185153961182 0.7871755361557007
33.67844009399414 -4.252317428588867 0.7865641713142395
33.6907958984375 -4.182432174682617 0.7866529226303101
33.68516159057617 -4.110771179199219 0.7863130569458008
33.70115661621094 -4.040109634399414 0.7864802479743958
33.698387145996094 -3.96842622756958 0.7862268686294556
