VERSION .7
FIELDS x y z
SIZE 4 4 4
TYPE F F F
COUNT 1 1 1
WIDTH 861
HEIGHT 1
VIEWPOINT 0 0 0 1 0 0 0
POINTS 861
DATA ascii
6.546741962432861 7.580171585083008 0.139926016330719
6.512229919433594 7.572854995727539 0.1395336538553238
6.4939656257629395 7.583391189575195 0.13886988162994385
6.464186668395996 7.580986976623535 0.13834704458713531
6.435453414916992 7.579441070556641 0.13769197463989258
6.406534194946289 7.577195644378662 0.1368049532175064
6.375570774078369 7.572976589202881 0.13648520410060883
6.358341217041016 7.58475399017334 0.13585172593593597
6.317911148071289 7.568371772766113 0.1350971907377243
6.254957675933838 7.557428359985352 0.13345767557621002
6.2428507804870605 7.5747480392456055 0.13353484869003296
6.1837005615234375 7.567690372467041 0.13175657391548157
6.155657768249512 7.565949440002441 0.13149841129779816
6.094545841217041 7.555023193359375 0.13049612939357758
6.078309059143066 7.56756591796875 0.12915751338005066
6.018543720245361 7.558133602142334 0.12797297537326813
5.98842191696167 7.55241584777832 0.1270771026611328
5.940010070800781 7.556511878967285 0.12613721191883087
5.861437797546387 7.553818702697754 0.12430731952190399
5.772186279296875 7.536142349243164 0.12225787341594696
5.733095169067383 7.550766944885254 0.12152358889579773
5.694591522216797 7.532818794250488 0.12046574056148529
5.654027938842773 7.544645309448242 0.11969953775405884
5.616198539733887 7.527022361755371 0.11901768296957016
5.578604698181152 7.54234504699707 0.11795889586210251
5.541633605957031 7.525333404541016 0.11751075088977814
5.501363754272461 7.536558151245117 0.11654151976108551
5.477431297302246 7.53692626953125 0.11622743308544159
5.448598861694336 7.530668258666992 0.11524438858032227
5.420246124267578 7.524310111999512 0.11440816521644592
5.3990068435668945 7.528079509735107 0.11408083140850067
5.374914169311523 7.528027534484863 0.11355529725551605
5.350625991821289 7.527355194091797 0.11281231790781021
5.322531700134277 7.520833492279053 0.11233671009540558
5.299510955810547 7.521966934204102 0.11183586716651917
5.273470401763916 7.518461227416992 0.11105911433696747
5.255194187164307 7.526185512542725 0.11079712212085724
5.224465847015381 7.515355110168457 0.11012904345989227
5.19957160949707 7.513130187988281 0.1097278818488121
5.172586917877197 7.507996082305908 0.10914434492588043
5.155186653137207 7.516077995300293 0.10854993760585785
5.134881973266602 7.520251750946045 0.10824593901634216
5.104142189025879 7.509260177612305 0.10758613049983978
5.080051422119141 7.5072808265686035 0.10685305297374725
5.054539680480957 7.503449440002441 0.10644102841615677
5.035154819488525 7.5088701248168945 0.1060216948390007
5.008042335510254 7.502046585083008 0.10557142645120621
4.9803547859191895 7.495195388793945 0.10477569699287415
4.9605326652526855 7.499078750610352 0.10434293746948242
4.940761566162109 7.503354072570801 0.10405152291059494
4.918574333190918 7.504137992858887 0.10337071120738983
4.888951301574707 7.492811679840088 0.10293907672166824
4.868319988250732 7.495509147644043 0.10228979587554932
4.851954936981201 7.504985332489014 0.10227856040000916
4.820669174194336 7.490640640258789 0.10140403360128403
4.7925825119018555 7.481443881988525 0.10059832036495209
4.777303695678711 7.492406845092773 0.10061191022396088
4.730231761932373 7.4879608154296875 0.09920281171798706
4.707973003387451 7.487091064453125 0.09906042367219925
4.660675525665283 7.481609344482422 0.09765179455280304
4.63785457611084 7.479516983032227 0.09749911725521088
4.615810394287109 7.4795942306518555 0.09683366119861603
4.596736907958984 7.483390808105469 0.09622375667095184
4.575514316558838 7.48361873626709 0.09610384702682495
4.554159164428711 7.484569549560547 0.09545612335205078
4.523301124572754 7.468714714050293 0.09493499994277954
4.508707046508789 7.479602813720703 0.0946200042963028
4.487211227416992 7.480037212371826 0.09397172182798386
4.464358806610107 7.477072715759277 0.09361867606639862
4.440323829650879 7.472002029418945 0.09310908615589142
4.420921802520752 7.475670337677002 0.0925065279006958
4.400413513183594 7.4763593673706055 0.09240065515041351
4.381196975708008 7.480218410491943 0.09180355072021484
4.354508876800537 7.470155715942383 0.09123896062374115
4.334512233734131 7.471445083618164 0.09094703197479248
4.30742073059082 7.461424350738525 0.09038497507572174
14.108434677124023 8.408380508422852 0.44694817066192627
11.523946762084961 8.251144409179688 0.37076836824417114
11.3651704788208 8.246026992797852 0.36646348237991333
11.254722595214844 8.23846435546875 0.3626336455345154
11.199928283691406 8.23410415649414 0.3611007332801819
11.103862762451172 8.235740661621094 0.35827401280403137
11.04986572265625 8.231289863586426 0.35655611753463745
10.946985244750977 8.22656536102295 0.35319942235946655
10.888372421264648 8.21792984008789 0.3518581688404083
10.786011695861816 8.212201118469238 0.3488365411758423
10.732587814331055 8.206764221191406 0.34683382511138916
10.637483596801758 8.2052640914917 0.3440548777580261
10.583678245544434 8.198847770690918 0.342864453792572
10.477148056030273 8.187156677246094 0.3397153615951538
10.441047668457031 8.193902969360352 0.3382833003997803
10.340402603149414 8.18552017211914 0.33502960205078125
10.186551094055176 8.168421745300293 0.3311045169830322
9.20803451538086 8.109835624694824 0.3018754720687866
9.08393669128418 8.102509498596191 0.29872584342956543
8.966626167297363 8.099661827087402 0.2950623631477356
8.88630485534668 8.095327377319336 0.2928062677383423
8.849644660949707 8.095599174499512 0.29142045974731445
8.762475967407227 8.083906173706055 0.2889373004436493
8.722566604614258 8.08102798461914 0.28772419691085815
8.64125919342041 8.073224067687988 0.2854325771331787
8.603771209716797 8.072074890136719 0.2844821512699127
8.562695503234863 8.06762981414795 0.2832406759262085
8.530050277709961 8.070352554321289 0.28244316577911377
8.478918075561523 8.055756568908691 0.2805952727794647
8.458702087402344 8.07063102722168 0.28004568815231323
8.402874946594238 8.051111221313477 0.27848875522613525
8.382925033569336 8.065428733825684 0.2779386043548584
8.330322265625 8.048789024353027 0.2764909565448761
8.300969123840332 8.054171562194824 0.27537137269973755
8.252914428710938 8.040863037109375 0.27362582087516785
8.229716300964355 8.052233695983887 0.27298036217689514
8.155284881591797 8.046910285949707 0.27093538641929626
8.114387512207031 8.039857864379883 0.2698655128479004
8.04786491394043 8.041393280029297 0.2676514983177185
8.004135131835938 8.030962944030762 0.26648980379104614
7.939715385437012 8.033711433410645 0.26477888226509094
7.823444366455078 8.016239166259766 0.26120832562446594
7.737428665161133 8.028463363647461 0.2589111924171448
7.6197309494018555 8.0064697265625 0.25530076026916504
7.225302696228027 7.985755920410156 0.2437368631362915
7.131964683532715 7.982898712158203 0.24097010493278503
7.065901756286621 7.976310729980469 0.2392212152481079
7.030806064605713 7.969954490661621 0.23859016597270966
7.006386756896973 7.975574016571045 0.23767751455307007
6.966182708740234 7.964056968688965 0.23624269664287567
6.936374664306641 7.963265419006348 0.2357926070690155
6.9091291427612305 7.965301513671875 0.23478126525878906
6.873889446258545 7.958960056304932 0.23416322469711304
6.842128753662109 7.955499649047852 0.23300129175186157
6.811046600341797 7.952683448791504 0.23186630010604858
6.781610488891602 7.95263671875 0.23143994808197021
6.753627777099609 7.95319128036499 0.23041239380836487
6.7194294929504395 7.946897506713867 0.2298167645931244
6.688972473144531 7.944623947143555 0.2289476990699768
6.658692359924316 7.942052841186523 0.22705046832561493
6.625814437866211 7.937215805053711 0.22650794684886932
6.604130268096924 7.944694519042969 0.22569982707500458
6.572107791900635 7.939631462097168 0.22493107616901398
6.5371880531311035 7.931880474090576 0.223923459649086
6.510734558105469 7.933269500732422 0.22295436263084412
6.488658905029297 7.939912796020508 0.22276180982589722
6.448564529418945 7.925344944000244 0.2213411182165146
6.414921760559082 7.917501926422119 0.2201286405324936
6.393365859985352 7.925080299377441 0.21996402740478516
6.368021011352539 7.927640914916992 0.2190423607826233
6.344618320465088 7.932165622711182 0.21880322694778442
6.308690071105957 7.921510219573975 0.217521533370018
6.284746170043945 7.925509452819824 0.21665306389331818
6.250986099243164 7.916626453399658 0.21605323255062103
6.226016998291016 7.919730186462402 0.2151593267917633
6.191709995269775 7.909818649291992 0.2139280140399933
6.171266555786133 7.918121814727783 0.21379873156547546
6.109988212585449 7.907337188720703 0.2122071087360382
6.084416389465332 7.9087324142456055 0.21128946542739868
6.019335746765137 7.892070293426514 0.20956608653068542
5.949458599090576 7.902997970581055 0.20712172985076904
5.863033294677734 7.891578674316406 0.20464584231376648
5.787971496582031 7.893729209899902 0.20255860686302185
5.695034027099609 7.870261192321777 0.19984734058380127
5.62281608581543 7.874218940734863 0.19786468148231506
5.572760581970215 7.874030113220215 0.19667941331863403
5.540291786193848 7.863086700439453 0.19589492678642273
5.493168830871582 7.865975379943848 0.19444012641906738
5.472372055053711 7.8713250160217285 0.1940685212612152
5.442879676818848 7.864313125610352 0.19324669241905212
5.422590255737305 7.869847297668457 0.19252221286296844
5.387651443481445 7.854360580444336 0.19186639785766602
5.374038219451904 7.870119571685791 0.19160979986190796
5.340995788574219 7.856690406799316 0.19028808176517487
5.320432186126709 7.861868381500244 0.18992497026920319
5.293209552764893 7.857364654541016 0.18896734714508057
5.267277240753174 7.853995323181152 0.18826249241828918
5.235356330871582 7.841914653778076 0.18749269843101501
5.214066505432129 7.845881462097168 0.18674853444099426
5.187345504760742 7.841314315795898 0.1860230267047882
5.165747165679932 7.844641208648682 0.18562597036361694
5.137918472290039 7.837742805480957 0.18485237658023834
5.113382339477539 7.836121559143066 0.18398939073085785
5.0911784172058105 7.8382391929626465 0.1835716962814331
5.070084571838379 7.841337203979492 0.1830415427684784
5.039492607116699 7.830005645751953 0.18196167051792145
5.016977787017822 7.831340789794922 0.181532621383667
4.990450382232666 7.826033592224121 0.18081241846084595
4.969983100891113 7.8297319412231445 0.18044698238372803
4.946194648742676 7.82877254486084 0.17961758375167847
4.927423477172852 7.835420608520508 0.17917975783348083
4.898552894592285 7.826163291931152 0.1785193383693695
4.87091588973999 7.818037033081055 0.1775406301021576
4.846770763397217 7.815773010253906 0.1769067645072937
4.828899383544922 7.823822021484375 0.1766473799943924
4.794482707977295 7.804248809814453 0.17542146146297455
4.784019947052002 7.823975563049316 0.17549818754196167
4.758153915405273 7.818751335144043 0.17459650337696075
4.731375217437744 7.811203479766846 0.17420974373817444
4.705010414123535 7.805254936218262 0.17329448461532593
4.68069314956665 7.801485061645508 0.1724396049976349
4.656937122344971 7.798527717590332 0.17216026782989502
4.633352279663086 7.796822547912598 0.17135044932365417
4.610301494598389 7.794821739196777 0.17054258286952972
4.590919017791748 7.799349784851074 0.17043063044548035
4.559410095214844 7.78339958190918 0.16931992769241333
4.54288387298584 7.7922210693359375 0.16875579953193665
4.5064473152160645 7.805083274841309 0.1680714190006256
4.474359512329102 7.78678035736084 0.16692900657653809
4.453717231750488 7.789328575134277 0.16677893698215485
4.432010650634766 7.788830757141113 0.16602490842342377
4.411993980407715 7.791223526000977 0.1653342843055725
4.382547378540039 7.777927398681641 0.1648513823747635
4.36974573135376 7.792976379394531 0.1644328236579895
4.3411102294921875 7.779707908630371 0.16341982781887054
4.322231769561768 7.784913063049316 0.1631304919719696
4.295857906341553 7.775387763977051 0.16240304708480835
4.256609916687012 7.781591415405273 0.16141316294670105
4.233043670654297 7.776796340942383 0.16099828481674194
4.20723819732666 7.768866539001465 0.16044260561466217
4.188535690307617 7.772809028625488 0.15980520844459534
36.75058364868164 1.561563491821289 1.0526679754257202
36.571163177490234 1.7843290567398071 1.046431541442871
36.53601837158203 1.9368817806243896 1.0448102951049805
36.50685501098633 2.011315107345581 1.0440963506698608
36.44659423828125 2.1619887351989746 1.042627215385437
36.44468688964844 2.2377820014953613 1.0413082838058472
36.38639831542969 2.388059139251709 1.0407588481903076
36.28812026977539 2.6108200550079346 1.038394808769226
36.2182502746582 2.8347675800323486 1.0368878841400146
35.531986236572266 4.667042255401611 1.0143702030181885
35.44838333129883 4.882944583892822 1.0120214223861694
35.33563995361328 5.019140243530273 1.0080342292785645
35.29763412475586 5.088493347167969 1.0064311027526855
35.23301315307617 5.230734825134277 1.0052087306976318
35.224021911621094 5.304131507873535 1.0039037466049194
35.073394775390625 5.43260383605957 0.9994415044784546
35.028472900390625 5.500104904174805 0.9984840154647827
34.91173553466797 5.632527828216553 0.9944742918014526
34.86869812011719 5.69985294342041 0.9935824275016785
34.769439697265625 5.834072113037109 0.993599534034729
34.59941864013672 6.029419898986816 0.9876598715782166
34.43055725097656 6.2232666015625 0.9826002717018127
33.30107498168945 7.622542381286621 0.9476604461669922
33.15825653076172 7.809545040130615 0.9436728954315186
33.07796096801758 7.9378132820129395 0.9402523040771484
33.040958404541016 8.001484870910645 0.9396699666976929
32.94218444824219 8.12458610534668 0.9370508193969727
32.865814208984375 8.178138732910156 0.9340644478797913
32.776100158691406 8.302549362182617 0.9317269325256348
32.733768463134766 8.364152908325195 0.9297230839729309
32.602294921875 8.476983070373535 0.926224946975708
32.556129455566406 8.53714370727539 0.9241268634796143
32.43283462524414 8.650957107543945 0.9208868741989136
32.36473083496094 8.706100463867188 0.9181939363479614
32.25221633911133 8.820329666137695 0.9152719974517822
31.532669067382812 8.836977005004883 0.8944104313850403
26.35023307800293 8.715224266052246 0.7438333034515381
25.77075958251953 8.70433235168457 0.7273499965667725
25.355743408203125 8.682645797729492 0.7150197625160217
25.150005340576172 8.67119026184082 0.7087130546569824
24.765472412109375 8.6548433303833 0.69829261302948
24.582448959350586 8.648797035217285 0.6926463842391968
24.241342544555664 8.643685340881348 0.6824826598167419
24.064037322998047 8.636791229248047 0.6774095892906189
23.886863708496094 8.630230903625488 0.6729341149330139
23.701297760009766 8.61944580078125 0.6672503352165222
23.529817581176758 8.612412452697754 0.6623518466949463
23.375045776367188 8.611825942993164 0.658505916595459
23.204421997070312 8.60429859161377 0.6526947617530823
23.03841781616211 8.59817123413086 0.6485351324081421
22.71561050415039 8.58586597442627 0.6389678120613098
22.557119369506836 8.580487251281738 0.6340952515602112
22.239221572875977 8.565970420837402 0.6250698566436768
22.098247528076172 8.565346717834473 0.6201676726341248
21.792728424072266 8.551705360412598 0.6111598610877991
19.252857208251953 8.455964088439941 0.5386850833892822
18.887739181518555 8.437642097473145 0.5286793112754822
18.651975631713867 8.426725387573242 0.5218188762664795
18.54217529296875 8.423495292663574 0.5192353129386902
18.321434020996094 8.416478157043457 0.5128103494644165
18.20285415649414 8.408297538757324 0.5095256567001343
17.986970901489258 8.400171279907227 0.5032511949539185
17.87521743774414 8.393707275390625 0.4998604655265808
17.662303924560547 8.384199142456055 0.49369025230407715
17.557323455810547 8.379547119140625 0.49080169200897217
17.462522506713867 8.379658699035645 0.48790547251701355
17.355518341064453 8.372665405273438 0.4854000508785248
17.244253158569336 8.363633155822754 0.48160743713378906
17.143478393554688 8.359557151794434 0.4792852997779846
17.049665451049805 8.358132362365723 0.47599220275878906
16.947187423706055 8.352365493774414 0.4736226201057434
16.843814849853516 8.3449068069458 0.4700687527656555
16.756141662597656 8.345301628112793 0.468109130859375
16.660173416137695 8.341493606567383 0.46478182077407837
16.553878784179688 8.331283569335938 0.46229758858680725
16.46039390563965 8.32756233215332 0.45975199341773987
16.36048698425293 8.320489883422852 0.45675018429756165
16.08193588256836 8.306486129760742 0.4489024579524994
15.790629386901855 8.282188415527344 0.4404463469982147
14.517358779907227 8.2073392868042 0.40379083156585693
14.275132179260254 8.189247131347656 0.398100882768631
14.052350997924805 8.179286003112793 0.3919486105442047
13.89633560180664 8.16701889038086 0.38756778836250305
13.826066017150879 8.164369583129883 0.38546812534332275
13.68154525756836 8.15693473815918 0.38142096996307373
13.617786407470703 8.157272338867188 0.37914469838142395
13.463136672973633 8.141874313354492 0.3748302757740021
13.403982162475586 8.144137382507324 0.3732929229736328
13.336414337158203 8.142141342163086 0.37129831314086914
13.260381698608398 8.133545875549316 0.3692951202392578
13.201093673706055 8.135345458984375 0.36752620339393616
13.129755020141602 8.129717826843262 0.36507463455200195
13.050864219665527 8.11838436126709 0.3633490204811096
12.986682891845703 8.116299629211426 0.36109986901283264
12.925041198730469 8.11581039428711 0.35951289534568787
12.847904205322266 8.104598045349121 0.35725390911102295
12.79763412475586 8.111156463623047 0.3559914231300354
12.727304458618164 8.10365104675293 0.3541557490825653
12.67064094543457 8.104575157165527 0.35212787985801697
12.597475051879883 8.095748901367188 0.3505748510360718
12.533708572387695 8.091568946838379 0.3483566641807556
12.39647102355957 8.077139854431152 0.3445807695388794
12.34975814819336 8.083260536193848 0.34284621477127075
12.213949203491211 8.068048477172852 0.3391217589378357
12.16364860534668 8.071126937866211 0.3381895422935486
12.050098419189453 8.06907844543457 0.3347594738006592
11.867012023925781 8.05499267578125 0.32964786887168884
11.692405700683594 8.04430866241455 0.3244616389274597
11.361408233642578 8.029938697814941 0.31466859579086304
11.195079803466797 8.018390655517578 0.3108208477497101
11.02780532836914 8.003950119018555 0.30621612071990967
10.86863899230957 7.993227005004883 0.3015373647212982
10.770002365112305 7.990411758422852 0.29860439896583557
10.727783203125 7.994038105010986 0.2973840832710266
10.668086051940918 7.984039306640625 0.2958838641643524
10.620287895202637 7.983718395233154 0.2945217490196228
10.56314468383789 7.975122451782227 0.2925882339477539
10.522897720336914 7.979074478149414 0.2916303873062134
10.472269058227539 7.97597599029541 0.2901952266693115
10.423163414001465 7.972806930541992 0.2884921431541443
10.37266731262207 7.968733787536621 0.28725501894950867
10.32878303527832 7.96978759765625 0.2860078513622284
10.282233238220215 7.967966079711914 0.2843817472457886
10.235718727111816 7.96697473526001 0.28356602787971497
10.177302360534668 7.955476760864258 0.28161680698394775
10.137396812438965 7.958229064941406 0.28096967935562134
10.085599899291992 7.952448844909668 0.2792174220085144
10.040395736694336 7.950650215148926 0.2784225344657898
9.988457679748535 7.9439263343811035 0.27666711807250977
9.954187393188477 7.950822353363037 0.2754040062427521
9.900825500488281 7.941909313201904 0.27438169717788696
9.852764129638672 7.937636375427246 0.27274349331855774
9.80900764465332 7.936379432678223 0.2717024087905884
9.767685890197754 7.936542510986328 0.270530641078949
9.726585388183594 7.9377031326293945 0.26909783482551575
9.681992530822754 7.934840679168701 0.26803281903266907
9.635948181152344 7.9305901527404785 0.266735315322876
9.597198486328125 7.93314790725708 0.2653699219226837
9.547335624694824 7.925337791442871 0.26416367292404175
9.503480911254883 7.922918319702148 0.2629408538341522
9.450333595275879 7.912276268005371 0.2611747086048126
9.413576126098633 7.914788246154785 0.26061174273490906
9.36721134185791 7.909656524658203 0.2590416669845581
9.288068771362305 7.909463405609131 0.2570178210735321
9.247300148010254 7.90852165222168 0.2556080222129822
9.157920837402344 7.898490905761719 0.25330954790115356
9.04159164428711 7.897822856903076 0.2495366632938385
8.715316772460938 7.875187873840332 0.24029749631881714
8.607786178588867 7.876884460449219 0.23726911842823029
8.5487699508667 7.85589599609375 0.23538710176944733
8.472652435302734 7.851659774780273 0.23348873853683472
8.453245162963867 7.866704940795898 0.23270441591739655
8.364904403686523 7.850490570068359 0.23004065454006195
8.32528305053711 7.84586238861084 0.22913828492164612
8.28983211517334 7.845598220825195 0.2281811386346817
8.25432014465332 7.844884872436523 0.22696197032928467
8.219133377075195 7.843968391418457 0.2261819839477539
8.17146110534668 7.831538677215576 0.22489191591739655
8.141458511352539 7.835620880126953 0.22382834553718567
8.116289138793945 7.843905925750732 0.22246304154396057
8.069609642028809 7.831843376159668 0.22163671255111694
8.033177375793457 7.829280853271484 0.22040164470672607
7.996838569641113 7.826287746429443 0.21916702389717102
7.964355945587158 7.827520370483398 0.21830415725708008
7.9239678382873535 7.8205766677856445 0.21739043295383453
7.892039775848389 7.8214616775512695 0.2162816822528839
7.8576765060424805 7.820748329162598 0.215121328830719
7.810742378234863 7.806367874145508 0.21427780389785767
7.787128448486328 7.815732955932617 0.2134101390838623
7.749577522277832 7.810750961303711 0.21215660870075226
7.726579666137695 7.8199615478515625 0.21155238151550293
7.6800384521484375 7.805785179138184 0.21047760546207428
7.647702217102051 7.805609703063965 0.20937278866767883
7.618711471557617 7.808964729309082 0.20836463570594788
7.592062473297119 7.814383506774902 0.20808440446853638
7.547918319702148 7.801273345947266 0.2066541165113449
7.521134853363037 7.806537628173828 0.20571045577526093
7.482818603515625 7.79945182800293 0.2046966701745987
7.444067478179932 7.7913618087768555 0.20383131504058838
7.409043312072754 7.7875871658325195 0.20266732573509216
7.381217956542969 7.791008472442627 0.20169630646705627
7.348182678222656 7.788447380065918 0.20082736015319824
7.317859172821045 7.789220333099365 0.20020291209220886
7.276100158691406 7.777405261993408 0.19869321584701538
7.251175880432129 7.783075332641602 0.19780388474464417
7.224981784820557 7.787895202636719 0.1972951889038086
7.186978340148926 7.779603481292725 0.19605493545532227
7.1548051834106445 7.7776899337768555 0.195222407579422
7.0833892822265625 7.764843463897705 0.19327424466609955
7.062458038330078 7.774836540222168 0.19250918924808502
6.961973190307617 7.761701583862305 0.18982312083244324
6.86252498626709 7.748278617858887 0.1867772489786148
6.777477264404297 7.749871253967285 0.18452779948711395
6.719742774963379 7.7494730949401855 0.18298141658306122
6.6302690505981445 7.74411678314209 0.1802336871623993
6.579496383666992 7.75064754486084 0.1791185587644577
6.5354766845703125 7.731255531311035 0.17735198140144348
6.482935905456543 7.7349395751953125 0.17596133053302765
6.451408386230469 7.730208873748779 0.1751612424850464
6.412347793579102 7.715897560119629 0.17392253875732422
6.395352363586426 7.7286176681518555 0.17329174280166626
6.356287956237793 7.7143049240112305 0.1724424660205841
6.341394424438477 7.728854179382324 0.17186316847801208
6.299992561340332 7.71157169342041 0.17080217599868774
6.273043155670166 7.711549282073975 0.16990287601947784
6.256664276123047 7.724102973937988 0.16966569423675537
6.223858833312988 7.71688985824585 0.16861271858215332
6.196309566497803 7.715804100036621 0.16792669892311096
6.176260471343994 7.724218368530273 0.1672215759754181
6.13945198059082 7.710936546325684 0.1660560667514801
6.114049911499023 7.712182998657227 0.1655811071395874
6.074828147888184 7.696063995361328 0.16458475589752197
6.059303283691406 7.709237098693848 0.1639985740184784
6.027154922485352 7.701539039611816 0.16296838223934174
5.995132923126221 7.694068908691406 0.16231843829154968
5.974213123321533 7.700489521026611 0.161594420671463
5.944345474243164 7.694910049438477 0.16084685921669006
5.918254375457764 7.694693565368652 0.15998788177967072
5.888389587402344 7.6891937255859375 0.15939442813396454
5.864435195922852 7.690924167633057 0.15843991935253143
5.8367533683776855 7.688264846801758 0.15754137933254242
5.804276943206787 7.678885459899902 0.15651151537895203
5.783491134643555 7.685094833374023 0.15580101311206818
5.760597229003906 7.687828063964844 0.1553940773010254
5.733620643615723 7.685374736785889 0.15473493933677673
5.704999923706055 7.680826187133789 0.15381655097007751
5.680326461791992 7.680854797363281 0.15299703180789948
5.645819664001465 7.667792320251465 0.15228283405303955
5.631917476654053 7.682866096496582 0.1517639011144638
5.598424911499023 7.6705098152160645 0.15092742443084717
5.578803539276123 7.678016662597656 0.15026098489761353
5.545174598693848 7.665132999420166 0.14920561015605927
5.5193281173706055 7.663210868835449 0.14872650802135468
5.4913716316223145 7.65847110748291 0.14804968237876892
5.467032432556152 7.6580352783203125 0.14724679291248322
5.435986518859863 7.648430824279785 0.14626988768577576
5.419110298156738 7.658912181854248 0.1456781029701233
5.388884544372559 7.649813175201416 0.14507773518562317
5.367552280426025 7.653587341308594 0.14457878470420837
5.344698429107666 7.655363082885742 0.1438285857439041
5.289690017700195 7.644343376159668 0.14207057654857635
5.272034168243408 7.653343677520752 0.14203041791915894
5.221429347991943 7.648632049560547 0.14004942774772644
5.19426155090332 7.642847061157227 0.13953420519828796
5.148775100708008 7.644976615905762 0.13826191425323486
5.121806621551514 7.639101028442383 0.13740120828151703
5.0656352043151855 7.624547481536865 0.135986328125
5.043628215789795 7.625709533691406 0.13526195287704468
4.995970726013184 7.623235702514648 0.13393950462341309
4.978111743927002 7.630476951599121 0.1333291381597519
4.9295549392700195 7.62603759765625 0.13212504982948303
4.8778839111328125 7.616266250610352 0.1307012438774109
4.851065635681152 7.609114646911621 0.12985529005527496
4.83628511428833 7.621158123016357 0.1296801120042801
4.806239604949951 7.609310150146484 0.12875594198703766
4.781314849853516 7.6047563552856445 0.12796224653720856
4.766792297363281 7.617077827453613 0.127658411860466
4.746445655822754 7.620328903198242 0.12699651718139648
4.702326774597168 7.584524631500244 0.12569235265254974
4.696242332458496 7.610967636108398 0.12575910985469818
4.671480178833008 7.606112480163574 0.12517741322517395
4.642512798309326 7.594241619110107 0.12428077310323715
4.617588996887207 7.58985710144043 0.12384331226348877
4.60069465637207 7.597550868988037 0.12327069789171219
4.57636833190918 7.592896461486816 0.12249943614006042
4.549750804901123 7.5853376388549805 0.121680349111557
4.528935432434082 7.58627986907959 0.12120799720287323
4.509848117828369 7.590446472167969 0.12058417499065399
4.481667995452881 7.579447269439697 0.12005665898323059
4.459015369415283 7.576982498168945 0.11933399736881256
4.445024490356445 7.589592933654785 0.11884872615337372
4.425152778625488 7.592411041259766 0.1182095855474472
4.390664577484131 7.569300651550293 0.11737431585788727
4.368324279785156 7.567989349365234 0.11667443811893463
18.052669525146484 -9.399715423583984 0.5332096815109253
21.185455322265625 -9.017561912536621 0.6244708299636841
21.663772583007812 -8.953710556030273 0.6377319097518921
21.967214584350586 -8.917850494384766 0.6493475437164307
25.808307647705078 -8.389220237731934 0.7584021091461182
26.19061279296875 -8.33181381225586 0.7697607278823853
26.45842933654785 -8.294469833374023 0.7766028642654419
26.869497299194336 -8.238179206848145 0.7888475656509399
27.268939971923828 -8.1734619140625 0.8007909059524536
20.955223083496094 -4.682978630065918 0.6123900413513184
20.483522415161133 -4.487087249755859 0.5985177159309387
22.450393676757812 -4.622928619384766 0.6556310653686523
38.181949615478516 -5.139608860015869 1.1051793098449707
38.17620086669922 -4.89469051361084 1.1049871444702148
38.19107437133789 -4.652750015258789 1.1060116291046143
38.192508697509766 -4.489775657653809 1.1054964065551758
38.15574645996094 -4.40519905090332 1.1041667461395264
38.113929748535156 -4.237795829772949 1.1024302244186401
37.73103332519531 -1.7243494987487793 1.0849347114562988
37.676597595214844 -1.484574794769287 1.0830823183059692
37.59172439575195 -1.2445940971374512 1.0809627771377563
37.54680633544922 -1.0848290920257568 1.079529881477356
37.55405044555664 -1.0070455074310303 1.0782443284988403
37.51544189453125 -0.8479207158088684 1.0770254135131836
37.4160270690918 -0.6103631258010864 1.0740389823913574
44.6055793762207 0.20623809099197388 1.6454823017120361
43.41535186767578 3.030388355255127 1.5974899530410767
43.28718566894531 3.2046873569488525 1.5932533740997314
43.233734130859375 3.29095458984375 1.5915336608886719
43.20654296875 3.4719583988189697 1.590066909790039
43.17973327636719 3.560004711151123 1.5893468856811523
43.116661071777344 3.647555351257324 1.5856544971466064
43.103981018066406 3.7365877628326416 1.58547043800354
43.047088623046875 4.004463195800781 1.5852618217468262
42.05534362792969 6.874626636505127 1.5488808155059814
41.96323776245117 6.949008941650391 1.5443916320800781
41.83149719238281 7.1083221435546875 1.5396592617034912
41.74313735961914 7.182464599609375 1.5369532108306885
41.65180206298828 7.258395195007324 1.5325422286987305
41.57502365112305 7.333944320678711 1.530273675918579
41.48914337158203 7.407604217529297 1.5267086029052734
41.42831802368164 7.488101482391357 1.5250563621520996
41.34596633911133 7.561853885650635 1.520993709564209
41.30286407470703 7.642581462860107 1.519989013671875
41.1937255859375 7.8019514083862305 1.5162086486816406
40.97966766357422 8.028596878051758 1.5120694637298584
38.9189453125 10.205653190612793 1.4365928173065186
38.48968505859375 10.178504943847656 1.4206185340881348
37.73594665527344 10.149405479431152 1.3928663730621338
37.38283920288086 10.137670516967773 1.379723310470581
37.035194396972656 10.128376007080078 1.3662164211273193
36.68180847167969 10.113594055175781 1.353952169418335
36.3469123840332 10.102465629577637 1.3415004014968872
36.02061462402344 10.094715118408203 1.32881760597229
35.68014907836914 10.079205513000488 1.3170263767242432
35.340248107910156 10.062424659729004 1.3044099807739258
34.718345642089844 10.043608665466309 1.2816213369369507
34.372867584228516 10.022439956665039 1.2688308954238892
33.786014556884766 10.004495620727539 1.2473496198654175
32.90694046020508 9.969623565673828 1.2142980098724365
26.289749145507812 9.621926307678223 0.9698553085327148
25.689573287963867 9.586492538452148 0.9482519030570984
25.469919204711914 9.564786911010742 0.9402523040771484
25.27850341796875 9.553909301757812 0.9328961372375488
25.07270050048828 9.536291122436523 0.9254236221313477
24.88058090209961 9.522369384765625 0.9190599918365479
24.704795837402344 9.514998435974121 0.9116897583007812
24.530672073364258 9.507083892822266 0.9059981107711792
24.342815399169922 9.49242877960205 0.898786187171936
24.163423538208008 9.481992721557617 0.892315149307251
23.979949951171875 9.46746826171875 0.886263370513916
23.813793182373047 9.460089683532715 0.8792935013771057
23.461162567138672 9.433554649353027 0.8667517304420471
23.283000946044922 9.41912841796875 0.8603293895721436
22.940677642822266 9.392233848571777 0.8476064205169678
22.78817367553711 9.386078834533691 0.8427027463912964
22.481643676757812 9.3697509765625 0.8307616710662842
22.013914108276367 9.338666915893555 0.8127212524414062
21.565914154052734 9.3090238571167 0.796891450881958
18.777311325073242 9.10665225982666 0.696522057056427
18.674503326416016 9.105236053466797 0.6921460628509521
18.433727264404297 9.083602905273438 0.6833703517913818
18.308528900146484 9.069698333740234 0.6794326901435852
18.20660400390625 9.067176818847656 0.675117015838623
18.090869903564453 9.056441307067871 0.6715211272239685
17.989368438720703 9.052879333496094 0.6672264337539673
17.87714385986328 9.043802261352539 0.663771390914917
17.77412986755371 9.038573265075684 0.6594310402870178
17.65216064453125 9.022703170776367 0.655598521232605
17.556852340698242 9.02083683013916 0.651559591293335
17.436695098876953 9.005390167236328 0.647800087928772
17.348602294921875 9.006387710571289 0.6440388560295105
17.224821090698242 8.987554550170898 0.6401344537734985
17.13805389404297 8.988077163696289 0.6364268660545349
17.024124145507812 8.974251747131348 0.6328994035720825
16.925506591796875 8.967199325561523 0.6287527084350586
16.825000762939453 8.959210395812988 0.6257157921791077
16.713743209838867 8.945355415344238 0.6211214065551758
16.514591217041016 8.927627563476562 0.6146696209907532
16.41889762878418 8.920787811279297 0.61109459400177
16.233264923095703 8.908679962158203 0.6044453382492065
16.13886833190918 8.900503158569336 0.600490927696228
15.942299842834473 8.879860877990723 0.5934481620788574
15.846385955810547 8.869573593139648 0.59056156873703
14.317573547363281 8.739958763122559 0.5365408658981323
14.157833099365234 8.724502563476562 0.5302748680114746
14.099638938903809 8.7290620803833 0.528394341468811
13.936836242675781 8.709674835205078 0.522658109664917
13.864136695861816 8.704301834106445 0.5199825167655945
13.79389762878418 8.70134162902832 0.5176712870597839
13.715925216674805 8.691997528076172 0.5148009061813354
13.637393951416016 8.681947708129883 0.5115405321121216
13.564579010009766 8.676368713378906 0.5091361999511719
13.500397682189941 8.674846649169922 0.5067875981330872
13.423006057739258 8.664961814880371 0.5041981339454651
13.363067626953125 8.666333198547363 0.5020252466201782
13.291955947875977 8.659453392028809 0.4996644854545593
13.225027084350586 8.655427932739258 0.49722573161125183
13.141255378723145 8.640324592590332 0.4938008785247803
13.093135833740234 8.647655487060547 0.4926658868789673
13.008499145507812 8.631723403930664 0.4892205595970154
12.949374198913574 8.63124942779541 0.48731350898742676
12.877115249633789 8.622159957885742 0.48468101024627686
12.818672180175781 8.622319221496582 0.4822218418121338
12.738978385925293 8.607165336608887 0.47989583015441895
12.675406455993652 8.603001594543457 0.47747763991355896
12.619970321655273 8.604390144348145 0.47514045238494873
12.547149658203125 8.592935562133789 0.4730699062347412
12.480062484741211 8.585512161254883 0.47029197216033936
12.421010971069336 8.583617210388184 0.4687500298023224
12.358467102050781 8.57834243774414 0.4661428928375244
12.236207008361816 8.570064544677734 0.46197521686553955
12.057689666748047 8.558521270751953 0.4554503858089447
11.878070831298828 8.54382610321045 0.4488988220691681
11.7055025100708 8.531869888305664 0.4426248073577881
11.518901824951172 8.507258415222168 0.43616047501564026
11.356167793273926 8.499001502990723 0.43084239959716797
11.194137573242188 8.488048553466797 0.4255300462245941
11.019720077514648 8.465425491333008 0.419219046831131
10.86492919921875 8.455656051635742 0.4136604070663452
10.756157875061035 8.44398021697998 0.4100348949432373
10.71096420288086 8.444486618041992 0.4081435799598694
10.605920791625977 8.434340476989746 0.4046650826931
10.554282188415527 8.42908763885498 0.4025363326072693
10.513275146484375 8.43278980255127 0.4013424813747406
10.451815605163574 8.419589042663574 0.39915725588798523
10.408489227294922 8.420364379882812 0.3973506689071655
10.35619831085205 8.414726257324219 0.39603960514068604
10.309732437133789 8.41254997253418 0.3941171169281006
10.250177383422852 8.399449348449707 0.3916979730129242
10.215418815612793 8.407506942749023 0.3910527229309082
10.1666259765625 8.40279769897461 0.3890460729598999
10.116556167602539 8.396811485290527 0.3869940936565399
10.067668914794922 8.392621040344238 0.3858090043067932
10.01438045501709 8.38348388671875 0.3841323256492615
9.965807914733887 8.378706932067871 0.3824506998062134
9.921281814575195 8.376863479614258 0.38062119483947754
9.871722221374512 8.370170593261719 0.3793853223323822
9.83442497253418 8.374336242675781 0.377843976020813
9.777161598205566 8.361024856567383 0.37553197145462036
9.735860824584961 8.360747337341309 0.37461066246032715
9.689836502075195 8.357254981994629 0.3727433681488037
9.651806831359863 8.35944652557373 0.371165931224823
9.601880073547363 8.351140975952148 0.3694259524345398
9.557741165161133 8.348679542541504 0.368124783039093
9.507895469665527 8.339988708496094 0.3660954535007477
9.424747467041016 8.337545394897461 0.36347484588623047
9.38276481628418 8.335179328918457 0.3617556691169739
9.289159774780273 8.322280883789062 0.3587319254875183
9.245192527770996 8.317541122436523 0.35694050788879395
9.159401893615723 8.310419082641602 0.35422247648239136
9.126208305358887 8.315534591674805 0.35286271572113037
8.995786666870117 8.300800323486328 0.34833648800849915
8.657401084899902 8.26185417175293 0.3361677825450897
8.556774139404297 8.269230842590332 0.3328202962875366
8.43789005279541 8.25755500793457 0.32876646518707275
8.39283561706543 8.248007774353027 0.32723498344421387
8.315521240234375 8.241156578063965 0.32413995265960693
8.269063949584961 8.229199409484863 0.3227265477180481
8.242860794067383 8.23786735534668 0.32193639874458313
8.198161125183105 8.227646827697754 0.3201562464237213
8.168481826782227 8.23195743560791 0.3193998634815216
8.120201110839844 8.217964172363281 0.3177463710308075
8.091936111450195 8.223798751831055 0.31661075353622437
8.053236961364746 8.218513488769531 0.3150602877140045
8.026219367980957 8.226019859313965 0.3138127326965332
7.974887847900391 8.207416534423828 0.31220969557762146
7.941310882568359 8.207494735717773 0.31087473034858704
7.900358200073242 8.199525833129883 0.3092498779296875
7.879270553588867 8.211675643920898 0.30909013748168945
7.839108467102051 8.20445728302002 0.3075014650821686
7.796195030212402 8.193892478942871 0.3058008551597595
7.7651448249816895 8.195246696472168 0.3048182725906372
7.7327799797058105 8.19571304321289 0.3039699196815491
7.690954208374023 8.185720443725586 0.3023131787776947
7.667689323425293 8.194971084594727 0.30138152837753296
7.625196933746338 8.184157371520996 0.2999630570411682
7.59434175491333 8.185405731201172 0.2991693317890167
7.549485683441162 8.171001434326172 0.2973893880844116
7.523929119110107 8.178323745727539 0.29639095067977905
7.49105978012085 8.176583290100098 0.29534146189689636
7.446464538574219 8.162473678588867 0.29400837421417236
7.415425777435303 8.16278076171875 0.29278600215911865
7.390578269958496 8.169428825378418 0.2920520305633545
7.348928928375244 8.157979011535645 0.29041701555252075
7.322797775268555 8.163347244262695 0.2898092269897461
7.28581428527832 8.156105995178223 0.2883462905883789
7.248758792877197 8.149223327636719 0.2871444821357727
7.216850757598877 8.147710800170898 0.28589242696762085
7.1847991943359375 8.145519256591797 0.28487667441368103
7.155560493469238 8.147012710571289 0.2837373614311218
7.126031875610352 8.147807121276855 0.2825824022293091
7.0866618156433105 8.137432098388672 0.2814558744430542
7.030406951904297 8.141189575195312 0.27950045466423035
6.994281768798828 8.13404369354248 0.2780916690826416
6.9265618324279785 8.123620986938477 0.275848388671875
6.896945953369141 8.123597145080566 0.2749452292919159
6.834454536437988 8.119050025939941 0.27292418479919434
6.807001113891602 8.12058162689209 0.27185213565826416
6.739980220794678 8.109756469726562 0.26949045062065125
6.643271446228027 8.096403121948242 0.26637476682662964
6.563346862792969 8.102336883544922 0.2636944353580475
6.470847129821777 8.091625213623047 0.2603553831577301
6.401684284210205 8.07462215423584 0.2579159438610077
6.387096405029297 8.090653419494629 0.25737452507019043
6.316728591918945 8.071178436279297 0.2550460696220398
6.2874321937561035 8.068565368652344 0.2539217174053192
6.254223823547363 8.060394287109375 0.2528655230998993
6.227503776550293 8.061075210571289 0.251851350069046
6.204133033752441 8.065744400024414 0.2509685158729553
6.17280387878418 8.05956745147705 0.2501452565193176
6.13978385925293 8.051648139953613 0.2488773763179779
6.115854740142822 8.055262565612793 0.2482057511806488
6.090320587158203 8.056289672851562 0.2472306787967682
6.057690620422363 8.048429489135742 0.2463655173778534
6.033426284790039 8.051292419433594 0.24545127153396606
5.996154308319092 8.036892890930176 0.2442418932914734
5.978797912597656 8.048421859741211 0.24360239505767822
5.946179389953613 8.039694786071777 0.24234943091869354
5.925849914550781 8.047727584838867 0.24198490381240845
5.888455867767334 8.031798362731934 0.24052965641021729
5.862765312194824 8.03204345703125 0.23978841304779053
5.837714672088623 8.033320426940918 0.23885121941566467
5.812522888183594 8.03404426574707 0.23790401220321655
5.772978782653809 8.014999389648438 0.23675203323364258
5.763348579406738 8.036745071411133 0.23628565669059753
5.727194786071777 8.021814346313477 0.23489071428775787
5.6999335289001465 8.019414901733398 0.2338663935661316
5.668284893035889 8.01003646850586 0.23302482068538666
5.645026206970215 8.012771606445312 0.23216071724891663
5.616207122802734 8.007753372192383 0.23129747807979584
5.586599826812744 8.001195907592773 0.23017333447933197
5.566091537475586 8.007171630859375 0.22941678762435913
5.543639183044434 8.010943412780762 0.22896556556224823
5.509224891662598 7.997016906738281 0.22764363884925842
5.488981246948242 8.003131866455078 0.22712260484695435
5.461277008056641 7.99892520904541 0.226083442568779
5.437561511993408 8.00018310546875 0.2252054512500763
5.409018516540527 7.994478225708008 0.2245016098022461
5.37889289855957 7.985607147216797 0.22335055470466614
5.356625080108643 7.988670349121094 0.22275418043136597
5.332302093505859 7.988844871520996 0.22185775637626648
5.303832530975342 7.9820146560668945 0.22077669203281403
5.2827558517456055 7.986597061157227 0.2200118452310562
5.251221179962158 7.97550106048584 0.21918123960494995
5.223091125488281 7.968731880187988 0.21833325922489166
5.199615478515625 7.969334602355957 0.21746936440467834
5.182901859283447 7.980520725250244 0.21689386665821075
5.129156589508057 7.9703874588012695 0.21509429812431335
5.096789360046387 7.956993103027344 0.21386395394802094
5.045980930328369 7.951201438903809 0.21234548091888428
5.038797378540039 7.976419925689697 0.21216292679309845
4.985780715942383 7.966603755950928 0.2104085385799408
4.950160026550293 7.946308612823486 0.209028959274292
4.906789779663086 7.951106071472168 0.20782560110092163
4.88089656829834 7.9459967613220215 0.20685747265815735
4.849245071411133 7.9324140548706055 0.2056659311056137
4.835599899291992 7.94710636138916 0.20543065667152405
4.804737091064453 7.933412551879883 0.20425201952457428
4.7826948165893555 7.935222148895264 0.20382335782051086
4.753337860107422 7.923661231994629 0.20270858705043793
4.704524517059326 7.917689323425293 0.2009221911430359
4.686007022857666 7.923923015594482 0.20048213005065918
4.636674880981445 7.916407108306885 0.199025958776474
4.60927152633667 7.907200813293457 0.1979946494102478
4.59459114074707 7.920163154602051 0.197517991065979
4.572263717651367 7.920190811157227 0.19692829251289368
4.545409202575684 7.911545276641846 0.19626960158348083
4.522052764892578 7.909963607788086 0.1954338550567627
4.5006842613220215 7.910641193389893 0.19466322660446167
4.469427585601807 7.894192695617676 0.19347400963306427
4.453651428222656 7.905247688293457 0.19316698610782623
4.426081657409668 7.894575119018555 0.19212886691093445
4.404977798461914 7.895722389221191 0.19172465801239014
4.380675315856934 7.891313076019287 0.1908411979675293
4.3573174476623535 7.887763977050781 0.18998593091964722
4.332665920257568 7.882166862487793 0.18908265233039856
4.3151679039001465 7.889786720275879 0.18870355188846588
4.289792060852051 7.882199764251709 0.187760591506958
4.263803005218506 7.873745918273926 0.18714028596878052
4.235696792602539 7.861474990844727 0.18609002232551575
18.845190048217773 -9.316219329833984 0.7284485101699829
22.682369232177734 -8.823417663574219 0.8667776584625244
23.01232147216797 -8.78561019897461 0.8787626028060913
27.832130432128906 -8.089263916015625 1.0543828010559082
29.030010223388672 -7.9115166664123535 1.0982577800750732
34.862125396728516 -6.87537145614624 1.308655023574829
35.46949768066406 -6.763783931732178 1.3306615352630615
36.091590881347656 -6.647546291351318 1.353804588317871
36.52207565307617 -6.567929267883301 1.3689024448394775
37.174644470214844 -6.444291114807129 1.3926832675933838
44.127098083496094 -5.001845359802246 1.6433436870574951
44.97821807861328 -4.812126636505127 1.6718010902404785
45.27631378173828 -4.556308269500732 1.6835062503814697
45.298805236816406 -4.365948677062988 1.6836459636688232
45.299720764160156 -4.271176338195801 1.6833465099334717
45.29115295410156 -4.07800817489624 1.682375431060791
45.301429748535156 -3.7919912338256836 1.681840181350708
45.29431915283203 -1.1205517053604126 1.6724202632904053
45.137001037597656 -0.8327678442001343 1.666386365890503
44.99219512939453 -0.547181248664856 1.660882830619812
44.890602111816406 -0.35687255859375 1.6577401161193848
44.83492660522461 -0.2633836269378662 1.6539499759674072
44.73914337158203 -0.07440249621868134 1.6503905057907104
41.3236083984375 1.49567449092865 1.3703097105026245
41.26234436035156 1.6674859523773193 1.3662800788879395
41.18392562866211 1.9237171411514282 1.3640581369400024
41.08359146118164 2.1779489517211914 1.3595824241638184
40.08038330078125 4.923894882202148 1.3239951133728027
40.04710388183594 5.004188537597656 1.3232369422912598
39.97369384765625 5.166079521179199 1.319050669670105
39.939842224121094 5.245995998382568 1.3182926177978516
39.89815902709961 5.3272480964660645 1.317291021347046
39.86003112792969 5.4063720703125 1.3163988590240479
39.80462646484375 5.569674968719482 1.3177896738052368
39.77695083618164 5.649986267089844 1.3163387775421143
39.71051025390625 5.811264991760254 1.313402533531189
39.672447204589844 5.889810562133789 1.3125426769256592
38.047000885009766 7.874495506286621 1.260833740234375
37.83318328857422 8.078600883483887 1.2530465126037598
37.719356536865234 8.220539093017578 1.2489304542541504
37.65321731567383 8.28801155090332 1.2473082542419434
37.511817932128906 8.422674179077148 1.242910623550415
37.45536422729492 8.491683006286621 1.2401500940322876
37.32155990600586 8.626761436462402 1.2360390424728394
37.27867126464844 8.698381423950195 1.2337483167648315
37.14160919189453 8.831498146057129 1.2295594215393066
37.080718994140625 8.898359298706055 1.2266918420791626
36.964805603027344 9.03535270690918 1.229068636894226
36.89812469482422 9.101737976074219 1.227488398551941
32.33478546142578 9.505311965942383 1.073384165763855
31.50184440612793 9.476794242858887 1.0499770641326904
30.969802856445312 9.458379745483398 1.0315793752670288
30.72081184387207 9.452842712402344 1.0227141380310059
30.206478118896484 9.433265686035156 1.0061756372451782
29.951704025268555 9.422712326049805 0.9971441030502319
29.44960594177246 9.400497436523438 0.9798392057418823
29.210514068603516 9.391749382019043 0.9718393087387085
28.979402542114258 9.385066986083984 0.9648096561431885
28.747329711914062 9.376592636108398 0.9565728902816772
28.510284423828125 9.364778518676758 0.9486461877822876
28.269996643066406 9.352089881896973 0.9413062334060669
28.053728103637695 9.345888137817383 0.9329491853713989
27.823020935058594 9.333220481872559 0.9259192943572998
27.376781463623047 9.311979293823242 0.910601019859314
27.161222457885742 9.302751541137695 0.9029812812805176
26.73714828491211 9.282353401184082 0.8895186185836792
26.523162841796875 9.27092170715332 0.8813300132751465
22.64398765563965 9.0530366897583 0.7537891864776611
22.317291259765625 9.031620025634766 0.7427030205726624
