VERSION .7
FIELDS x y z
SIZE 4 4 4
TYPE F F F
COUNT 1 1 1
WIDTH 818
HEIGHT 1
VIEWPOINT 0 0 0 1 0 0 0
POINTS 818
DATA ascii
9.283905029296875 -11.057632446289062 -0.12657511234283447
9.318536758422852 -11.051506042480469 -0.1271941065788269
9.356815338134766 -11.050289154052734 -0.1278228759765625
9.40108871459961 -11.055323600769043 -0.1285770684480667
9.42941665649414 -11.041402816772461 -0.12864500284194946
9.470375061035156 -11.042877197265625 -0.12977775931358337
9.54589557647705 -11.036538124084473 -0.13059654831886292
9.580389022827148 -11.029427528381348 -0.13122102618217468
9.649730682373047 -11.015853881835938 -0.13243234157562256
9.700929641723633 -11.027400970458984 -0.13281573355197906
9.774955749511719 -11.017637252807617 -0.13409295678138733
9.8936767578125 -11.011228561401367 -0.13477039337158203
10.002601623535156 -10.992659568786621 -0.13664531707763672
10.079829216003418 -10.984241485595703 -0.13754549622535706
10.127548217773438 -10.990371704101562 -0.13831877708435059
10.207189559936523 -10.983613967895508 -0.139254629611969
10.244623184204102 -10.977415084838867 -0.14036592841148376
10.323810577392578 -10.969992637634277 -0.14125685393810272
10.366968154907227 -10.969442367553711 -0.14201611280441284
10.406966209411621 -10.9654541015625 -0.14224746823310852
10.448566436767578 -10.963630676269531 -0.14342887699604034
10.488805770874023 -10.959515571594238 -0.14366573095321655
10.527524948120117 -10.953741073608398 -0.14387595653533936
10.572320938110352 -10.954756736755371 -0.1451089084148407
10.616488456726074 -10.953596115112305 -0.14539432525634766
10.649910926818848 -10.942550659179688 -0.14647194743156433
10.689042091369629 -10.93655014038086 -0.14669522643089294
10.732175827026367 -10.934560775756836 -0.14697009325027466
10.778738021850586 -10.936511993408203 -0.14823390543460846
10.809703826904297 -10.921798706054688 -0.14834097027778625
10.863916397094727 -10.930475234985352 -0.14921487867832184
10.90278434753418 -10.923446655273438 -0.14992913603782654
10.949187278747559 -10.923870086669922 -0.15025009214878082
10.984950065612793 -10.91415786743164 -0.15087881684303284
11.027992248535156 -10.910839080810547 -0.1516512632369995
11.070627212524414 -10.907020568847656 -0.15192055702209473
11.103422164916992 -10.89401626586914 -0.1530090868473053
11.157655715942383 -10.901174545288086 -0.1534401774406433
11.19594669342041 -10.892635345458984 -0.1541026532649994
11.240336418151855 -10.890510559082031 -0.15490472316741943
11.290708541870117 -10.892648696899414 -0.1552777886390686
11.324729919433594 -10.88018798828125 -0.1563943326473236
11.3759765625 -10.883417129516602 -0.15678513050079346
11.416472434997559 -10.876243591308594 -0.1570272296667099
11.462944030761719 -10.875226974487305 -0.15831896662712097
11.513402938842773 -10.876459121704102 -0.15869510173797607
11.552644729614258 -10.86825180053711 -0.15938474237918854
11.596632957458496 -10.864357948303223 -0.1601884514093399
11.631278991699219 -10.85025405883789 -0.16034841537475586
11.683079719543457 -10.853321075439453 -0.16172456741333008
11.723024368286133 -10.845191955566406 -0.16196376085281372
11.778457641601562 -10.849872589111328 -0.1624084860086441
11.819417953491211 -10.842350006103516 -0.16364577412605286
11.865602493286133 -10.838129043579102 -0.1639602780342102
11.903249740600586 -10.827292442321777 -0.16561895608901978
11.962562561035156 -10.835966110229492 -0.16613154113292694
12.00355339050293 -10.82650375366211 -0.16736425459384918
12.053447723388672 -10.826227188110352 -0.16774891316890717
12.100517272949219 -10.823221206665039 -0.16908088326454163
12.13410472869873 -10.80669116973877 -0.1692279875278473
12.188753128051758 -10.810091018676758 -0.16967517137527466
12.290267944335938 -10.80799388885498 -0.17145264148712158
12.32534408569336 -10.793563842773438 -0.17162910103797913
12.387924194335938 -10.80169677734375 -0.17318210005760193
12.433387756347656 -10.796001434326172 -0.17350348830223083
12.482357025146484 -10.792539596557617 -0.17440111935138702
12.536569595336914 -10.793327331542969 -0.17531844973564148
12.581944465637207 -10.787010192871094 -0.1756392866373062
12.628103256225586 -10.780567169189453 -0.17649883031845093
12.676919937133789 -10.776142120361328 -0.17734675109386444
12.723806381225586 -10.77059268951416 -0.17768870294094086
12.779692649841309 -10.771121978759766 -0.17916716635227203
12.81972885131836 -10.759443283081055 -0.17941375076770782
12.870223999023438 -10.755748748779297 -0.18034440279006958
12.913105010986328 -10.74544906616211 -0.18111346662044525
12.976126670837402 -10.752395629882812 -0.1816842406988144
13.015427589416504 -10.738852500915527 -0.18245941400527954
13.071432113647461 -10.738842964172363 -0.18444937467575073
13.12040901184082 -10.733552932739258 -0.18531575798988342
13.180551528930664 -10.736540794372559 -0.18639031052589417
13.227106094360352 -10.728172302246094 -0.18672913312911987
13.279844284057617 -10.725337982177734 -0.1876542568206787
13.325399398803711 -10.71517562866211 -0.18852387368679047
13.37894058227539 -10.712590217590332 -0.1889638751745224
13.425531387329102 -10.70361328125 -0.19035235047340393
13.48542308807373 -10.704959869384766 -0.19088119268417358
13.525008201599121 -10.690704345703125 -0.19162669777870178
13.58392333984375 -10.690202713012695 -0.19269351661205292
13.642051696777344 -10.690181732177734 -0.19320493936538696
13.699196815490723 -10.688512802124023 -0.19419541954994202
13.745521545410156 -10.678133010864258 -0.19509157538414001
13.797601699829102 -10.67275333404541 -0.19551604986190796
13.89864730834961 -10.657661437988281 -0.1973794549703598
13.955696105957031 -10.65549087524414 -0.19787636399269104
14.011310577392578 -10.651359558105469 -0.198853999376297
14.05954360961914 -10.641351699829102 -0.19978733360767365
14.1619873046875 -10.625378608703613 -0.20168530941009521
14.227323532104492 -10.628324508666992 -0.20230120420455933
14.33079719543457 -10.611885070800781 -0.20582833886146545
14.37712287902832 -10.600064277648926 -0.2061772346496582
14.497262001037598 -10.594690322875977 -0.20835433900356293
14.659873008728027 -10.57278823852539 -0.21083518862724304
14.770665168762207 -10.558418273925781 -0.21236920356750488
14.836894989013672 -10.558660507202148 -0.21352845430374146
14.95406723022461 -10.548105239868164 -0.21516603231430054
15.015664100646973 -10.54430866241455 -0.21626363694667816
15.132528305053711 -10.532147407531738 -0.21790316700935364
15.18971061706543 -10.524571418762207 -0.2189406156539917
15.25760269165039 -10.524093627929688 -0.21960002183914185
15.30546760559082 -10.509650230407715 -0.2205643653869629
15.370658874511719 -10.507545471191406 -0.2217286229133606
15.437841415405273 -10.505805969238281 -0.2223774939775467
15.512052536010742 -10.508621215820312 -0.22372892498970032
15.566048622131348 -10.498138427734375 -0.22473570704460144
15.629999160766602 -10.493419647216797 -0.22533869743347168
15.681097030639648 -10.479924201965332 -0.2263636589050293
15.74654769897461 -10.476459503173828 -0.22869594395160675
15.803451538085938 -10.465682983398438 -0.22980619966983795
15.859920501708984 -10.45580005645752 -0.2303118258714676
15.931625366210938 -10.454975128173828 -0.2315843403339386
15.990015983581543 -10.445223808288574 -0.23272664844989777
16.043087005615234 -10.432456970214844 -0.2331838607788086
16.111669540405273 -10.428150177001953 -0.23440954089164734
16.18021011352539 -10.424932479858398 -0.23571154475212097
16.247581481933594 -10.420690536499023 -0.23637661337852478
16.312477111816406 -10.413198471069336 -0.2375572919845581
16.387020111083984 -10.412982940673828 -0.23895317316055298
16.446420669555664 -10.402880668640137 -0.23950283229351044
16.5071964263916 -10.392017364501953 -0.24062687158584595
16.578777313232422 -10.389104843139648 -0.24198412895202637
16.71917152404785 -10.379278182983398 -0.24396252632141113
16.780838012695312 -10.369377136230469 -0.24518094956874847
16.98603057861328 -10.34843635559082 -0.248432919383049
17.767107009887695 -10.269245147705078 -0.26132744550704956
17.98952293395996 -10.247469902038574 -0.26490914821624756
18.21645736694336 -10.22559928894043 -0.2685743570327759
18.298871994018555 -10.221979141235352 -0.2694759964942932
18.441118240356445 -10.19978141784668 -0.27222344279289246
18.525741577148438 -10.19643783569336 -0.27315959334373474
18.603172302246094 -10.187337875366211 -0.27397990226745605
18.680368423461914 -10.179277420043945 -0.27542153000831604
18.840171813964844 -10.163688659667969 -0.2778308093547821
18.923873901367188 -10.158199310302734 -0.2787531614303589
18.98995590209961 -10.141475677490234 -0.28072088956832886
19.085155487060547 -10.141472816467285 -0.2818177044391632
19.157697677612305 -10.12838363647461 -0.28194427490234375
19.242990493774414 -10.121649742126465 -0.28358545899391174
19.331560134887695 -10.11707878112793 -0.2845803499221802
19.40798568725586 -10.105110168457031 -0.28539159893989563
19.493534088134766 -10.097496032714844 -0.2869727909564972
19.572731018066406 -10.087057113647461 -0.2885341942310333
19.664005279541016 -10.081789016723633 -0.2895679771900177
19.742040634155273 -10.069316864013672 -0.29104435443878174
19.914827346801758 -10.051982879638672 -0.29368117451667786
20.004234313964844 -10.045076370239258 -0.2946925163269043
20.17742919921875 -10.025866508483887 -0.2979937791824341
20.26276206970215 -10.015891075134277 -0.2989429831504822
20.44535255432129 -9.999224662780762 -0.30240491032600403
22.252193450927734 -9.803566932678223 -0.32762202620506287
22.55522918701172 -9.768220901489258 -0.332669734954834
22.765687942504883 -9.74571418762207 -0.3359605371952057
22.859861373901367 -9.72994613647461 -0.3377704620361328
23.086315155029297 -9.71169662475586 -0.3413121998310089
23.17489242553711 -9.692404747009277 -0.3423250913619995
23.383071899414062 -9.663972854614258 -0.3455297350883484
23.50482177734375 -9.657232284545898 -0.3478461503982544
24.372600555419922 -9.538856506347656 -0.3575897812843323
24.276256561279297 -9.325580596923828 -0.35686904191970825
22.556812286376953 -7.4890971183776855 -0.32985785603523254
22.36459732055664 -7.269506931304932 -0.3270619809627533
22.16584014892578 -7.051144599914551 -0.3249279856681824
21.97540855407715 -6.8387346267700195 -0.32221853733062744
21.821748733520508 -6.690244674682617 -0.32020097970962524
21.73662567138672 -6.61483097076416 -0.31874898076057434
21.514711380004883 -6.448426246643066 -0.3158106803894043
21.31548500061035 -6.242946624755859 -0.31029778718948364
19.416004180908203 -4.083158493041992 -0.283246785402298
10.607763290405273 4.897765159606934 -0.07082243263721466
10.497062683105469 4.92694616317749 -0.06958241015672684
10.404413223266602 4.937036514282227 -0.06910310685634613
10.358677864074707 4.941696643829346 -0.06886926293373108
10.279705047607422 4.957274436950684 -0.06884054094552994
10.17338752746582 4.985074043273926 -0.06765196472406387
8.936446189880371 5.199766159057617 -0.0585751011967659
8.835866928100586 5.215868949890137 -0.05781366676092148
8.745687484741211 5.237052917480469 -0.056817181408405304
8.644889831542969 5.2508087158203125 -0.05575717240571976
8.584983825683594 5.264044284820557 -0.05641436576843262
8.547982215881348 5.265793800354004 -0.05624864622950554
8.503105163574219 5.2876763343811035 -0.055486924946308136
8.454106330871582 5.281567573547363 -0.05523648485541344
8.403860092163086 5.29951286315918 -0.05473557114601135
8.38286018371582 5.310615539550781 -0.054380934685468674
8.31901741027832 5.31939697265625 -0.05411466211080551
8.266912460327148 5.310281753540039 -0.05353422835469246
8.207924842834473 5.321353912353516 -0.05301258713006973
8.207050323486328 5.345008850097656 -0.05307811498641968
8.126880645751953 5.3416748046875 -0.05239049345254898
8.102823257446289 5.350344657897949 -0.05202679708600044
7.432200908660889 5.463910102844238 -0.046293072402477264
7.358070373535156 5.481001853942871 -0.045753881335258484
7.283700942993164 5.497137546539307 -0.044946957379579544
7.20721960067749 5.510871887207031 -0.04411359876394272
7.149345874786377 5.514487266540527 -0.043897561728954315
7.114345073699951 5.511406898498535 -0.04346630349755287
7.108773708343506 5.530734539031982 -0.04324009269475937
7.07618522644043 5.529354572296143 -0.0431128591299057
7.051912307739258 5.534328460693359 -0.043034590780735016
7.029435157775879 5.540297508239746 -0.04242441803216934
7.011147499084473 5.549874305725098 -0.04238405451178551
6.972255229949951 5.542994499206543 -0.042216479778289795
6.95273494720459 5.551061630249023 -0.04188455641269684
6.930196762084961 5.55734920501709 -0.041563980281353
6.9074530601501465 5.562702655792236 -0.04149581491947174
6.869551658630371 5.556082725524902 -0.04105670750141144
6.834915637969971 5.575483322143555 -0.04073300212621689
6.809997081756592 5.579094886779785 -0.04037247598171234
6.753676414489746 5.580652713775635 -0.03991859033703804
6.726072788238525 5.581371307373047 -0.03982657939195633
6.682564735412598 5.59295654296875 -0.039176616817712784
6.62816858291626 5.6186628341674805 -0.03823327273130417
6.545984745025635 5.620099067687988 -0.03743632882833481
6.470475196838379 5.626316547393799 -0.03668184205889702
6.139807224273682 5.688039779663086 -0.033251404762268066
6.08229923248291 5.706234455108643 -0.032116059213876724
6.058093070983887 5.707208633422852 -0.03178458288311958
6.010787010192871 5.710614204406738 -0.03115549311041832
5.983554840087891 5.708413600921631 -0.03107566386461258
5.968511581420898 5.718465805053711 -0.031061727553606033
5.948225498199463 5.722751617431641 -0.030513964593410492
5.922433853149414 5.72165060043335 -0.030443262308835983
5.911487579345703 5.735542297363281 -0.030448568984866142
5.8833208084106445 5.731963157653809 -0.029863348230719566
5.872623443603516 5.74567985534668 -0.02987031452357769
5.84186315536499 5.739725112915039 -0.02977634407579899
5.830384731292725 5.752275466918945 -0.029277879744768143
5.795589447021484 5.742064952850342 -0.02916298806667328
5.785477638244629 5.756252288818359 -0.02917373925447464
5.757318496704102 5.7520599365234375 -0.028595641255378723
5.74049711227417 5.759809494018555 -0.02857368066906929
5.713560581207275 5.756625175476074 -0.028498969972133636
5.696863174438477 5.763675212860107 -0.0279803778976202
5.676112174987793 5.767271041870117 -0.0279386006295681
5.663816928863525 5.778717041015625 -0.027678988873958588
5.635817527770996 5.7740702629089355 -0.027364570647478104
5.614751815795898 5.777126789093018 -0.026574278250336647
5.591155052185059 5.776784896850586 -0.026284605264663696
5.578640937805176 5.788548946380615 -0.0262838713824749
5.554833889007568 5.787835121154785 -0.025972876697778702
5.532047271728516 5.788088798522949 -0.025689661502838135
5.50996208190918 5.789692401885986 -0.025644391775131226
5.501861572265625 5.805256366729736 -0.025407390668988228
5.467207908630371 5.792721748352051 -0.025069406256079674
5.429405212402344 5.801421165466309 -0.02475517801940441
5.377341270446777 5.8186821937561035 -0.02420036494731903
5.321727275848389 5.831630706787109 -0.02340308018028736
5.264666557312012 5.842449188232422 -0.02283245325088501
5.197805881500244 5.842058181762695 -0.022225935012102127
5.150064468383789 5.862542629241943 -0.020999440923333168
5.088617324829102 5.866568565368652 -0.020424488931894302
5.042418003082275 5.862663745880127 -0.02009100466966629
5.0254716873168945 5.867892742156982 -0.01984783634543419
5.00083065032959 5.888792991638184 -0.019375860691070557
4.973003387451172 5.881063461303711 -0.019070308655500412
4.938091278076172 5.8895583152771 -0.018807385116815567
4.926655292510986 5.901097297668457 -0.01856490969657898
4.891265869140625 5.909114837646484 -0.018301328644156456
4.863475322723389 5.900426864624023 -0.018000228330492973
4.845712661743164 5.904180526733398 -0.017757311463356018
4.8284807205200195 5.90849494934082 -0.017496304586529732
4.815975189208984 5.918214797973633 -0.01749652624130249
4.795803070068359 5.918857574462891 -0.017246529459953308
4.774256706237793 5.917679786682129 -0.01697048358619213
4.753007888793945 5.916424751281738 -0.016717705875635147
4.748220443725586 5.936039924621582 -0.016502223908901215
4.723299026489258 5.930424690246582 -0.016458220779895782
4.710458755493164 5.939553260803223 -0.015795059502124786
4.681380748748779 5.928859233856201 -0.015498671680688858
4.674077033996582 5.94493293762207 -0.015295665711164474
4.645565509796143 5.934361457824707 -0.01500251330435276
4.639023780822754 5.9517669677734375 -0.015021588653326035
4.614923477172852 5.946254730224609 -0.014764758758246899
4.608975410461426 5.964495658874512 -0.014545375481247902
4.577200412750244 5.949208736419678 -0.014266444370150566
4.55894660949707 5.951389312744141 -0.014008129015564919
4.544217109680176 5.957731246948242 -0.014000827446579933
4.5269927978515625 5.96112060546875 -0.013768192380666733
4.5112810134887695 5.96649169921875 -0.013520791195333004
4.491507530212402 5.966034889221191 -0.013279259204864502
4.472315788269043 5.966631889343262 -0.013021670281887054
4.457057952880859 5.972456455230713 -0.013014334253966808
4.441061019897461 5.977221488952637 -0.012550190091133118
4.427120208740234 5.9843597412109375 -0.012545488774776459
4.412128448486328 5.990454196929932 -0.012322867289185524
4.395748138427734 5.99459171295166 -0.01207396388053894
4.3731279373168945 5.990170478820801 -0.01204909197986126
4.360396862030029 5.998832702636719 -0.01159454695880413
4.340097427368164 5.997402191162109 -0.01157332956790924
4.326368808746338 6.005031585693359 -0.011118996888399124
4.304314613342285 6.000637054443359 -0.011095469817519188
4.268575191497803 6.004039764404297 -0.010639512911438942
4.258331298828125 6.016029357910156 -0.010410357266664505
4.226877212524414 6.025241851806641 -0.00994628481566906
4.189082145690918 6.025178909301758 -0.009704189375042915
4.1747283935546875 6.031198978424072 -0.009464787319302559
4.13624382019043 6.029706001281738 -0.008986571803689003
4.123592376708984 6.038086891174316 -0.008775848895311356
4.107220649719238 6.041786193847656 -0.008533944375813007
4.085905075073242 6.037341117858887 -0.008304890245199203
4.070046901702881 6.040877819061279 -0.008064188994467258
4.05693244934082 6.049260139465332 -0.008063812740147114
4.034363746643066 6.042677402496338 -0.00783103983849287
4.024971961975098 6.056168556213379 -0.0076065510511398315
4.0056867599487305 6.054787635803223 -0.007382985670119524
3.9912004470825195 6.060183525085449 -0.007146690972149372
3.9720592498779297 6.058836936950684 -0.006926010362803936
3.9536688327789307 6.058588981628418 -0.006686759181320667
3.9434540271759033 6.070423126220703 -0.006690599024295807
3.930746555328369 6.079250335693359 -0.006247509270906448
3.903402328491211 6.064523696899414 -0.0062232306227087975
3.8901216983795166 6.071539402008057 -0.006012441590428352
3.8791282176971436 6.082948684692383 -0.0055773151107132435
3.8657994270324707 6.0898871421813965 -0.0055739679373800755
3.840298652648926 6.0775532722473145 -0.00534879881888628
3.8283286094665527 6.087368011474609 -0.0051192170940339565
3.8134076595306396 6.09165620803833 -0.005114540457725525
3.797032356262207 6.093973159790039 -0.0046720379032194614
3.7766404151916504 6.0897979736328125 -0.004662083461880684
3.766681432723999 6.1019744873046875 -0.004227688070386648
3.7442455291748047 6.094718933105469 -0.004218100570142269
3.736682176589966 6.110804080963135 -0.0037876784335821867
3.7146902084350586 6.103260040283203 -0.0037768969777971506
3.7072081565856934 6.120367527008057 -0.0035545998252928257
3.685899257659912 6.113783836364746 -0.0033393115736544132
3.6690914630889893 6.115006446838379 -0.0031043158378452063
3.644242763519287 6.102664947509766 -0.0028876038268208504
3.6368978023529053 6.11917781829834 -0.0026664070319384336
3.6247215270996094 6.128054618835449 -0.0024599330499768257
3.6073787212371826 6.128126621246338 -0.0024570543318986893
3.588839530944824 6.125675678253174 -0.0020201338920742273
3.5790762901306152 6.139040946960449 -0.002023115521296859
3.557637929916382 6.131476879119873 -0.0015845627058297396
3.5433895587921143 6.136219501495361 -0.0015809424221515656
3.5264878273010254 6.137187957763672 -0.0013543883105739951
3.5118422508239746 6.141165733337402 -0.0011482784757390618
3.4976541996002197 6.146373748779297 -0.0009421455906704068
3.4811267852783203 6.1473870277404785 -0.0007199354586191475
3.466820478439331 6.151862144470215 -0.0005124197923578322
3.4484739303588867 6.149567604064941 -0.00028727471362799406
3.433657646179199 6.153461456298828 -0.00028539885533973575
3.4239652156829834 6.166129112243652 0.00014328304678201675
3.401764392852783 6.157102108001709 0.00014684698544442654
3.38543701171875 6.157703399658203 0.00035046227276325226
3.3734583854675293 6.166191101074219 0.0005744579248130322
3.365960121154785 6.1838226318359375 0.0007801861502230167
3.345370054244995 6.176485061645508 0.0010012981947511435
6.427412986755371 -11.278693199157715 0.01701406016945839
6.458944320678711 -11.279544830322266 0.017035875469446182
6.516596794128418 -11.269895553588867 0.016267947852611542
6.550144672393799 -11.273860931396484 0.015916233882308006
6.611697196960449 -11.270265579223633 0.015152808278799057
6.6447343826293945 -11.27291488647461 0.014754828065633774
6.703914165496826 -11.26459789276123 0.013980723917484283
7.3584065437316895 -11.209319114685059 0.008141636848449707
7.395271301269531 -11.214675903320312 0.00733607355505228
7.464236736297607 -11.216192245483398 0.006535626947879791
7.483956813812256 -11.19538402557373 0.006532849278301001
7.554161548614502 -11.198043823242188 0.005728209391236305
7.591033935546875 -11.201711654663086 0.005303556099534035
7.615384101867676 -11.186885833740234 0.004912055097520351
7.654400825500488 -11.194192886352539 0.00492315087467432
7.68257474899292 -11.184735298156738 0.0040972549468278885
7.71725606918335 -11.184724807739258 0.004103043116629124
7.74687385559082 -11.177190780639648 0.0032769017852842808
7.786670684814453 -11.184961318969727 0.0032835842575877905
7.816986083984375 -11.178274154663086 0.004073777236044407
7.847111701965332 -11.17115306854248 0.0040786731988191605
7.885351657867432 -11.17552375793457 0.0032501956447958946
7.920010566711426 -11.175342559814453 0.0032564355060458183
7.9413323402404785 -11.155523300170898 0.0024203862994909286
7.978839874267578 -11.158440589904785 0.0024232459254562855
8.01884651184082 -11.165346145629883 0.002031480660662055
8.048030853271484 -11.156288146972656 0.0015923765022307634
8.08244800567627 -11.154455184936523 0.0015939591685310006
8.152565002441406 -11.15274715423584 0.0007546155247837305
8.192769050598145 -11.158390045166016 -8.815602632239461e-05
8.287056922912598 -11.139331817626953 -0.0009348175371997058
8.395783424377441 -11.138570785522461 -0.0017913387855514884
8.493375778198242 -11.12188720703125 -0.0026525838766247034
8.917593002319336 -11.086523056030273 -0.005759574472904205
8.989847183227539 -11.080476760864258 -0.006647804751992226
9.030673027038574 -11.08370590209961 -0.007119474001228809
9.099518775939941 -11.072647094726562 -0.008011691272258759
9.129476547241211 -11.06222152709961 -0.008430613204836845
9.179121017456055 -11.074102401733398 -0.008457171730697155
9.21330451965332 -11.068513870239258 -0.00892942026257515
9.24740219116211 -11.062705993652344 -0.00935778021812439
9.285297393798828 -11.05993938446045 -0.009834226220846176
9.32690143585205 -11.062795639038086 -0.010273191146552563
9.356461524963379 -11.051239013671875 -0.010279017500579357
9.399383544921875 -11.053963661193848 -0.010769364424049854
9.4332857131958 -11.047298431396484 -0.01119852252304554
9.476053237915039 -11.050214767456055 -0.011690305545926094
9.506957054138184 -11.039091110229492 -0.01081046462059021
9.540977478027344 -11.032211303710938 -0.010821975767612457
9.587188720703125 -11.0378999710083 -0.011740029789507389
9.621428489685059 -11.031000137329102 -0.011752830818295479
9.652080535888672 -11.01989459991455 -0.012187957763671875
9.698274612426758 -11.02502727508545 -0.012686094269156456
9.732887268066406 -11.018182754516602 -0.01270247995853424
9.767265319824219 -11.010322570800781 -0.013614321127533913
9.805976867675781 -11.007150650024414 -0.013638193719089031
9.850582122802734 -11.011128425598145 -0.013666543178260326
9.886796951293945 -11.004212379455566 -0.014587855897843838
9.929102897644043 -11.005274772644043 -0.014615409076213837
9.96679973602295 -11.000431060791016 -0.015543093904852867
10.044870376586914 -10.99383544921875 -0.01559491828083992
10.083641052246094 -10.98974323272705 -0.01652725599706173
10.165040969848633 -10.985864639282227 -0.017499811947345734
10.202706336975098 -10.980134963989258 -0.01752457395195961
10.285436630249023 -10.976104736328125 -0.01850445754826069
10.408943176269531 -10.968875885009766 -0.019527360796928406
10.521749496459961 -10.949069023132324 -0.019608546048402786
10.60767936706543 -10.945842742919922 -0.020615000277757645
10.647781372070312 -10.941699028015137 -0.02064639702439308
10.734384536743164 -10.93814754486084 -0.021660227328538895
10.773462295532227 -10.931791305541992 -0.022629495710134506
10.812891960144043 -10.925721168518066 -0.022663798183202744
10.863200187683105 -10.931090354919434 -0.022722693160176277
10.908073425292969 -10.930078506469727 -0.0237119123339653
10.937583923339844 -10.913625717163086 -0.02372422069311142
10.989870071411133 -10.919677734375 -0.02378830872476101
11.036308288574219 -10.920398712158203 -0.024787481874227524
11.080241203308105 -10.917825698852539 -0.024833768606185913
11.106861114501953 -10.898021697998047 -0.025792401283979416
11.159042358398438 -10.903231620788574 -0.025859501212835312
11.238285064697266 -10.889152526855469 -0.02689240127801895
11.285038948059082 -10.888509750366211 -0.026949260383844376
11.3299560546875 -10.886539459228516 -0.02751047909259796
11.37680435180664 -10.885538101196289 -0.0280214361846447
11.424782752990723 -10.885490417480469 -0.02808312699198723
11.459427833557129 -10.872520446777344 -0.028569582849740982
11.509700775146484 -10.87429141998291 -0.0291444119066
11.552262306213379 -10.869219779968262 -0.029194224625825882
11.601801872253418 -10.869829177856445 -0.030233673751354218
11.640825271606445 -10.860488891601562 -0.030275858938694
11.692939758300781 -10.863810539245605 -0.03035140037536621
11.724239349365234 -10.846317291259766 -0.031347546726465225
11.777109146118164 -10.849960327148438 -0.0314297080039978
11.828804016113281 -10.852290153503418 -0.0315064899623394
11.90750789642334 -10.832493782043457 -0.03257668763399124
11.96317195892334 -10.837146759033203 -0.033651337027549744
12.008536338806152 -10.832326889038086 -0.03371613845229149
12.056787490844727 -10.830558776855469 -0.033786311745643616
12.10572624206543 -10.827879905700684 -0.03484982252120972
12.150314331054688 -10.822458267211914 -0.03491644188761711
12.190229415893555 -10.812728881835938 -0.03496462479233742
12.243524551391602 -10.813356399536133 -0.03604703024029732
12.279589653015137 -10.799933433532715 -0.03609013557434082
12.377140045166016 -10.793622970581055 -0.03724316135048866
12.438371658325195 -10.801660537719727 -0.0373588502407074
12.475263595581055 -10.787036895751953 -0.03793366998434067
12.537071228027344 -10.795093536376953 -0.03853054344654083
12.571895599365234 -10.7797269821167 -0.040057472884655
12.630651473999023 -10.78337287902832 -0.04017125070095062
12.67527961730957 -10.776079177856445 -0.04126013070344925
12.767780303955078 -10.76241397857666 -0.041410449892282486
12.816774368286133 -10.75829792022705 -0.042518362402915955
12.878684997558594 -10.763453483581543 -0.042646624147892
12.91934585571289 -10.751977920532227 -0.04324878379702568
12.965421676635742 -10.74485969543457 -0.04381383955478668
13.027137756347656 -10.74914836883545 -0.04394650459289551
13.070964813232422 -10.739795684814453 -0.04456097632646561
13.125656127929688 -10.73918342590332 -0.04516133666038513
13.165752410888672 -10.725118637084961 -0.045220211148262024
13.227174758911133 -10.72956657409668 -0.04590234160423279
13.275887489318848 -10.722846031188965 -0.046487197279930115
13.336016654968262 -10.725053787231445 -0.04661773890256882
13.373483657836914 -10.70956039428711 -0.04722227156162262
13.437640190124512 -10.713903427124023 -0.04786549508571625
13.474186897277832 -10.697381973266602 -0.04846835881471634
13.535037994384766 -10.69997501373291 -0.049105454236269
13.593974113464355 -10.699457168579102 -0.04923783615231514
13.64708137512207 -10.695466995239258 -0.049907587468624115
13.691055297851562 -10.682796478271484 -0.050485558807849884
13.74280071258545 -10.677364349365234 -0.050594959408044815
13.795052528381348 -10.672128677368164 -0.052833348512649536
13.860780715942383 -10.675722122192383 -0.05299733206629753
13.902107238769531 -10.661663055419922 -0.053578659892082214
13.969175338745117 -10.666492462158203 -0.05431349202990532
14.019908905029297 -10.658536911010742 -0.05442476272583008
14.072378158569336 -10.652416229248047 -0.05562053993344307
14.113700866699219 -10.63705825805664 -0.05569358915090561
14.175323486328125 -10.636735916137695 -0.05584849417209625
14.233255386352539 -10.634111404418945 -0.057072315365076065
14.293357849121094 -10.631511688232422 -0.05722391605377197
14.343588829040527 -10.622713088989258 -0.057336803525686264
14.400276184082031 -10.617849349975586 -0.058565206825733185
14.449098587036133 -10.606916427612305 -0.05867419391870499
14.510076522827148 -10.605413436889648 -0.058831837028265
14.56707763671875 -10.600122451782227 -0.060072265565395355
14.624929428100586 -10.595152854919434 -0.06021847575902939
14.677387237548828 -10.58678150177002 -0.06034426391124725
14.737659454345703 -10.583185195922852 -0.06160765886306763
14.796142578125 -10.577995300292969 -0.06175762414932251
14.905654907226562 -10.561713218688965 -0.06314336508512497
14.97091007232666 -10.56135368347168 -0.0633256658911705
15.085392951965332 -10.547248840332031 -0.06474605947732925
15.25851058959961 -10.526092529296875 -0.06800369918346405
15.382240295410156 -10.516115188598633 -0.06895504146814346
15.448190689086914 -10.514227867126465 -0.06969249248504639
15.558752059936523 -10.493871688842773 -0.07059389352798462
15.624146461486816 -10.490217208862305 -0.07133524119853973
15.750553131103516 -10.479782104492188 -0.07231751084327698
15.807862281799316 -10.469993591308594 -0.07302858680486679
15.950447082519531 -10.468717575073242 -0.07409771531820297
16.002086639404297 -10.45450210571289 -0.07478933036327362
16.06548309326172 -10.447683334350586 -0.07498157024383545
16.138525009155273 -10.446929931640625 -0.07583731412887573
16.19855308532715 -10.438150405883789 -0.07657332718372345
16.265657424926758 -10.432947158813477 -0.07678654789924622
16.334793090820312 -10.42884635925293 -0.07763336598873138
16.3907413482666 -10.416751861572266 -0.07835802435874939
16.46049690246582 -10.411783218383789 -0.0785834938287735
16.52783966064453 -10.40642261505127 -0.07880261540412903
16.598285675048828 -10.402738571166992 -0.08023062348365784
16.65593910217285 -10.389381408691406 -0.08222803473472595
16.733489990234375 -10.389581680297852 -0.08250544965267181
16.79539680480957 -10.379046440124512 -0.08327390998601913
16.870315551757812 -10.376354217529297 -0.08417187631130219
16.921512603759766 -10.359504699707031 -0.08431962132453918
16.997215270996094 -10.355997085571289 -0.08458904176950455
17.072574615478516 -10.353392601013184 -0.08607403188943863
17.15020751953125 -10.35110092163086 -0.08635540306568146
17.209365844726562 -10.337469100952148 -0.08654342591762543
17.27743148803711 -10.329626083374023 -0.08800758421421051
17.36041831970215 -10.329643249511719 -0.08832062780857086
17.431854248046875 -10.32254409790039 -0.08856993913650513
17.488733291625977 -10.307268142700195 -0.08933815360069275
17.64513397216797 -10.299569129943848 -0.09056983888149261
17.719493865966797 -10.293734550476074 -0.09143530577421188
17.864540100097656 -10.27761459350586 -0.09262126684188843
18.083515167236328 -10.252824783325195 -0.09468972682952881
18.778596878051758 -10.182319641113281 -0.10121414065361023
19.001693725585938 -10.1492338180542 -0.10338516533374786
19.165050506591797 -10.13298225402832 -0.10536491870880127
19.26111602783203 -10.132684707641602 -0.1057790145277977
19.425960540771484 -10.115182876586914 -0.10778369009494781
19.498065948486328 -10.101351737976074 -0.10806724429130554
19.673418045043945 -10.087333679199219 -0.11015225946903229
19.76590347290039 -10.083006858825684 -0.1105528324842453
19.83432388305664 -10.065372467041016 -0.1108175665140152
19.940523147583008 -10.066479682922363 -0.11129225790500641
20.022294998168945 -10.055675506591797 -0.11299861967563629
20.09914779663086 -10.040563583374023 -0.11331301182508469
20.186420440673828 -10.031871795654297 -0.11368639767169952
20.29914093017578 -10.034684181213379 -0.11558260023593903
20.37633514404297 -10.019466400146484 -0.11458711326122284
20.464889526367188 -10.01032829284668 -0.11496622860431671
20.55597686767578 -10.001337051391602 -0.11675749719142914
20.635129928588867 -9.986125946044922 -0.11708979308605194
20.72738265991211 -9.97773551940918 -0.11749236285686493
20.83402442932129 -9.975129127502441 -0.11864548921585083
20.91864585876465 -9.96151351928711 -0.11975230276584625
21.113502502441406 -9.945440292358398 -0.12062711268663406
21.39344596862793 -9.913454055786133 -0.12330564111471176
21.6868839263916 -9.884296417236328 -0.1260928213596344
24.15505599975586 -9.571218490600586 -0.14472882449626923
24.27483367919922 -9.560441970825195 -0.14607399702072144
24.381484985351562 -9.543148040771484 -0.14659737050533295
24.48878288269043 -9.525771141052246 -0.14796532690525055
24.615631103515625 -9.516349792480469 -0.14861208200454712
24.732656478881836 -9.501731872558594 -0.14920061826705933
24.849945068359375 -9.486833572387695 -0.1505538523197174
24.960399627685547 -9.469701766967773 -0.15195916593074799
25.090747833251953 -9.457889556884766 -0.15263262391090393
25.20873260498047 -9.442663192749023 -0.15089082717895508
25.322498321533203 -9.425402641296387 -0.15058588981628418
25.573280334472656 -9.396317481994629 -0.15271708369255066
25.960830688476562 -9.353899002075195 -0.1563650369644165
26.328824996948242 -9.299901962280273 -0.15903112292289734
30.39959716796875 -8.766716003417969 -0.18709798157215118
30.589218139648438 -8.613457679748535 -0.18879619240760803
30.406328201293945 -8.423904418945312 -0.188296377658844
29.884174346923828 -8.077308654785156 -0.18576446175575256
29.49697494506836 -7.774007797241211 -0.18396610021591187
20.04222297668457 -3.7785751819610596 -0.12624867260456085
18.839725494384766 0.04254584759473801 -0.18867069482803345
18.812742233276367 0.08152545988559723 -0.18840065598487854
18.743539810180664 0.1601659655570984 -0.18771585822105408
18.68584442138672 0.23837603628635406 -0.18713846802711487
18.647207260131836 0.2765871286392212 -0.18675869703292847
18.587526321411133 0.354004442691803 -0.18617868423461914
18.539688110351562 0.3915823996067047 -0.1856982707977295
18.529165267944336 0.4309622049331665 -0.18612632155418396
18.34285545349121 0.6188281774520874 -0.18491578102111816
18.288330078125 0.6555081605911255 -0.1843802034854889
18.251720428466797 0.6921234130859375 -0.18402934074401855
18.21685791015625 0.7292558550834656 -0.18421012163162231
18.16429901123047 0.7654285430908203 -0.18369726836681366
18.157115936279297 0.8028757572174072 -0.1836436241865158
18.11582374572754 0.8398288488388062 -0.18324071168899536
18.079158782958984 0.8757311701774597 -0.1828877329826355
18.038053512573242 0.9118518829345703 -0.1830844283103943
18.018028259277344 0.9488455653190613 -0.18289460241794586
18.02597427368164 0.9867794513702393 -0.18300162255764008
17.975440979003906 1.0220186710357666 -0.18249791860580444
17.934329986572266 1.0575358867645264 -0.18261462450027466
17.905658721923828 1.0931367874145508 -0.18183982372283936
17.862529754638672 1.1288095712661743 -0.18193845450878143
17.812179565429688 1.2004523277282715 -0.18147528171539307
17.786623001098633 1.2363231182098389 -0.1812356412410736
17.75461196899414 1.2711256742477417 -0.18093831837177277
17.739099502563477 1.3081101179122925 -0.18081806600093842
17.682722091674805 1.37776517868042 -0.18029220402240753
17.645183563232422 1.4127695560455322 -0.1799396276473999
17.61908721923828 1.447483777999878 -0.1797036975622177
17.599258422851562 1.483206033706665 -0.17953044176101685
17.56932830810547 1.5179134607315063 -0.17925527691841125
17.55474853515625 1.5533618927001953 -0.17914468050003052
17.517154693603516 1.5877563953399658 -0.17936202883720398
17.47591781616211 1.6205894947052002 -0.17898190021514893
17.440185546875 1.6913847923278809 -0.17868496477603912
17.414276123046875 1.7253572940826416 -0.17845577001571655
17.366024017333984 1.7944616079330444 -0.178039088845253
17.339920043945312 1.8281397819519043 -0.17780521512031555
17.312976837158203 1.8627033233642578 -0.17757436633110046
17.288026809692383 1.8963186740875244 -0.177354097366333
17.22663116455078 1.963039755821228 -0.1768082231283188
17.19835662841797 1.9959802627563477 -0.17656496167182922
17.150897979736328 2.063710927963257 -0.17616236209869385
17.11041831970215 2.0948710441589355 -0.1757957637310028
17.100502014160156 2.130744695663452 -0.17622965574264526
16.996479034423828 2.262265205383301 -0.17534348368644714
16.968690872192383 2.2949752807617188 -0.17510616779327393
16.940977096557617 2.327528476715088 -0.17487013339996338
16.924591064453125 2.361072301864624 -0.17475643754005432
16.890487670898438 2.3931100368499756 -0.17292574048042297
16.86359405517578 2.4250075817108154 -0.17270535230636597
16.828371047973633 2.456155776977539 -0.17239989340305328
16.805797576904297 2.488980770111084 -0.17221979796886444
16.777816772460938 2.52042818069458 -0.17198589444160461
16.755603790283203 2.553215980529785 -0.1718108057975769
16.722824096679688 2.5842294692993164 -0.17153166234493256
16.68761444091797 2.6142568588256836 -0.17122861742973328
16.670085906982422 2.6480085849761963 -0.17110612988471985
16.642484664916992 2.679043769836426 -0.17087487876415253
16.636316299438477 2.7140350341796875 -0.17087924480438232
16.6175479888916 2.746875762939453 -0.17073337733745575
16.570438385009766 2.7744274139404297 -0.17032067477703094
16.537324905395508 2.8052139282226562 -0.1700400710105896
16.51138687133789 2.8360767364501953 -0.1698296219110489
16.499897003173828 2.869366407394409 -0.16978377103805542
16.464773178100586 2.899507999420166 -0.16948360204696655
16.429180145263672 2.928403854370117 -0.16917163133621216
16.394336700439453 2.957858085632324 -0.1688787341117859
16.38368797302246 2.99153995513916 -0.16882653534412384
16.36381721496582 3.0230157375335693 -0.1686827540397644
16.350677490234375 3.056723117828369 -0.16861361265182495
16.34097671508789 3.0900192260742188 -0.168590247631073
16.268573760986328 3.147348403930664 -0.16643020510673523
16.243816375732422 3.177544116973877 -0.16624078154563904
16.184539794921875 3.2367758750915527 -0.16577115654945374
16.165203094482422 3.267810583114624 -0.16564634442329407
16.144962310791016 3.299633264541626 -0.16550223529338837
16.095966339111328 3.324432134628296 -0.16508346796035767
16.07455825805664 3.3548059463500977 -0.16445240378379822
16.0555362701416 3.3866448402404785 -0.16480253636837006
16.01617431640625 3.413072109222412 -0.1644802689552307
15.995285034179688 3.4443588256835938 -0.16386812925338745
15.98023796081543 3.4758336544036865 -0.1637958288192749
15.946666717529297 3.5032055377960205 -0.16352838277816772
15.919158935546875 3.532827854156494 -0.16330991685390472
15.900733947753906 3.5633769035339355 -0.16320648789405823
15.859479904174805 3.588712215423584 -0.16285908222198486
15.788782119750977 3.608187198638916 -0.162221297621727
15.750804901123047 3.633917808532715 -0.16191096603870392
15.68773078918457 3.654679775238037 -0.1613469123840332
15.59229564666748 3.666576623916626 -0.1604430377483368
15.541149139404297 3.6886003017425537 -0.16000089049339294
15.445554733276367 3.7007827758789062 -0.15910272300243378
15.365377426147461 3.715306043624878 -0.158348947763443
15.307741165161133 3.735535144805908 -0.15783345699310303
15.23696517944336 3.752246856689453 -0.15527600049972534
15.165262222290039 3.7679858207702637 -0.15461817383766174
15.089258193969727 3.782884120941162 -0.1539217084646225
15.025070190429688 3.8004074096679688 -0.1533515900373459
14.95654296875 3.816115379333496 -0.15273752808570862
14.872228622436523 3.828460216522217 -0.15195387601852417
14.795735359191895 3.8415253162384033 -0.15126246213912964
14.74483585357666 3.861497402191162 -0.15082503855228424
14.649255752563477 3.8694190979003906 -0.14992237091064453
14.584894180297852 3.884814977645874 -0.14934876561164856
14.527112007141113 3.902677536010742 -0.1488414704799652
14.45156478881836 3.9145545959472656 -0.14815032482147217
14.38486099243164 3.928546190261841 -0.14755165576934814
14.318310737609863 3.9432592391967773 -0.14695391058921814
14.249513626098633 3.956144094467163 -0.1463353931903839
14.17803955078125 3.9685027599334717 -0.14568570256233215
14.109088897705078 3.981231689453125 -0.1450623869895935
14.031637191772461 3.9908318519592285 -0.14435634016990662
13.97816276550293 4.0079193115234375 -0.1434757113456726
13.918417930603027 4.022065162658691 -0.14293847978115082
13.790780067443848 4.048187255859375 -0.14134001731872559
13.729442596435547 4.061147212982178 -0.14079728722572327
13.609500885009766 4.088077068328857 -0.13801097869873047
13.540570259094238 4.098025321960449 -0.13739880919456482
13.484323501586914 4.112466335296631 -0.13691160082817078
13.418036460876465 4.12270450592041 -0.13632655143737793
13.364158630371094 4.136521339416504 -0.13586542010307312
13.313224792480469 4.151941299438477 -0.13543452322483063
13.242483139038086 4.160053253173828 -0.13480988144874573
13.19771957397461 4.176987171173096 -0.1344427764415741
13.132607460021973 4.186381816864014 -0.13387134671211243
13.077098846435547 4.198602199554443 -0.1329980194568634
13.02165412902832 4.211506366729736 -0.1325242519378662
12.963287353515625 4.22236442565918 -0.13202014565467834
12.917869567871094 4.237242698669434 -0.13165177404880524
12.842558860778809 4.242947578430176 -0.1309739649295807
12.783417701721191 4.252852439880371 -0.13046330213546753
12.741836547851562 4.269272327423096 -0.1301269233226776
12.695676803588867 4.283130168914795 -0.12975388765335083
12.633238792419434 4.291286468505859 -0.1291995495557785
12.590208053588867 4.306690216064453 -0.12885317206382751
12.529077529907227 4.31484317779541 -0.12831875681877136
12.481721878051758 4.327980041503906 -0.12750616669654846
12.417354583740234 4.334949493408203 -0.12694072723388672
12.374425888061523 4.34879207611084 -0.1265932321548462
12.314986228942871 4.357084274291992 -0.12607836723327637
12.264877319335938 4.368412017822266 -0.1244889348745346
12.211610794067383 4.378017425537109 -0.12404395639896393
12.163129806518555 4.389981269836426 -0.12364514172077179
12.101421356201172 4.396115303039551 -0.12310953438282013
12.058485984802246 4.409306526184082 -0.12276647984981537
12.007097244262695 4.419178009033203 -0.12233705818653107
11.968984603881836 4.433374881744385 -0.12204267829656601
11.906587600708008 4.439210891723633 -0.12150317430496216
11.859771728515625 4.449810028076172 -0.12076036632061005
11.825851440429688 4.4651007652282715 -0.12050188332796097
11.781148910522461 4.4770002365112305 -0.12015053629875183
11.70882797241211 4.477346897125244 -0.11910291016101837
11.683082580566406 4.495314121246338 -0.1189306452870369
11.626255989074707 4.501985549926758 -0.118449367582798
11.5745849609375 4.509620666503906 -0.11802133172750473
11.532312393188477 4.521549701690674 -0.11768670380115509
11.486507415771484 4.53111457824707 -0.1173093244433403
11.446131706237793 4.542658805847168 -0.11700133979320526
11.400978088378906 4.552953720092773 -0.11664101481437683
11.355515480041504 4.562143325805664 -0.11626876890659332
11.261669158935547 4.579616546630859 -0.11550948023796082
11.214311599731445 4.5875020027160645 -0.11477106809616089
11.166220664978027 4.595699310302734 -0.11437666416168213
11.133920669555664 4.6094465255737305 -0.11375627666711807
11.083515167236328 4.615545272827148 -0.11333900690078735
11.03744125366211 4.624051094055176 -0.11296030879020691
10.985843658447266 4.629256725311279 -0.11218932271003723
10.94644546508789 4.640215873718262 -0.11189606785774231
10.89900016784668 4.6468095779418945 -0.11150743067264557
10.859353065490723 4.656560897827148 -0.11120136082172394
10.8243408203125 4.668947219848633 -0.11094261705875397
10.783763885498047 4.678010940551758 -0.11063353717327118
10.732603073120117 4.682304859161377 -0.11020436137914658
10.688318252563477 4.690189361572266 -0.10984943807125092
10.64673137664795 4.698312282562256 -0.1095227599143982
10.619390487670898 4.713376045227051 -0.10897192358970642
10.56593132019043 4.715917587280273 -0.1085248738527298
10.523874282836914 4.723360538482666 -0.10818862915039062
10.482460975646973 4.731703758239746 -0.1075364276766777
10.45056438446045 4.743435382843018 -0.10730946063995361
10.3998384475708 4.74686861038208 -0.10689383745193481
10.363956451416016 4.756865501403809 -0.10663016140460968
10.328224182128906 4.766437530517578 -0.10636492073535919
10.282573699951172 4.771679878234863 -0.10599836707115173
10.23862075805664 4.777490615844727 -0.10564576089382172
10.203731536865234 4.787020683288574 -0.10539180040359497
10.160587310791016 4.7932891845703125 -0.10504847764968872
10.123802185058594 4.8016462326049805 -0.10477182269096375
10.091249465942383 4.811882972717285 -0.10453866422176361
10.049409866333008 4.8183088302612305 -0.1038566380739212
10.00401496887207 4.822101593017578 -0.1034843772649765
9.970836639404297 4.832385540008545 -0.10325032472610474
9.939022064208984 4.842462539672852 -0.10302326083183289
9.89283275604248 4.845386505126953 -0.10232888907194138
9.85490608215332 4.852940559387207 -0.10204718261957169
9.824223518371582 4.863188743591309 -0.10183785110712051
9.778911590576172 4.866049766540527 -0.10146869719028473
9.747221946716309 4.876286506652832 -0.10125155001878738
9.715628623962402 4.885715484619141 -0.10102428495883942
9.674585342407227 4.890996932983398 -0.10070490092039108
9.6361083984375 4.896679401397705 -0.10006535053253174
9.60623550415039 4.906607627868652 -0.09986160695552826
9.567760467529297 4.912755012512207 -0.09956927597522736
9.529547691345215 4.918150424957275 -0.09896741807460785
9.45278549194336 4.9290571212768555 -0.0983833521604538
9.425490379333496 4.9397292137146 -0.09820704162120819
9.393558502197266 4.948601245880127 -0.09798482805490494
9.339994430541992 4.945172309875488 -0.09753379225730896
9.297063827514648 4.947171211242676 -0.09685616195201874
9.27031421661377 4.958376884460449 -0.096685990691185
9.241891860961914 4.967867851257324 -0.09717226773500443
9.204744338989258 4.973274230957031 -0.09689594805240631
9.185419082641602 4.987485885620117 -0.09679748117923737
9.130022048950195 4.981966495513916 -0.09632615000009537
9.11235523223877 4.997618675231934 -0.09624961763620377
9.064809799194336 4.996039867401123 -0.09552420675754547
9.045855522155762 5.010095596313477 -0.09543241560459137
9.005411148071289 5.0128631591796875 -0.09511661529541016
8.96700668334961 5.015888214111328 -0.09482438117265701
8.936186790466309 5.023741722106934 -0.09431405365467072
8.901405334472656 5.028526306152344 -0.09405902028083801
8.866162300109863 5.032916069030762 -0.09379497170448303
8.825037956237793 5.034529209136963 -0.0934750959277153
8.801841735839844 5.045535087585449 -0.09334024041891098
8.768329620361328 5.050904750823975 -0.09277068078517914
8.733428955078125 5.05530309677124 -0.09251813590526581
8.711246490478516 5.066627502441406 -0.09239008277654648
8.666187286376953 5.065225601196289 -0.09174241125583649
8.634672164916992 5.070874214172363 -0.09151953458786011
