VERSION .7
FIELDS x y z
SIZE 4 4 4
TYPE F F F
COUNT 1 1 1
WIDTH 845
HEIGHT 1
VIEWPOINT 0 0 0 1 0 0 0
POINTS 845
DATA ascii
22.53811264038086 6.361502647399902 0.2731606364250183
22.49810218811035 6.402132034301758 0.2728429436683655
22.46575164794922 6.443350791931152 0.2722975015640259
22.492002487182617 6.501424312591553 0.2727762758731842
22.442184448242188 6.539003849029541 0.27234286069869995
22.40455436706543 6.578510761260986 0.2709384262561798
22.388195037841797 6.625364303588867 0.2709096074104309
22.35143280029297 6.665287971496582 0.27063244581222534
22.32840347290039 6.708907604217529 0.27052149176597595
22.292421340942383 6.7500505447387695 0.2691507935523987
22.286752700805664 6.798856735229492 0.2692508101463318
22.261802673339844 6.84177303314209 0.2688055634498596
22.216035842895508 6.879683494567871 0.2684309184551239
22.187061309814453 6.921200752258301 0.2682565450668335
22.14629364013672 6.960105895996094 0.26683685183525085
22.1197509765625 7.002560615539551 0.26669594645500183
22.098003387451172 7.0461626052856445 0.26629430055618286
22.03331756591797 7.127899169921875 0.2658681869506836
21.982046127319336 7.162897109985352 0.26432350277900696
21.78870964050293 7.200387477874756 0.2620466947555542
21.646867752075195 7.204524993896484 0.26052606105804443
21.393613815307617 7.2193169593811035 0.25675711035728455
21.265804290771484 7.226511001586914 0.2554064393043518
20.62006187438965 7.249415874481201 0.24721688032150269
20.23431396484375 7.25734806060791 0.24051088094711304
19.894058227539062 7.276785850524902 0.2367243617773056
19.646968841552734 7.280068397521973 0.23314478993415833
19.5472354888916 7.289577484130859 0.23214221000671387
19.32086944580078 7.297698497772217 0.22855490446090698
19.20029067993164 7.298009872436523 0.227309450507164
18.98666763305664 7.308472633361816 0.22514092922210693
18.89689064025879 7.318976879119873 0.22398744523525238
18.774333953857422 7.3173828125 0.2217540442943573
18.684661865234375 7.327419281005859 0.22087420523166656
18.576080322265625 7.329352378845215 0.21977072954177856
18.475605010986328 7.335076332092285 0.21850252151489258
18.361574172973633 7.334231853485107 0.21638888120651245
18.239120483398438 7.329245567321777 0.21512466669082642
18.12973976135254 7.330033302307129 0.21401837468147278
18.037437438964844 7.336580753326416 0.21311211585998535
17.948638916015625 7.344909191131592 0.21198701858520508
17.851806640625 7.348846912384033 0.21010296046733856
17.75960922241211 7.354031085968018 0.20684973895549774
17.667325973510742 7.3597941398620605 0.20570218563079834
17.553604125976562 7.3554792404174805 0.20455604791641235
17.471311569213867 7.363656044006348 0.20377428829669952
17.362138748168945 7.361359596252441 0.20268452167510986
17.27094841003418 7.365016937255859 0.2008998841047287
17.189443588256836 7.372456073760986 0.19988122582435608
17.105642318725586 7.37981653213501 0.1990884393453598
17.01014518737793 7.380524635314941 0.19815604388713837
16.91413688659668 7.381575584411621 0.19633805751800537
16.813753128051758 7.379607677459717 0.19510900974273682
16.737451553344727 7.387579917907715 0.1943994164466858
16.642105102539062 7.387750148773193 0.19347375631332397
16.55303382873535 7.389631271362305 0.19175150990486145
16.472217559814453 7.395532608032227 0.19075694680213928
16.294553756713867 7.397439956665039 0.18905462324619293
16.224435806274414 7.407190322875977 0.18842345476150513
15.963983535766602 7.409910678863525 0.18486197292804718
15.811065673828125 7.4200239181518555 0.18238455057144165
15.563918113708496 7.423788070678711 0.1771392524242401
15.321475982666016 7.426737308502197 0.17468248307704926
15.107949256896973 7.44113826751709 0.1717512458562851
14.95107364654541 7.442028522491455 0.16952279210090637
14.871204376220703 7.441065311431885 0.16879214346408844
14.805992126464844 7.446892738342285 0.1680084764957428
14.730249404907227 7.448022842407227 0.16732941567897797
14.665924072265625 7.453997611999512 0.1659858375787735
14.599739074707031 7.459403038024902 0.16541600227355957
14.52607536315918 7.45982027053833 0.16454178094863892
14.450512886047363 7.459194660186768 0.16386224329471588
14.391311645507812 7.467371940612793 0.16259539127349854
14.305414199829102 7.460761547088623 0.16180041432380676
14.241497993469238 7.465060234069824 0.16103965044021606
14.168801307678223 7.465342044830322 0.1603955626487732
14.107919692993164 7.470948696136475 0.1598830223083496
14.037224769592285 7.470851898193359 0.15828609466552734
13.9727144241333 7.47462797164917 0.15752814710140228
13.914236068725586 7.480762004852295 0.15553367137908936
13.836328506469727 7.476784706115723 0.15484073758125305
13.776922225952148 7.481898307800293 0.15414203703403473
13.7113037109375 7.483150482177734 0.1528344750404358
13.659306526184082 7.492452144622803 0.15243002772331238
13.59877872467041 7.496237277984619 0.1519296020269394
13.50721263885498 7.4823527336120605 0.15087750554084778
13.45036792755127 7.488224983215332 0.14968153834342957
13.393595695495605 7.4933013916015625 0.14922411739826202
13.336763381958008 7.497888088226318 0.1485626995563507
13.270158767700195 7.497796058654785 0.1479988545179367
13.222294807434082 7.506992340087891 0.1469109058380127
13.14592456817627 7.500583171844482 0.1462400257587433
13.090054512023926 7.504985809326172 0.14559131860733032
13.026961326599121 7.504775524139404 0.1450638324022293
12.969882011413574 7.50861120223999 0.1438879519701004
12.860918045043945 7.518022060394287 0.14283159375190735
12.681118965148926 7.52027702331543 0.1406518965959549
12.505241394042969 7.52263879776001 0.13833317160606384
12.38930606842041 7.524136543273926 0.13651436567306519
12.333295822143555 7.525198936462402 0.1360687017440796
12.219827651977539 7.526770114898682 0.13428841531276703
12.056499481201172 7.531126499176025 0.1323338896036148
11.895078659057617 7.534884452819824 0.1308940201997757
11.856032371520996 7.544671058654785 0.12996210157871246
11.796061515808105 7.541740417480469 0.1292959302663803
11.746465682983398 7.544637203216553 0.12892474234104156
11.689066886901855 7.542080879211426 0.12846635282039642
11.631403923034668 7.539896488189697 0.12716425955295563
11.58820629119873 7.546311378479004 0.1268622875213623
11.54198169708252 7.551153659820557 0.12653158605098724
11.48886489868164 7.550495147705078 0.12612120807170868
11.44221305847168 7.5540995597839355 0.1249447837471962
11.384979248046875 7.5510687828063965 0.12449447065591812
11.343832969665527 7.557938098907471 0.12421587109565735
11.2843599319458 7.552172660827637 0.1235572025179863
11.234588623046875 7.553445816040039 0.122718945145607
11.188182830810547 7.556220054626465 0.12238261848688126
11.13554859161377 7.55436897277832 0.12197987735271454
11.08552360534668 7.554848670959473 0.12096792459487915
11.048284530639648 7.563307762145996 0.12055536359548569
10.995119094848633 7.561244964599609 0.12014851719141006
10.953376770019531 7.566066265106201 0.11986474692821503
10.888330459594727 7.55477237701416 0.11869195848703384
10.855302810668945 7.566047668457031 0.11832989007234573
10.796648025512695 7.558717727661133 0.11786395311355591
10.766153335571289 7.570707321166992 0.11707346141338348
10.72318172454834 7.574564456939697 0.11660543084144592
10.669082641601562 7.569798469543457 0.11618916690349579
10.625993728637695 7.573193073272705 0.11589356511831284
10.53918743133545 7.577692985534668 0.1144980862736702
10.484962463378906 7.572524547576904 0.11408494412899017
10.391305923461914 7.570916175842285 0.11262315511703491
10.357254028320312 7.579819679260254 0.11242736130952835
10.259634017944336 7.574932098388672 0.11093529313802719
10.21646785736084 7.575868606567383 0.11063849180936813
10.146587371826172 7.590487480163574 0.11039463430643082
10.007116317749023 7.584733009338379 0.10922688990831375
9.913901329040527 7.58003044128418 0.10796064138412476
9.885841369628906 7.5911359786987305 0.1078258752822876
9.786042213439941 7.58022928237915 0.10633140057325363
9.756598472595215 7.589869022369385 0.10617921501398087
9.675877571105957 7.59269905090332 0.1048993319272995
9.633240699768066 7.591801166534424 0.10460600256919861
9.562379837036133 7.601251602172852 0.10402239114046097
9.519394874572754 7.599578857421875 0.10314483195543289
9.485908508300781 7.605875492095947 0.10295506566762924
9.436605453491211 7.598776340484619 0.10243317484855652
9.402854919433594 7.603816986083984 0.10165819525718689
9.357479095458984 7.600037097930908 0.10134420543909073
9.32780647277832 7.6083221435546875 0.10103365778923035
9.28645133972168 7.607480049133301 0.10018579661846161
9.234700202941895 7.597164154052734 0.09979931265115738
9.200922966003418 7.601652145385742 0.09944771230220795
9.176937103271484 7.6146745681762695 0.09983426332473755
9.126964569091797 7.605245113372803 0.09987419843673706
9.09715461730957 7.6126508712768555 0.09972164034843445
9.051499366760254 7.607178211212158 0.09883210808038712
9.017284393310547 7.610611438751221 0.0984766036272049
8.973562240600586 7.605652809143066 0.09817123413085938
8.938556671142578 7.608651161193848 0.09740322083234787
8.901294708251953 7.6090497970581055 0.09701444208621979
8.866386413574219 7.611846446990967 0.0968082994222641
8.820073127746582 7.603938102722168 0.09647710621356964
8.789294242858887 7.609458923339844 0.09560327231884003
8.75863265991211 7.615504741668701 0.095443956553936
8.721607208251953 7.615152359008789 0.09521465003490448
8.682469367980957 7.612993240356445 0.09425633400678635
8.64389419555664 7.611690044403076 0.09401364624500275
8.612200736999512 7.615772247314453 0.09383909404277802
8.583524703979492 7.62294864654541 0.0930040031671524
8.543532371520996 7.619203567504883 0.09274131059646606
8.514026641845703 7.624872207641602 0.0925925225019455
8.468947410583496 7.616962432861328 0.09227702021598816
8.404301643371582 7.6230878829956055 0.09123031795024872
8.372902870178223 7.626338958740234 0.09105996787548065
8.301750183105469 7.625744342803955 0.09024451673030853
8.266905784606934 7.625428676605225 0.09096473455429077
8.193034172058105 7.621400356292725 0.08997028321027756
8.156645774841309 7.6191864013671875 0.08959649503231049
8.091423988342285 7.622323989868164 0.08870091289281845
8.024969100952148 7.6237640380859375 0.08764757215976715
7.985018253326416 7.617399215698242 0.08738387376070023
7.922799587249756 7.62203311920166 0.08638117462396622
7.90212345123291 7.6337809562683105 0.08632917702198029
7.827775001525879 7.625948905944824 0.08572237193584442
7.792377471923828 7.623046398162842 0.08498679101467133
7.725918292999268 7.6219706535339355 0.08446913212537766
7.705539703369141 7.633686065673828 0.08389978110790253
7.667200088500977 7.628025054931641 0.08365880697965622
7.644964218139648 7.637536525726318 0.08344627916812897
7.599011421203613 7.623403072357178 0.08260342478752136
7.575636386871338 7.632291793823242 0.082382932305336
7.535039901733398 7.623167037963867 0.08211520314216614
7.512638568878174 7.632847785949707 0.08167669177055359
7.475467681884766 7.626675605773926 0.08195457607507706
7.444043159484863 7.626410484313965 0.08164409548044205
7.416910648345947 7.630957126617432 0.08152179419994354
7.387587070465088 7.632413387298584 0.08086646348237991
7.353382110595703 7.628892421722412 0.08052662014961243
7.324453353881836 7.631237983703613 0.08038780093193054
7.298701286315918 7.636064529418945 0.07977122068405151
7.268209457397461 7.6367573738098145 0.07947923243045807
7.233092308044434 7.631509780883789 0.0792689397931099
7.210871696472168 7.639957427978516 0.07869454473257065
7.1719207763671875 7.631080627441406 0.0783095434308052
7.141245365142822 7.630107879638672 0.0781487375497818
7.11684513092041 7.63593864440918 0.07755548506975174
7.0973687171936035 7.647530555725098 0.07738111168146133
7.059633731842041 7.638600826263428 0.07714402675628662
7.033962726593018 7.6427836418151855 0.07653851807117462
6.993343353271484 7.631099700927734 0.07613877207040787
6.973015308380127 7.640689849853516 0.07608769834041595
6.937468528747559 7.634430885314941 0.07538533210754395
6.914393424987793 7.640834808349609 0.07517064362764359
6.882160186767578 7.63721227645874 0.07499310374259949
6.8382720947265625 7.6209821701049805 0.07406821846961975
6.826148986816406 7.639305114746094 0.07410795241594315
6.793784141540527 7.635853290557861 0.07393231242895126
6.763445854187012 7.633594989776611 0.07364019751548767
6.710512161254883 7.638418197631836 0.072927325963974
6.685035705566406 7.641342639923096 0.07268920540809631
6.6308698654174805 7.64415168762207 0.07196641713380814
6.602294921875 7.643197536468506 0.0716930404305458
6.5454230308532715 7.642183303833008 0.07094317674636841
6.524708271026611 7.650073051452637 0.07075637578964233
6.491454601287842 7.644097328186035 0.07009480893611908
6.471254348754883 7.652439117431641 0.07004749029874802
6.40986442565918 7.644911766052246 0.06912052631378174
6.382643699645996 7.644611358642578 0.0688665360212326
6.328420639038086 7.6448822021484375 0.06815414130687714
6.299987316131592 7.64276647567749 0.06788787245750427
6.257538795471191 7.656743049621582 0.06730511039495468
6.22484016418457 7.649073600769043 0.0669935867190361
6.194653511047363 7.64528226852417 0.0668439269065857
6.170310974121094 7.647631645202637 0.0662841945886612
6.144247055053711 7.64795446395874 0.06591574102640152
6.122509002685547 7.6541218757629395 0.0653875395655632
6.100692272186279 7.659377098083496 0.06532296538352966
6.0695061683654785 7.653716564178467 0.06456834077835083
6.044574737548828 7.654853343963623 0.06447291374206543
6.013285160064697 7.647806167602539 0.06430748850107193
5.9983015060424805 7.662380218505859 0.06419236958026886
5.959573745727539 7.645544052124023 0.06348590552806854
5.947412490844727 7.662893772125244 0.06352467834949493
5.910829544067383 7.64923095703125 0.06271892040967941
5.884904384613037 7.648434638977051 0.06261251866817474
5.862663269042969 7.652541160583496 0.0625445768237114
5.841126918792725 7.658054351806641 0.06190085411071777
5.813558578491211 7.6548004150390625 0.06177649646997452
5.793607234954834 7.662459373474121 0.06173686310648918
5.768002033233643 7.661593437194824 0.06150839850306511
5.741980075836182 7.660270690917969 0.06094452738761902
5.716673851013184 7.660342216491699 0.06084666773676872
5.703086853027344 7.675313949584961 0.06028667092323303
5.665981769561768 7.658735275268555 0.06006395071744919
5.650960922241211 7.6724467277526855 0.059951528906822205
5.624056816101074 7.6691975593566895 0.05937839299440384
5.598268508911133 7.667558670043945 0.05927697941660881
5.566875457763672 7.658649921417236 0.05899173021316528
5.548630714416504 7.666954040527344 0.05838889628648758
5.523506164550781 7.6666669845581055 0.05784430727362633
5.5004401206970215 7.668153285980225 0.05719410628080368
5.4773712158203125 7.669548034667969 0.05711839348077774
5.449556350708008 7.665170192718506 0.05699991062283516
5.422102928161621 7.660167217254639 0.056306950747966766
5.400986671447754 7.665004730224609 0.05625683069229126
5.377487659454346 7.665389537811279 0.05617714673280716
5.350277423858643 7.660366535186768 0.05548875033855438
5.3259077072143555 7.660280704498291 0.055405229330062866
5.305553913116455 7.664894104003906 0.05535884201526642
5.2626142501831055 7.671699047088623 0.05467933416366577
5.230347156524658 7.658684730529785 0.054509274661540985
5.195733070373535 7.677225112915039 0.05391799658536911
5.16971492767334 7.673036098480225 0.05369257181882858
5.144979476928711 7.671638488769531 0.05316280573606491
5.12694787979126 7.679152011871338 0.05314071476459503
5.089966773986816 7.658128261566162 0.052802734076976776
5.074984073638916 7.671082496643066 0.052375566214323044
5.048657417297363 7.6658101081848145 0.05226769670844078
5.031240463256836 7.67420768737793 0.05213341489434242
5.006646156311035 7.672167778015137 0.051608942449092865
4.987798690795898 7.67805290222168 0.05145757645368576
4.962296485900879 7.673828125 0.050364408642053604
4.936781406402588 7.670034408569336 0.05027133226394653
4.916282653808594 7.673128128051758 0.049668505787849426
4.8910017013549805 7.669690132141113 0.04957888647913933
4.877355575561523 7.68341588973999 0.04960105940699577
4.847996711730957 7.672309398651123 0.04891101270914078
4.821801662445068 7.667074203491211 0.048811715096235275
4.803771495819092 7.673695087432861 0.04878915101289749
4.779993534088135 7.672102928161621 0.04816127568483353
4.758896827697754 7.67367696762085 0.04810912162065506
4.731776714324951 7.6654157638549805 0.047997768968343735
4.711092948913574 7.668510913848877 0.047403812408447266
4.697971343994141 7.682853698730469 0.04743167757987976
4.669079780578613 7.671555519104004 0.047300856560468674
4.642068386077881 7.663763046264648 0.04664577543735504
4.621301174163818 7.665329933166504 0.04659716412425041
4.600860595703125 7.6684250831604 0.04655646160244942
4.577383518218994 7.665307998657227 0.04593425244092941
4.552584648132324 7.659845352172852 0.04584416747093201
4.536281585693359 7.669673442840576 0.04572869464755058
4.515120506286621 7.6701765060424805 0.04524862766265869
4.495208740234375 7.672728061676025 0.0452088862657547
4.467249870300293 7.66248893737793 0.044975485652685165
4.452303886413574 7.673404693603516 0.044135622680187225
4.428491115570068 7.669216632843018 0.043942008167505264
5.456943035125732 -10.267258644104004 0.07913210988044739
5.482970714569092 -10.264771461486816 0.07920128852128983
5.527258396148682 -10.24364185333252 0.07992739975452423
5.544288635253906 -10.224376678466797 0.0798652246594429
5.599240779876709 -10.222740173339844 0.08074508607387543
5.673795700073242 -10.256103515625 0.0819135308265686
5.694267749786377 -10.242871284484863 0.08261726051568985
5.758114814758301 -10.25577449798584 0.08348128199577332
5.7858452796936035 -10.255254745483398 0.0837283805012703
5.8427934646606445 -10.255035400390625 0.08464878797531128
5.87084436416626 -10.253594398498535 0.08473950624465942
5.8948893547058105 -10.246221542358398 0.08534500747919083
5.9176344871521 -10.236242294311523 0.0855194628238678
5.978710651397705 -10.24209976196289 0.08634606003761292
6.006258964538574 -10.240425109863281 0.0865921899676323
6.031414031982422 -10.233461380004883 0.08721280097961426
6.0651021003723145 -10.241666793823242 0.08754396438598633
6.092513084411621 -10.239429473876953 0.0876326858997345
6.115472316741943 -10.228532791137695 0.08822213113307953
6.152694225311279 -10.242168426513672 0.08860720694065094
6.179470062255859 -10.237438201904297 0.08925323188304901
6.2019219398498535 -10.226604461669922 0.08926989138126373
6.235259056091309 -10.233317375183105 0.089599609375
6.29067850112915 -10.227089881896973 0.09035114198923111
6.3145527839660645 -10.2183256149292 0.09112278372049332
6.351383209228516 -10.229294776916504 0.09149876236915588
6.378754138946533 -10.225666046142578 0.09232108294963837
6.406164646148682 -10.221217155456543 0.09240316599607468
6.432039260864258 -10.215033531188965 0.09246931970119476
6.462410926818848 -10.216187477111816 0.09333732724189758
6.489428520202637 -10.210847854614258 0.09341423213481903
6.515195846557617 -10.204256057739258 0.09348025172948837
6.556143283843994 -10.221562385559082 0.09450328350067139
6.579077243804932 -10.209554672241211 0.0945214107632637
6.606104850769043 -10.204631805419922 0.09518635272979736
6.638699054718018 -10.20740795135498 0.0955033078789711
6.667821407318115 -10.205784797668457 0.0956164225935936
6.694579124450684 -10.20015811920166 0.0962797999382019
6.757205963134766 -10.201659202575684 0.09731008112430573
6.780640602111816 -10.191039085388184 0.09750150144100189
6.841867923736572 -10.189748764038086 0.09835252910852432
6.881535053253174 -10.203012466430664 0.09877997636795044
6.931591987609863 -10.18444538116455 0.09947101771831512
7.019875526428223 -10.176031112670898 0.10057391226291656
7.091507911682129 -10.1878080368042 0.10130783170461655
7.120205879211426 -10.183899879455566 0.10201297700405121
7.185065269470215 -10.185057640075684 0.10249023884534836
7.210350513458252 -10.174966812133789 0.10314011573791504
7.243627071380615 -10.176809310913086 0.10331253707408905
7.273632526397705 -10.17420768737793 0.10360103100538254
7.303352355957031 -10.170068740844727 0.10431744158267975
7.3418965339660645 -10.178812026977539 0.10456502437591553
7.371258735656738 -10.174949645996094 0.1048462986946106
7.403051376342773 -10.173300743103027 0.10559511184692383
7.433106899261475 -10.169897079467773 0.10588440299034119
7.459871768951416 -10.16115951538086 0.10656389594078064
7.490987777709961 -10.159004211425781 0.10670433938503265
7.526675701141357 -10.16318130493164 0.1070769727230072
7.554020404815674 -10.154952049255371 0.1077655702829361
7.618525505065918 -10.153121948242188 0.10824781656265259
7.649718761444092 -10.149731636047363 0.10899557173252106
7.683264255523682 -10.15007209777832 0.10917212069034576
7.714578628540039 -10.147611618041992 0.10948255658149719
7.780587673187256 -10.145467758178711 0.1105918288230896
7.808229446411133 -10.136869430541992 0.11067955195903778
7.843251705169678 -10.138471603393555 0.11087535321712494
7.870831489562988 -10.130615234375 0.11113542318344116
7.9143242835998535 -10.142074584960938 0.11206420511007309
7.942066669464111 -10.13392162322998 0.11215449869632721
7.970854759216309 -10.127297401428223 0.11243259906768799
8.009002685546875 -10.131160736083984 0.11328651010990143
8.039313316345215 -10.126235961914062 0.11341681331396103
8.077971458435059 -10.130685806274414 0.11382819712162018
8.105731964111328 -10.122064590454102 0.11454181373119354
8.140117645263672 -10.121881484985352 0.1147313266992569
8.179723739624023 -10.12702751159668 0.11515738815069199
8.19828987121582 -10.10676383972168 0.11574383080005646
8.241559028625488 -10.117118835449219 0.11605814099311829
8.2750883102417 -10.114349365234375 0.11639900505542755
8.308810234069824 -10.112401962280273 0.11720530688762665
8.382612228393555 -10.115076065063477 0.11764372885227203
8.411042213439941 -10.106619834899902 0.11855095624923706
8.488768577575684 -10.11308765411377 0.11904563009738922
8.515450477600098 -10.102229118347168 0.11993000656366348
8.584022521972656 -10.096981048583984 0.12047044932842255
8.656673431396484 -10.095966339111328 0.12089218944311142
8.765482902526855 -10.093755722045898 0.12233904004096985
8.800564765930176 -10.091773986816406 0.12253628671169281
8.826854705810547 -10.078376770019531 0.12341953814029694
8.864520072937012 -10.079103469848633 0.1236550360918045
8.896773338317871 -10.073545455932617 0.12381143122911453
8.932571411132812 -10.070636749267578 0.12483276426792145
8.970162391662598 -10.070840835571289 0.12506461143493652
8.996674537658691 -10.057531356811523 0.12513691186904907
9.037309646606445 -10.060600280761719 0.12623396515846252
9.064640045166016 -10.04899787902832 0.12632471323013306
9.10980224609375 -10.05605411529541 0.12665565311908722
9.137232780456543 -10.044098854064941 0.12739695608615875
9.182306289672852 -10.05069351196289 0.1279057115316391
9.220426559448242 -10.050190925598145 0.12814272940158844
9.255157470703125 -10.04611873626709 0.12833593785762787
9.287449836730957 -10.038317680358887 0.12932224571704865
9.337804794311523 -10.050558090209961 0.12973123788833618
9.355369567871094 -10.0276517868042 0.12968485057353973
9.406572341918945 -10.039714813232422 0.13075920939445496
9.439142227172852 -10.032404899597168 0.13109970092773438
9.4791259765625 -10.033102035522461 0.13136644661426544
9.508097648620605 -10.020797729492188 0.13165174424648285
9.5527982711792 -10.026155471801758 0.13198238611221313
9.58967113494873 -10.022162437438965 0.1328626573085785
9.625065803527832 -10.017190933227539 0.13306359946727753
9.663230895996094 -10.015228271484375 0.1334851235151291
9.69987678527832 -10.010324478149414 0.13436469435691833
9.743745803833008 -10.013931274414062 0.13468407094478607
9.782310485839844 -10.011913299560547 0.13492988049983978
9.822935104370117 -10.0106201171875 0.1353791356086731
9.856043815612793 -10.002753257751465 0.13622164726257324
9.891009330749512 -9.996659278869629 0.13641853630542755
9.931427001953125 -9.99471378326416 0.13686497509479523
9.97850227355957 -10.000495910644531 0.1379067599773407
10.01702880859375 -9.99656867980957 0.138144850730896
10.047640800476074 -9.985326766967773 0.13827864825725555
10.093425750732422 -9.989280700683594 0.13880860805511475
10.131715774536133 -9.98442268371582 0.13972407579421997
10.170919418334961 -9.981537818908691 0.13997822999954224
10.259212493896484 -9.98371696472168 0.14148837327957153
10.290225982666016 -9.972403526306152 0.14162981510162354
10.370494842529297 -9.96584415435791 0.14215679466724396
10.409174919128418 -9.961549758911133 0.14328224956989288
10.455892562866211 -9.963553428649902 0.14363212883472443
10.497367858886719 -9.961590766906738 0.14391706883907318
10.532991409301758 -9.953937530517578 0.14481721818447113
10.581396102905273 -9.956975936889648 0.1453813761472702
10.615331649780273 -9.947454452514648 0.14556188881397247
10.6580228805542 -9.944783210754395 0.14655634760856628
10.70478630065918 -9.946943283081055 0.14691562950611115
10.73912239074707 -9.937400817871094 0.1472930610179901
10.79967212677002 -9.950688362121582 0.14783219993114471
10.834144592285156 -9.940959930419922 0.14872772991657257
10.876105308532715 -9.937969207763672 0.14901959896087646
10.919417381286621 -9.934826850891113 0.14951536059379578
10.946495056152344 -9.918021202087402 0.1496019959449768
11.00131893157959 -9.92524242401123 0.15077674388885498
11.04850959777832 -9.926044464111328 0.15113922953605652
11.081024169921875 -9.913778305053711 0.15149451792240143
11.128294944763184 -9.913350105285645 0.1518508344888687
11.173141479492188 -9.91179084777832 0.15289917588233948
11.21356201171875 -9.90614128112793 0.15317000448703766
11.254152297973633 -9.899275779724121 0.15363015234470367
11.291620254516602 -9.890746116638184 0.1538613736629486
11.338634490966797 -9.889461517333984 0.15493692457675934
11.384262084960938 -9.88747787475586 0.155278742313385
11.445215225219727 -9.898823738098145 0.15655666589736938
11.471500396728516 -9.878799438476562 0.15662506222724915
11.508241653442383 -9.868919372558594 0.15757562220096588
11.601068496704102 -9.864042282104492 0.15847209095954895
11.643047332763672 -9.85817813873291 0.1587669998407364
11.697038650512695 -9.861068725585938 0.15921661257743835
11.75151252746582 -9.865346908569336 0.16061684489250183
11.795612335205078 -9.860713005065918 0.16093870997428894
11.838309288024902 -9.853520393371582 0.16123415529727936
11.875947952270508 -9.843201637268066 0.1622060388326645
11.928141593933105 -9.84477424621582 0.1628434658050537
11.972951889038086 -9.838833808898926 0.16316762566566467
12.020454406738281 -9.836152076721191 0.16353660821914673
12.062056541442871 -9.828210830688477 0.163821741938591
12.124870300292969 -9.836630821228027 0.16534605622291565
12.155713081359863 -9.81989574432373 0.16548660397529602
12.195699691772461 -9.80921745300293 0.16574549674987793
12.259134292602539 -9.818410873413086 0.16633105278015137
12.30193042755127 -9.81085205078125 0.1673896610736847
12.363049507141113 -9.816459655761719 0.16814211010932922
12.415607452392578 -9.816253662109375 0.16858071088790894
12.503315925598145 -9.800309181213379 0.16997267305850983
12.551071166992188 -9.795761108398438 0.17110790312290192
12.602249145507812 -9.792454719543457 0.17152179777622223
12.668551445007324 -9.8018798828125 0.17214684188365936
12.709161758422852 -9.791205406188965 0.1734008938074112
12.758068084716797 -9.785524368286133 0.17378342151641846
12.89670467376709 -9.763702392578125 0.17581593990325928
12.946516036987305 -9.7592134475708 0.17622023820877075
13.005311965942383 -9.760035514831543 0.17673808336257935
13.073522567749023 -9.768880844116211 0.1773895025253296
13.118753433227539 -9.760318756103516 0.17772996425628662
13.167434692382812 -9.752908706665039 0.17910535633563995
13.21327018737793 -9.744460105895996 0.17945142090320587
13.265271186828613 -9.740108489990234 0.1798810213804245
13.320045471191406 -9.73686695098877 0.1803431212902069
13.386558532714844 -9.742929458618164 0.18176503479480743
13.432584762573242 -9.733583450317383 0.18232905864715576
13.47671127319336 -9.721986770629883 0.1826470047235489
13.527165412902832 -9.715767860412598 0.18305644392967224
13.585933685302734 -9.714049339294434 0.18357020616531372
13.641341209411621 -9.710949897766113 0.18485012650489807
13.69525146484375 -9.706567764282227 0.18552687764167786
13.749849319458008 -9.701202392578125 0.18598291277885437
13.79136848449707 -9.687692642211914 0.18788912892341614
13.85717487335205 -9.689775466918945 0.1887260377407074
13.912001609802246 -9.685189247131348 0.18919961154460907
13.97628402709961 -9.686941146850586 0.18980151414871216
14.034062385559082 -9.682672500610352 0.19030708074569702
14.07467269897461 -9.667641639709473 0.19140347838401794
14.141420364379883 -9.670087814331055 0.19225825369358063
14.19119644165039 -9.659969329833984 0.19265487790107727
14.247589111328125 -9.6551513671875 0.19314977526664734
14.301185607910156 -9.647953033447266 0.19360215961933136
14.360686302185059 -9.643790245056152 0.1949591338634491
14.426271438598633 -9.644455909729004 0.19580380618572235
14.490058898925781 -9.642375946044922 0.19639158248901367
14.541945457458496 -9.633421897888184 0.19682100415229797
14.597622871398926 -9.626506805419922 0.19730304181575775
14.65490436553955 -9.619696617126465 0.19864323735237122
14.71529769897461 -9.615704536437988 0.19918979704380035
14.778054237365723 -9.612735748291016 0.19999639689922333
14.837278366088867 -9.606489181518555 0.20052146911621094
14.894411087036133 -9.5996732711792 0.20102529227733612
14.97127914428711 -9.604010581970215 0.20263835787773132
15.019834518432617 -9.591221809387207 0.2030239999294281
15.143054962158203 -9.580368041992188 0.2046113908290863
15.216251373291016 -9.582517623901367 0.20619602501392365
15.277605056762695 -9.575637817382812 0.20761534571647644
15.336915016174316 -9.568538665771484 0.20815110206604004
15.388333320617676 -9.55631160736084 0.20857709646224976
15.454633712768555 -9.551798820495605 0.20943504571914673
15.521163940429688 -9.548460960388184 0.2100687026977539
15.64793586730957 -9.535844802856445 0.21211962401866913
15.711775779724121 -9.53009033203125 0.21271374821662903
15.845474243164062 -9.520134925842285 0.21422138810157776
15.906846046447754 -9.512140274047852 0.21478448808193207
15.98133659362793 -9.510395050048828 0.21640971302986145
16.058574676513672 -9.5112886428833 0.21718722581863403
16.125930786132812 -9.505749702453613 0.21782924234867096
16.17129898071289 -9.486286163330078 0.2181660532951355
16.249618530273438 -9.486958503723145 0.21920624375343323
16.31184959411621 -9.477672576904297 0.21977731585502625
16.38165283203125 -9.471765518188477 0.2213534414768219
16.445194244384766 -9.463022232055664 0.2219458669424057
16.52777862548828 -9.464656829833984 0.22279489040374756
16.590211868286133 -9.453691482543945 0.2233654260635376
16.647682189941406 -9.440442085266113 0.22412057220935822
16.718605041503906 -9.433804512023926 0.22530874609947205
16.784191131591797 -9.424945831298828 0.22685104608535767
16.864849090576172 -9.423970222473145 0.22860106825828552
16.93622589111328 -9.416723251342773 0.22929680347442627
17.004783630371094 -9.408698081970215 0.22996044158935547
17.074918746948242 -9.399917602539062 0.23063725233078003
17.152177810668945 -9.39612102508545 0.2316731959581375
17.22237777709961 -9.387874603271484 0.23235616087913513
17.302087783813477 -9.383726119995117 0.2341063767671585
17.373146057128906 -9.37566089630127 0.23480531573295593
17.45486068725586 -9.372745513916016 0.2356462925672531
17.670242309570312 -9.34467887878418 0.23800644278526306
17.833070755004883 -9.335984230041504 0.24064505100250244
17.908960342407227 -9.327323913574219 0.24139967560768127
17.98830223083496 -9.32124137878418 0.24220623075962067
18.07135009765625 -9.31645679473877 0.24306264519691467
18.14621925354004 -9.306341171264648 0.24380403757095337
18.212411880493164 -9.2926025390625 0.24469876289367676
18.36648178100586 -9.273937225341797 0.2472304403781891
18.532480239868164 -9.260015487670898 0.24974969029426575
18.619672775268555 -9.25534725189209 0.25066468119621277
18.77328109741211 -9.233308792114258 0.25321176648139954
18.942012786865234 -9.217430114746094 0.25495848059654236
19.025196075439453 -9.20913028717041 0.2558208107948303
19.195133209228516 -9.19180965423584 0.25758296251296997
19.27649688720703 -9.181644439697266 0.2597235441207886
19.45151710510254 -9.164706230163574 0.26155877113342285
19.548480987548828 -9.160866737365723 0.26260724663734436
19.628164291381836 -9.148268699645996 0.26342207193374634
19.72378158569336 -9.1419095993042 0.26444339752197266
19.99739646911621 -9.116447448730469 0.26868268847465515
20.15953826904297 -9.088016510009766 0.2703419327735901
20.255733489990234 -9.080850601196289 0.2713778018951416
20.361610412597656 -9.077298164367676 0.27254343032836914
20.4429931640625 -9.06159782409668 0.2733750343322754
20.53430938720703 -9.050817489624023 0.27434128522872925
20.635995864868164 -9.04335880279541 0.27632588148117065
20.720422744750977 -9.029147148132324 0.27828967571258545
20.79863739013672 -9.011597633361816 0.27908551692962646
20.902921676635742 -9.004117965698242 0.28022727370262146
21.101089477539062 -8.984315872192383 0.2826741635799408
21.20722007751465 -8.977560997009277 0.28384554386138916
21.306556701660156 -8.967193603515625 0.2860337495803833
21.392192840576172 -8.949816703796387 0.2869257628917694
21.51168441772461 -8.947399139404297 0.2882801592350006
21.591264724731445 -8.927656173706055 0.2890949249267578
21.713298797607422 -8.92418098449707 0.29047778248786926
21.798551559448242 -8.906055450439453 0.2913673520088196
22.110464096069336 -8.87170124053955 0.2950960397720337
22.322635650634766 -8.848209381103516 0.2985817790031433
22.534427642822266 -8.822529792785645 0.300915390253067
22.642555236816406 -8.810715675354004 0.3021131157875061
22.87173843383789 -8.789169311523438 0.3046751022338867
23.208812713623047 -8.7516508102417 0.3090742826461792
23.429107666015625 -8.722198486328125 0.3130415976047516
23.76137351989746 -8.67620849609375 0.3167472183704376
23.998014450073242 -8.648250579833984 0.3194126784801483
24.33711814880371 -8.59797477722168 0.32319992780685425
24.46591567993164 -8.586050987243652 0.32467108964920044
24.582504272460938 -8.56971263885498 0.32598164677619934
24.696346282958984 -8.55063533782959 0.3272501826286316
24.84141731262207 -8.542811393737793 0.3301964998245239
24.95271110534668 -8.521883010864258 0.3317785859107971
25.017086029052734 -8.485939025878906 0.3323967158794403
25.059349060058594 -8.441962242126465 0.33271798491477966
25.121627807617188 -8.403596878051758 0.33330368995666504
25.166854858398438 -8.36032772064209 0.3336695730686188
25.182952880859375 -8.307687759399414 0.33365190029144287
25.17460060119629 -8.245710372924805 0.3333072364330292
25.215476989746094 -8.20082950592041 0.3336217403411865
25.248451232910156 -8.153654098510742 0.3341827690601349
25.22559356689453 -8.086807250976562 0.333651065826416
25.244762420654297 -8.035219192504883 0.33368295431137085
25.25691032409668 -7.980072021484375 0.3336189389228821
25.264617919921875 -7.9245147705078125 0.33350038528442383
25.2896785736084 -7.8747687339782715 0.3339657783508301
25.29696273803711 -7.818162441253662 0.33384227752685547
25.322172164916992 -7.768056869506836 0.33396098017692566
25.329980850219727 -7.711653709411621 0.3351132273674011
25.35102081298828 -7.660611152648926 0.3351804316043854
25.367013931274414 -7.607666492462158 0.3351810872554779
25.392465591430664 -7.556580543518066 0.3353046774864197
25.39916229248047 -7.500866889953613 0.335185706615448
25.413034439086914 -7.447661399841309 0.33516377210617065
25.429407119750977 -7.393872261047363 0.33517223596572876
25.44379425048828 -7.281983375549316 0.3349553942680359
25.468141555786133 -7.231805324554443 0.33507657051086426
25.48406219482422 -7.120485782623291 0.3348886966705322
25.535642623901367 -6.962133884429932 0.33498531579971313
25.55970573425293 -6.681234359741211 0.3347107172012329
25.60201644897461 -6.520626068115234 0.3347218334674835
25.598041534423828 -6.404937744140625 0.3343137502670288
25.62686538696289 -6.355309963226318 0.33451664447784424
25.613752365112305 -6.2956647872924805 0.33417463302612305
25.6199951171875 -6.239551544189453 0.33408188819885254
25.638648986816406 -6.187403202056885 0.3341558575630188
25.638713836669922 -6.131143093109131 0.3339903652667999
25.651742935180664 -6.076714038848877 0.3339919447898865
25.667064666748047 -6.023760795593262 0.334027498960495
25.683395385742188 -5.971386909484863 0.3340776562690735
25.672340393066406 -5.854965686798096 0.33360952138900757
25.684507369995117 -5.800403118133545 0.3336069583892822
25.68691635131836 -5.744593143463135 0.3334812819957733
25.710189819335938 -5.6938018798828125 0.33362963795661926
25.695392608642578 -5.633324146270752 0.33328118920326233
25.715587615966797 -5.581491470336914 0.3333914577960968
25.719837188720703 -5.52655029296875 0.3316909372806549
23.74624252319336 -4.945322513580322 0.3058356046676636
23.74688720703125 -4.893738746643066 0.30571192502975464
23.731157302856445 -4.839179992675781 0.30537912249565125
23.74686622619629 -4.789891719818115 0.30545011162757874
23.720840454101562 -4.733112335205078 0.3049873113632202
23.72664451599121 -4.681911945343018 0.30493393540382385
23.634300231933594 -4.612434387207031 0.3036229610443115
23.652149200439453 -4.5649847984313965 0.3037269711494446
23.643722534179688 -4.5113115310668945 0.3034910261631012
24.081390380859375 -4.438103675842285 0.30875346064567566
25.330154418945312 -4.559298992156982 0.32454001903533936
23.71896743774414 -4.114338397979736 0.3035350739955902
23.596498489379883 -3.686264991760254 0.29967576265335083
23.665651321411133 -3.544807195663452 0.30026566982269287
23.550273895263672 -3.426182985305786 0.29861435294151306
23.534038543701172 -3.373650550842285 0.29831787943840027
23.544889450073242 -3.3253567218780518 0.2983677089214325
23.54391860961914 -3.274250030517578 0.2982664108276367
23.521026611328125 -3.221013069152832 0.2978910803794861
23.521211624145508 -3.17132568359375 0.297808974981308
23.83700180053711 -3.1117489337921143 0.3016405701637268
25.607885360717773 -3.1241323947906494 0.3224632740020752
25.60236930847168 -3.069209575653076 0.3223121166229248
25.596681594848633 -3.0146594047546387 0.32216089963912964
25.574535369873047 -2.9566738605499268 0.3218017816543579
25.59038734436035 -2.9047048091888428 0.32192492485046387
25.580718994140625 -2.8498504161834717 0.32104748487472534
25.55979347229004 -2.792253255844116 0.3207091987133026
25.552026748657227 -2.7377583980560303 0.32053983211517334
25.523151397705078 -2.679868698120117 0.32010534405708313
25.52022361755371 -2.6256890296936035 0.31999891996383667
25.52619171142578 -2.572781801223755 0.3187795579433441
25.535499572753906 -2.518627643585205 0.3188275992870331
25.53436851501465 -2.4650228023529053 0.3187490701675415
25.522258758544922 -2.4104068279266357 0.3185342252254486
25.53978729248047 -2.3570284843444824 0.3186907172203064
25.50663948059082 -2.3005969524383545 0.31821590662002563
25.511274337768555 -2.2464239597320557 0.31821343302726746
25.49263572692871 -2.1378564834594727 0.3178665041923523
25.478836059570312 -1.975480079650879 0.3175336420536041
25.449642181396484 -1.3289601802825928 0.31509560346603394
25.453903198242188 -1.2217159271240234 0.31474414467811584
25.451940536499023 -1.1686874628067017 0.31468892097473145
25.455886840820312 -1.0614571571350098 0.31467968225479126
25.46871566772461 -1.0090523958206177 0.31481218338012695
25.462730407714844 -0.9546776413917542 0.31471163034439087
25.46747589111328 -0.9015974998474121 0.314746230840683
25.449949264526367 -0.8481012582778931 0.3145078718662262
25.475055694580078 -0.7944608926773071 0.3147970736026764
25.467567443847656 -0.7413284778594971 0.3146830201148987
25.45384979248047 -0.6880657076835632 0.3144947290420532
25.451005935668945 -0.6335830092430115 0.3144422769546509
25.43830108642578 -0.5804471969604492 0.3130539357662201
25.437023162841797 -0.526052713394165 0.313023179769516
25.42148208618164 -0.4729565382003784 0.3128194212913513
25.431684494018555 -0.42035433650016785 0.3129335641860962
25.428775787353516 -0.3659713566303253 0.31288713216781616
25.421079635620117 -0.3130977749824524 0.31244707107543945
25.37242889404297 -0.2598385512828827 0.3133891522884369
25.356727600097656 -0.2055051028728485 0.3131882846355438
25.32965660095215 -0.1527193933725357 0.3128502666950226
25.316875457763672 -0.09976744651794434 0.3126893937587738
25.290210723876953 -0.04597168415784836 0.31235718727111816
30.498554229736328 0.005988375749439001 0.6247381567955017
30.47355079650879 0.07108278572559357 0.6242263317108154
30.444055557250977 0.13419203460216522 0.6232227087020874
30.469192504882812 0.19939343631267548 0.6237462759017944
30.43546485900879 0.26233652234077454 0.6230636835098267
30.419475555419922 0.3253311514854431 0.6227483749389648
30.41383171081543 0.39025047421455383 0.6226493120193481
30.44829559326172 0.4538905620574951 0.6233742833137512
30.25567626953125 0.896294355392456 0.6196293234825134
30.198408126831055 0.957324206829071 0.6184961199760437
30.151386260986328 1.0829589366912842 0.6176217794418335
30.145401000976562 1.145386815071106 0.6175471544265747
30.115367889404297 1.2712786197662354 0.615195631980896
30.104999542236328 1.3334317207336426 0.6150386929512024
30.026020050048828 1.5191216468811035 0.6136064529418945
29.815937042236328 2.200904369354248 0.6105877161026001
29.747041702270508 2.3839359283447266 0.6094715595245361
29.744293212890625 2.445847511291504 0.6095186471939087
29.70175552368164 2.568326950073242 0.6084650754928589
29.673973083496094 2.6279757022857666 0.6080056428909302
29.662174224853516 2.690805196762085 0.606458306312561
29.64602279663086 2.7513792514801025 0.6062440872192383
29.639694213867188 2.8128421306610107 0.6062324047088623
29.623554229736328 2.875175952911377 0.6060273051261902
29.58498764038086 2.9334187507629395 0.6053603291511536
29.58148765563965 2.9954733848571777 0.6054157018661499
29.563589096069336 3.0570788383483887 0.604785144329071
29.521358489990234 3.114643096923828 0.6040516495704651
29.508028030395508 3.1769888401031494 0.6024994850158691
29.49156379699707 3.23714017868042 0.6022998690605164
29.47613525390625 3.2973666191101074 0.6021230220794678
29.442119598388672 3.357259511947632 0.6015726327896118
29.440670013427734 3.4189977645874023 0.6016870737075806
29.412784576416016 3.477635145187378 0.6012635827064514
29.3840389251709 3.537900924682617 0.603030800819397
29.365436553955078 3.597499370574951 0.6028006076812744
29.380069732666016 3.663013458251953 0.6032603979110718
29.348072052001953 3.7208895683288574 0.6027606725692749
29.322280883789062 3.7794642448425293 0.6023904085159302
29.302719116210938 3.84059739112854 0.6021559834480286
29.2818603515625 3.8996901512145996 0.6000882387161255
29.24382972717285 4.020039081573486 0.5996505618095398
29.202356338500977 4.076101303100586 0.5989723801612854
29.08437156677246 4.246204376220703 0.5970879197120667
28.943500518798828 4.411645889282227 0.5929657220840454
28.5519962310791 5.029910087585449 0.5879455208778381
28.464984893798828 5.19968318939209 0.5864299535751343
28.417978286743164 5.252060890197754 0.5856847167015076
28.367572784423828 5.366390705108643 0.5837293267250061
28.32027244567871 5.41834020614624 0.58298659324646
28.28365707397461 5.473993301391602 0.5824725031852722
28.256729125976562 5.529640197753906 0.5817675590515137
28.24175262451172 5.587585926055908 0.5816968083381653
28.187423706054688 5.639434814453125 0.5808245539665222
28.173551559448242 5.697490692138672 0.5794104337692261
28.125503540039062 5.7485527992248535 0.5786664485931396
28.113433837890625 5.808679103851318 0.578671932220459
28.051727294921875 5.856653690338135 0.577267587184906
28.0273380279541 5.912677764892578 0.5770185589790344
27.99399185180664 5.967741966247559 0.5765915513038635
27.951236724853516 6.019294738769531 0.5746033787727356
27.919811248779297 6.074965476989746 0.5742228627204895
27.88239860534668 6.127453804016113 0.573714017868042
27.87051010131836 6.185498237609863 0.5737321376800537
27.81916618347168 6.236488342285156 0.5750705599784851
27.787504196166992 6.289980888366699 0.5733259916305542
27.74646759033203 6.342642307281494 0.5727559328079224
27.71324920654297 6.395983695983887 0.5723454356193542
27.679914474487305 6.448819637298584 0.5719314217567444
27.63566780090332 6.5007829666137695 0.5709235072135925
27.612079620361328 6.555734157562256 0.5707153081893921
27.56568145751953 6.605177879333496 0.568687379360199
27.513042449951172 6.715210914611816 0.5681799650192261
27.418222427368164 6.874985694885254 0.5667247176170349
27.306777954101562 7.0297932624816895 0.5639795064926147
27.20400619506836 7.185989856719971 0.5610607266426086
26.89426040649414 7.590660095214844 0.5558983683586121
26.87704086303711 7.64644193649292 0.5558711886405945
26.826011657714844 7.753802299499512 0.5541490316390991
26.767261505126953 7.7974324226379395 0.5532668232917786
26.488086700439453 7.837274074554443 0.547799825668335
26.298419952392578 7.840543746948242 0.5442118048667908
26.120046615600586 7.847782611846924 0.5408642292022705
25.9515323638916 7.856281757354736 0.5364187955856323
25.766145706176758 7.858567237854004 0.5325641632080078
25.58869171142578 7.864231109619141 0.5292423367500305
25.41131019592285 7.867467880249023 0.5259101986885071
25.239662170410156 7.871758937835693 0.5214303731918335
25.054338455200195 7.87272834777832 0.5179498791694641
24.881803512573242 7.8752827644348145 0.5143730640411377
24.733360290527344 7.884804725646973 0.5116410851478577
24.560237884521484 7.887452125549316 0.5084072947502136
24.411733627319336 7.895682334899902 0.5056716203689575
24.245059967041016 7.899023056030273 0.5013483762741089
24.095691680908203 7.905708312988281 0.4982609152793884
23.93250846862793 7.9072160720825195 0.49522385001182556
23.77886390686035 7.912835121154785 0.4915296733379364
23.611305236816406 7.911539077758789 0.4884054660797119
23.4783935546875 7.922483444213867 0.4856718182563782
23.324031829833984 7.9246931076049805 0.482820987701416
23.184701919555664 7.931057453155518 0.4802763760089874
23.033599853515625 7.934029579162598 0.47632989287376404
22.903663635253906 7.942819595336914 0.4739835858345032
22.748931884765625 7.942084312438965 0.47080284357070923
22.46921157836914 7.950746059417725 0.46570122241973877
22.320104598999023 7.951342582702637 0.46182748675346375
22.053573608398438 7.960023880004883 0.4566843807697296
21.64267349243164 7.965850830078125 0.44810086488723755
21.240406036376953 7.969764709472656 0.44050008058547974
20.85744285583496 7.977151870727539 0.4322308599948883
20.484283447265625 7.982715606689453 0.4231383204460144
20.223709106445312 7.979127883911133 0.41815856099128723
20.10342025756836 7.980229377746582 0.41497957706451416
19.868045806884766 7.983510971069336 0.4108101725578308
19.765567779541016 7.990316867828369 0.40875256061553955
19.54330825805664 7.996084690093994 0.40383583307266235
19.413864135742188 7.990495204925537 0.40150654315948486
19.212495803833008 8.002398490905762 0.39775779843330383
19.09819221496582 8.001336097717285 0.3947437107563019
18.974363327026367 7.996852874755859 0.3925352990627289
18.879138946533203 8.003192901611328 0.390910804271698
18.769729614257812 8.002803802490234 0.3887169659137726
18.663177490234375 8.004532814025879 0.3858940005302429
18.551237106323242 8.002141952514648 0.38392212986946106
18.4604549407959 8.00846004486084 0.3823865056037903
18.3476505279541 8.006138801574707 0.38013795018196106
18.25530433654785 8.010979652404785 0.37761563062667847
18.137462615966797 8.005230903625488 0.3755268156528473
