VERSION .7
FIELDS x y z
SIZE 4 4 4
TYPE F F F
COUNT 1 1 1
WIDTH 824
HEIGHT 1
VIEWPOINT 0 0 0 1 0 0 0
POINTS 824
DATA ascii
6.333010673522949 5.647839069366455 -0.0036895922385156155
6.310214996337891 5.651062965393066 -0.0031659076921641827
6.293511867523193 5.659877777099609 -0.0031631668098270893
6.259255886077881 5.653108596801758 -0.0031515671871602535
6.238649845123291 5.658048629760742 -0.003147088224068284
6.220449447631836 5.665807723999023 -0.003144435351714492
6.195767402648926 5.666895389556885 -0.002624348271638155
6.169110298156738 5.666070461273193 -0.0026183663867413998
6.149744987487793 5.672550678253174 -0.002615857869386673
6.11637544631958 5.665307998657227 -0.0026054633781313896
6.099936008453369 5.673645496368408 -0.0024615691509097815
6.073172569274902 5.67299747467041 -0.0020914413034915924
6.05483341217041 5.679440498352051 -0.002089694608002901
6.015281677246094 5.690153121948242 -0.0019409414380788803
5.984565734863281 5.684675216674805 -0.0015739758964627981
5.972178936004639 5.697227478027344 -0.001571553759276867
5.940184116363525 5.690298080444336 -0.0015673516318202019
5.916513919830322 5.691215515136719 -0.0015653446316719055
5.896449089050293 5.696215629577637 -0.0014212236274033785
5.874802112579346 5.698920249938965 -0.0003423199232202023
5.853039264678955 5.701432228088379 0.00021888270566705614
5.830557823181152 5.703857898712158 0.00021862960420548916
5.812602519989014 5.709946632385254 0.0005760080530308187
5.793931007385254 5.7152791023254395 0.0005751826683990657
5.763473987579346 5.709578990936279 0.0007123882533051074
5.746205806732178 5.716148376464844 0.0007122601382434368
5.7241034507751465 5.718542098999023 0.0010657320963218808
5.703703880310059 5.721861362457275 0.0010641308035701513
5.676019668579102 5.717770576477051 0.0011992182116955519
5.66239070892334 5.7284650802612305 0.0011992674553766847
5.640429496765137 5.729982376098633 0.0011966413585469127
5.622725009918213 5.736457347869873 0.001548538450151682
5.591864109039307 5.728704929351807 0.0016805188497528434
5.576131343841553 5.736353874206543 0.0016786947380751371
5.554571151733398 5.738651275634766 0.001676252344623208
5.536993026733398 5.744296550750732 0.002024416346102953
5.501827716827393 5.731571674346924 0.002152171451598406
5.491268157958984 5.745087623596191 0.002152599859982729
5.473324775695801 5.750156402587891 0.002150683430954814
5.453797340393066 5.75350284576416 0.0021480887662619352
5.415995121002197 5.738123893737793 0.0026187601033598185
5.411075592041016 5.75679874420166 0.002622173633426428
5.380997180938721 5.749360084533691 0.0026137330569326878
5.361056804656982 5.7519330978393555 0.003300582757219672
5.343238353729248 5.7567219734191895 0.003835108131170273
5.327795028686523 5.764732360839844 0.003832853864878416
5.305157661437988 5.764190673828125 0.004169083200395107
5.284010887145996 5.765178680419922 0.004295853897929192
5.269754886627197 5.774340629577637 0.004294282291084528
5.2516655921936035 5.778557300567627 0.004289304371923208
5.226739883422852 5.775164604187012 0.004620827734470367
5.20519495010376 5.776111602783203 0.004745754413306713
5.183951377868652 5.77659797668457 0.004737304989248514
5.1622514724731445 5.777198314666748 0.0047287424094974995
5.144070148468018 5.780951023101807 0.004723066929727793
5.134193420410156 5.7940192222595215 0.005197531543672085
5.096536636352539 5.7763352394104 0.005171889904886484
5.0828962326049805 5.785029411315918 0.005170218646526337
5.068657398223877 5.79373836517334 0.005168313160538673
5.052876949310303 5.7999444007873535 0.005633982829749584
5.022853851318359 5.78969669342041 0.005613891873508692
5.0088067054748535 5.798483848571777 0.0056120241060853004
4.989943504333496 5.800937175750732 0.005604363977909088
4.977598190307617 5.810933589935303 0.006071032956242561
4.952042102813721 5.80615758895874 0.006054977886378765
4.9281415939331055 5.8024797439575195 0.00604046368971467
4.915870189666748 5.812435150146484 0.006374226417392492
4.901298999786377 5.820377826690674 0.006835992448031902
4.876297950744629 5.81513786315918 0.007078118622303009
4.861496925354004 5.8219828605651855 0.007204117253422737
4.842135906219482 5.824041366577148 0.007526311557739973
4.83298397064209 5.83763313293457 0.0075310273095965385
4.798513889312744 5.8212690353393555 0.007496706210076809
4.7914910316467285 5.83738899230957 0.007634636014699936
4.765353202819824 5.830173969268799 0.00794240739196539
4.753634929656982 5.841259002685547 0.007943462580442429
4.7250518798828125 5.830809593200684 0.007915940135717392
4.716181755065918 5.844618320465088 0.008050302974879742
4.683343887329102 5.829360008239746 0.008343778550624847
4.669103622436523 5.836400508880615 0.008339744061231613
4.655867099761963 5.844677925109863 0.008337604813277721
4.641842842102051 5.8526835441589355 0.008463569916784763
4.617945194244385 5.847435474395752 0.008768636733293533
4.6005401611328125 5.851051330566406 0.00875939056277275
4.579926490783691 5.849777698516846 0.008743147365748882
4.573790073394775 5.8669819831848145 0.009208623319864273
4.540139675140381 5.849545478820801 0.009166005998849869
4.534323692321777 5.867148399353027 0.00917884148657322
4.50978946685791 5.861238479614258 0.009154655039310455
4.495512962341309 5.8678388595581055 0.009601371362805367
4.470685005187988 5.8605828285217285 0.009574418887495995
4.465429782867432 5.879699230194092 0.009913905523717403
4.443813800811768 5.876516342163086 0.010145638138055801
4.416757583618164 5.866000652313232 0.010239324532449245
4.402201175689697 5.872733116149902 0.010555483400821686
4.381610870361328 5.870610237121582 0.010535437613725662
4.3689775466918945 5.879096508026123 0.010534052737057209
4.351953029632568 5.882393836975098 0.010649397037923336
4.328117847442627 5.875639915466309 0.010941111482679844
4.318986892700195 5.88955020904541 0.01094927079975605
4.297234535217285 5.885460376739502 0.01092503685504198
4.277253150939941 5.883692264556885 0.011029735207557678
4.263827800750732 5.891646385192871 0.011347254738211632
4.253718376159668 5.903432846069336 0.011352415196597576
4.2256622314453125 5.890228271484375 0.011310937814414501
4.207355499267578 5.89124059677124 0.011736592277884483
4.191427707672119 5.894765377044678 0.011726555414497852
4.183508396148682 5.909555912017822 0.011738485656678677
4.166105270385742 5.911712169647217 0.011849370785057545
4.1431355476379395 5.905104160308838 0.012135623022913933
4.12668514251709 5.908463001251221 0.012123815715312958
4.116309642791748 5.919739246368408 0.012129734270274639
4.091432571411133 5.910091400146484 0.012531209737062454
4.079677104949951 5.920093536376953 0.012534151785075665
4.054671764373779 5.9100189208984375 0.012495061382651329
4.037186622619629 5.911346912384033 0.012165766209363937
4.022825717926025 5.916863918304443 0.012597160413861275
4.0139055252075195 5.930174827575684 0.012729179114103317
3.9899144172668457 5.921942710876465 0.012692832387983799
3.9754347801208496 5.926956653594971 0.013000542297959328
3.9544029235839844 5.9221296310424805 0.012971557676792145
3.9461417198181152 5.9371819496154785 0.013107872568070889
3.920976161956787 5.925957679748535 0.013065075501799583
3.913289785385132 5.941095352172852 0.0133921317756176
3.8914408683776855 5.935488224029541 0.013361567631363869
3.884213447570801 5.951362133026123 0.013500849716365337
3.8496015071868896 5.9529547691345215 0.013778145425021648
3.8234331607818604 5.939483642578125 0.01385076530277729
3.8102211952209473 5.94683313369751 0.014158215373754501
3.7905595302581787 5.943262100219727 0.014130894094705582
3.779999256134033 5.953920841217041 0.014137993566691875
3.7604780197143555 5.951231479644775 0.014233166351914406
3.7503623962402344 5.962587356567383 0.014550171792507172
3.723723888397217 5.947585582733154 0.01449546217918396
3.718970537185669 5.968302249908447 0.014647768810391426
3.6972615718841553 5.9609880447387695 0.01491764560341835
3.6572628021240234 5.952317237854004 0.014857856556773186
3.652714252471924 5.972667217254639 0.015009823255240917
3.6260623931884766 5.957643985748291 0.01483315322548151
3.6172120571136475 5.970968246459961 0.01484709046781063
3.598540782928467 5.968057632446289 0.015127019956707954
3.591501474380493 5.985260963439941 0.015270723029971123
3.560945510864258 5.962348937988281 0.015193146653473377
3.5539193153381348 5.979564666748047 0.015522865578532219
3.5309042930603027 5.9690093994140625 0.015596548095345497
3.5192339420318604 5.9775543212890625 0.015599179081618786
3.4965617656707764 5.968169212341309 0.015555915422737598
3.4924962520599365 5.989693641662598 0.01589646190404892
3.475184917449951 5.988528728485107 0.015993501991033554
3.4544191360473633 5.9821457862854 0.01595650613307953
3.4378156661987305 5.982025146484375 0.016239024698734283
3.4305503368377686 5.9981608390808105 0.016382157802581787
3.4118785858154297 5.9951958656311035 0.016354192048311234
3.3949458599090576 5.994345664978027 0.016635186970233917
3.377933979034424 5.994133472442627 0.016732946038246155
3.371227264404297 6.011364936828613 0.016761230304837227
3.3491322994232178 6.00112247467041 0.01701442338526249
3.336286783218384 6.008231163024902 0.017131760716438293
3.3197529315948486 6.0077972412109375 0.01711120828986168
3.307295560836792 6.01470422744751 0.01741243526339531
3.2868258953094482 6.007840156555176 0.01737210899591446
3.2709298133850098 6.00836181640625 0.01747141405940056
3.2530150413513184 6.005096912384033 0.017325233668088913
3.2378957271575928 6.007794380187988 0.017313431948423386
6.7475175857543945 -11.84056568145752 0.055863700807094574
6.841845512390137 -11.832545280456543 0.05519132688641548
8.169977188110352 -11.73497200012207 0.04838760942220688
8.453776359558105 -11.71816349029541 0.047132741659879684
8.549368858337402 -11.695008277893066 0.04636938124895096
9.938159942626953 -11.588468551635742 0.041527457535266876
10.050959587097168 -11.571981430053711 0.040758777409791946
10.180578231811523 -11.573444366455078 0.04031413048505783
10.261780738830566 -11.567159652709961 0.040174879133701324
10.287762641906738 -11.54808521270752 0.0395071804523468
10.372245788574219 -11.544661521911621 0.03937593847513199
11.975967407226562 -11.410054206848145 0.03330483287572861
12.011421203613281 -11.396373748779297 0.03261176869273186
12.108453750610352 -11.391924858093262 0.03274837136268616
12.161763191223145 -11.394594192504883 0.03253701329231262
12.250652313232422 -11.38137435913086 0.031915582716464996
12.298432350158691 -11.378303527832031 0.03197718411684036
12.35179615020752 -11.378800392150879 0.0320512056350708
12.38395881652832 -11.361011505126953 0.03105156682431698
12.526354789733887 -11.347453117370605 0.030198656022548676
12.676115036010742 -11.338850021362305 0.029345426708459854
12.833718299865723 -11.335399627685547 0.029248591512441635
14.269121170043945 -11.18236255645752 0.02228010818362236
14.381206512451172 -11.172760963439941 0.022381989285349846
14.43925666809082 -11.169886589050293 0.021320436149835587
14.545693397521973 -11.154626846313477 0.021409032866358757
14.613300323486328 -11.1583890914917 0.02147442102432251
14.716943740844727 -11.139724731445312 0.02043045125901699
14.778007507324219 -11.13778305053711 0.020481841638684273
14.825843811035156 -11.12526798248291 0.02051701955497265
14.885891914367676 -11.121103286743164 0.01975560560822487
14.94735050201416 -11.118762016296387 0.019484035670757294
15.05614185333252 -11.10150146484375 0.018113132566213608
15.112991333007812 -11.09507942199707 0.018152808770537376
15.232105255126953 -11.084107398986816 0.017416927963495255
15.28622817993164 -11.074641227722168 0.017451845109462738
15.413131713867188 -11.068305015563965 0.017215896397829056
15.589971542358398 -11.04741096496582 0.016169926151633263
15.768824577331543 -11.025489807128906 0.015440965071320534
16.99199676513672 -10.89924430847168 0.01093833614140749
17.19097900390625 -10.87389850616455 0.009781716391444206
17.32406997680664 -10.857258796691895 0.009475101716816425
17.383481979370117 -10.843259811401367 0.009491567499935627
17.505725860595703 -10.818427085876465 0.008634774014353752
17.600494384765625 -10.825523376464844 0.008676243014633656
17.737394332885742 -10.808095932006836 0.007446540053933859
17.797481536865234 -10.793063163757324 0.007465064525604248
17.940372467041016 -10.776639938354492 0.007141462992876768
18.022491455078125 -10.775135040283203 0.007171109784394503
18.086456298828125 -10.762067794799805 0.00810552854090929
18.160545349121094 -10.75411319732666 0.006106880027800798
18.23459243774414 -10.746915817260742 0.006127147935330868
18.305835723876953 -10.737356185913086 0.005775962024927139
18.371126174926758 -10.72339916229248 0.005784790031611919
18.443477630615234 -10.713951110839844 0.004866249859333038
18.60120964050293 -10.70149040222168 0.0045256298035383224
18.66568374633789 -10.68665885925293 0.004534725099802017
18.82024383544922 -10.670592308044434 0.004566124640405178
18.896940231323242 -10.661884307861328 0.003249074798077345
20.587020874023438 -10.447711944580078 -0.001775190932676196
20.856483459472656 -10.420097351074219 -0.0032111743930727243
21.030244827270508 -10.396468162536621 -0.003234220901504159
21.10279655456543 -10.37789535522461 -0.0032412251457571983
21.293468475341797 -10.360528945922852 -0.004705747123807669
21.38666534423828 -10.349889755249023 -0.004724746569991112
21.56999969482422 -10.327882766723633 -0.004753659479320049
21.661096572875977 -10.315136909484863 -0.004767168778926134
21.83456039428711 -10.286327362060547 -0.0062711904756724834
21.940725326538086 -10.27958869934082 -0.006295848172158003
22.020414352416992 -10.260786056518555 -0.007372085936367512
22.12830352783203 -10.25522232055664 -0.006558744236826897
22.205827713012695 -10.234048843383789 -0.006577557884156704
22.31345558166504 -10.227097511291504 -0.007026618346571922
22.39565658569336 -10.207406997680664 -0.008124100044369698
22.51223373413086 -10.203699111938477 -0.008156340569257736
22.58945083618164 -10.182243347167969 -0.008178810589015484
22.695480346679688 -10.172231674194336 -0.00821399874985218
22.79727554321289 -10.160623550415039 -0.008673789910972118
22.90287208557129 -10.15077018737793 -0.009798143059015274
23.101051330566406 -10.12242317199707 -0.00986455101519823
23.195619583129883 -10.106534957885742 -0.00989309698343277
23.408082962036133 -10.082024574279785 -0.01040310226380825
23.711483001708984 -10.036458969116211 -0.01163962110877037
25.0109920501709 -9.850780487060547 -0.016385473310947418
25.34402084350586 -9.798355102539062 -0.016563061624765396
25.70888328552246 -9.754084587097168 -0.018440160900354385
25.95505142211914 -9.722638130187988 -0.018586717545986176
26.060712814331055 -9.700597763061523 -0.018647830933332443
26.312692642211914 -9.66841983795166 -0.01879711076617241
26.44432830810547 -9.654549598693848 -0.020596124231815338
26.685272216796875 -9.615348815917969 -0.020751744508743286
26.82366943359375 -9.602371215820312 -0.020841315388679504
26.97091293334961 -9.590131759643555 -0.020940665155649185
27.071823120117188 -9.562777519226074 -0.02150203287601471
27.214191436767578 -9.54825496673584 -0.02285822108387947
27.330720901489258 -9.524957656860352 -0.024205492809414864
27.47132110595703 -9.510072708129883 -0.020788952708244324
27.580528259277344 -9.481945991516113 -0.020856011658906937
27.739957809448242 -9.472432136535645 -0.020961852744221687
27.84825897216797 -9.444931983947754 -0.022823167964816093
27.996030807495117 -9.428413391113281 -0.022928396239876747
28.10622787475586 -9.400627136230469 -0.023002374917268753
28.260875701904297 -9.387189865112305 -0.02311289869248867
18.162967681884766 -5.863654136657715 -0.01597936637699604
18.14670753479004 -5.816850185394287 -0.015954259783029556
18.14614486694336 -5.732509136199951 -0.015932463109493256
18.149444580078125 -5.692156791687012 -0.015925133600831032
18.129924774169922 -5.60228157043457 -0.01704549230635166
18.104270935058594 -5.553223133087158 -0.017010530456900597
18.08075714111328 -5.462807655334473 -0.01696646958589554
18.07375144958496 -5.3369293212890625 -0.01807842031121254
18.061986923217773 -5.209039688110352 -0.016582082957029343
18.0147705078125 -4.950952529907227 -0.01680304855108261
18.01662254333496 -4.870795249938965 -0.017604034394025803
18.005163192749023 -4.826779365539551 -0.017905712127685547
18.002408981323242 -4.744868278503418 -0.017881933599710464
18.009780883789062 -4.706862926483154 -0.017879202961921692
17.97713279724121 -4.6175384521484375 -0.018640484660863876
17.979833602905273 -4.578479290008545 -0.018632521852850914
18.641841888427734 -4.6635355949401855 -0.01971571147441864
18.006967544555664 -4.425061225891113 -0.018943538889288902
17.999778747558594 -4.382871627807617 -0.018925203010439873
17.993595123291016 -4.341832160949707 -0.019720397889614105
17.99483299255371 -4.301472187042236 -0.0205222275108099
17.980178833007812 -4.258544921875 -0.019856266677379608
17.97603416442871 -4.21785831451416 -0.02064930833876133
17.99662971496582 -4.182476997375488 -0.020663676783442497
18.14318084716797 -4.136083602905273 -0.02075209468603134
18.42352294921875 -4.159787178039551 -0.02112470380961895
18.44622802734375 -4.124701499938965 -0.021137086674571037
18.46572494506836 -4.087663173675537 -0.021454090252518654
18.966901779174805 -4.157342910766602 -0.0219586119055748
19.411893844604492 -4.2123212814331055 -0.023413829505443573
19.50814437866211 -4.189944744110107 -0.023522356525063515
19.58267593383789 -4.163459300994873 -0.02359663136303425
19.713911056518555 -4.148263931274414 -0.023736918345093727
25.374008178710938 -5.283148765563965 -0.03066738322377205
24.967105865478516 -5.144391059875488 -0.030188020318746567
24.79419708251953 -4.946046829223633 -0.03147738054394722
24.656387329101562 -4.8111090660095215 -0.03126540035009384
21.01080322265625 -3.9624414443969727 -0.02652144432067871
20.99747657775879 -3.9148221015930176 -0.028360575437545776
21.008419036865234 -3.825382709503174 -0.028353076428174973
22.013193130493164 -3.8655242919921875 -0.029216276481747627
24.022476196289062 -4.0617594718933105 -0.033944156020879745
23.92400550842285 -3.942631244659424 -0.033775221556425095
23.86952781677246 -3.881711959838867 -0.033691007643938065
23.783382415771484 -3.766035556793213 -0.03354034200310707
23.743881225585938 -3.7082178592681885 -0.03346947208046913
23.645450592041016 -3.5919671058654785 -0.034773603081703186
23.605079650878906 -3.5346717834472656 -0.034704726189374924
23.541759490966797 -3.4748477935791016 -0.0345921665430069
23.516633987426758 -3.4202322959899902 -0.03454197570681572
23.446208953857422 -3.3603200912475586 -0.03442559391260147
23.39476203918457 -3.303009271621704 -0.034340664744377136
23.352703094482422 -3.2466108798980713 -0.03426409512758255
23.339279174804688 -3.19498348236084 -0.035268817096948624
23.286819458007812 -3.1385858058929443 -0.03414607420563698
23.24736785888672 -3.0831217765808105 -0.03528604656457901
23.187158584594727 -3.025784492492676 -0.03517535328865051
23.134292602539062 -2.9700732231140137 -0.03610578179359436
23.080841064453125 -2.913506269454956 -0.0360151082277298
23.0432186126709 -2.8597893714904785 -0.03634185343980789
23.010116577148438 -2.806180953979492 -0.036281246691942215
22.971759796142578 -2.7531356811523438 -0.03620835021138191
22.909160614013672 -2.6970245838165283 -0.036098167300224304
22.8870849609375 -2.6452651023864746 -0.036050617694854736
22.85385513305664 -2.592979907989502 -0.03599417954683304
22.8160457611084 -2.539729356765747 -0.03592429682612419
22.780969619750977 -2.4879746437072754 -0.03586263582110405
22.759321212768555 -2.437434673309326 -0.036818958818912506
22.728439331054688 -2.3854212760925293 -0.036766692996025085
22.711824417114258 -2.3360371589660645 -0.03673148155212402
22.678619384765625 -2.284679651260376 -0.03705663979053497
22.649017333984375 -2.233224868774414 -0.0370008647441864
22.63494300842285 -2.1840271949768066 -0.036973822861909866
22.599937438964844 -2.1333229541778564 -0.0369039848446846
22.582992553710938 -2.0834505558013916 -0.03686998039484024
22.5197696685791 -2.0301074981689453 -0.036754488945007324
22.470890045166016 -1.9303336143493652 -0.03766000643372536
22.435253143310547 -1.8803791999816895 -0.03659892827272415
22.388206481933594 -1.7815206050872803 -0.03843348100781441
22.36961555480957 -1.7333333492279053 -0.03839588910341263
22.285930633544922 -1.6324602365493774 -0.03922028839588165
22.277151107788086 -1.5853466987609863 -0.0392000749707222
22.245864868164062 -1.5353645086288452 -0.0391358956694603
22.21738052368164 -1.4870800971984863 -0.039083972573280334
22.186439514160156 -1.3911798000335693 -0.039399001747369766
22.144405364990234 -1.3424153327941895 -0.03931805491447449
22.086254119873047 -1.2455569505691528 -0.03920425474643707
22.068803787231445 -1.1976635456085205 -0.03916805237531662
22.034513473510742 -1.149946689605713 -0.03910648077726364
22.014270782470703 -1.1027092933654785 -0.03906668350100517
21.98766326904297 -1.0546702146530151 -0.03998040780425072
21.948715209960938 -1.006777286529541 -0.03990432992577553
21.9462890625 -0.9610317349433899 -0.0399007685482502
21.914386749267578 -0.9131102561950684 -0.0398382693529129
21.88597869873047 -0.8660591244697571 -0.03978227823972702
21.872228622436523 -0.8200585246086121 -0.04012617468833923
21.844999313354492 -0.7723097801208496 -0.040075868368148804
21.797794342041016 -0.7253528833389282 -0.038068149238824844
21.805692672729492 -0.6793586611747742 -0.03994683176279068
21.761117935180664 -0.6323978900909424 -0.03986266255378723
21.718339920043945 -0.5860495567321777 -0.03978199139237404
21.695308685302734 -0.5394219160079956 -0.04069108888506889
21.69772720336914 -0.4940582513809204 -0.04069366306066513
21.644268035888672 -0.4479036331176758 -0.04059113562107086
21.632400512695312 -0.4014284610748291 -0.04056752845644951
21.59375 -0.355886310338974 -0.040493205189704895
21.584922790527344 -0.31093713641166687 -0.040475353598594666
21.568309783935547 -0.2646147608757019 -0.04081229865550995
21.530704498291016 -0.21946731209754944 -0.04074019193649292
21.514850616455078 -0.17370890080928802 -0.04070940241217613
21.488122940063477 -0.1285315603017807 -0.04065823182463646
21.448049545288086 -0.08378186821937561 -0.040581993758678436
21.440998077392578 -0.03831758350133896 -0.040568407624959946
7.448455333709717 5.30816125869751 -0.04650920629501343
7.366899013519287 5.320189476013184 -0.04565314203500748
7.307046890258789 5.323930263519287 -0.04541943594813347
7.277215957641602 5.3253493309021 -0.04530167579650879
7.217837333679199 5.328716278076172 -0.045070581138134
7.146963119506836 5.346137523651123 -0.04484051465988159
7.054510116577148 5.346470355987549 -0.04407912492752075
6.980282783508301 5.359635353088379 -0.04367431625723839
6.3607940673828125 5.43751335144043 -0.04014027118682861
6.295383453369141 5.450466156005859 -0.03994239866733551
6.2368669509887695 5.445926666259766 -0.038991060107946396
6.221216201782227 5.455055236816406 -0.03896305337548256
6.184014797210693 5.468674182891846 -0.03887490928173065
6.155978202819824 5.4666876792907715 -0.03876965492963791
6.115967750549316 5.477400302886963 -0.03866339474916458
6.093397617340088 5.480015754699707 -0.0382329598069191
6.043252468109131 5.4811296463012695 -0.038062989711761475
6.021456241607666 5.484177589416504 -0.03799661993980408
5.972028732299805 5.485352039337158 -0.03769097104668617
5.957076072692871 5.494452476501465 -0.037668630480766296
5.917677402496338 5.504417419433594 -0.037566013634204865
5.881955146789551 5.494190216064453 -0.03741142898797989
5.439396381378174 5.549229145050049 -0.03414801508188248
5.378814697265625 5.556879043579102 -0.03398633003234863
5.337613582611084 5.56098747253418 -0.033873677253723145
5.321028709411621 5.566786766052246 -0.03384166583418846
5.285558223724365 5.576508522033691 -0.03363325074315071
5.270263671875 5.58353328704834 -0.033272746950387955
5.210805416107178 5.567325592041016 -0.03271101787686348
5.203373908996582 5.583052158355713 -0.0327383428812027
5.178481101989746 5.579704761505127 -0.03265537694096565
5.164165496826172 5.587490081787109 -0.03263797610998154
5.13937520980835 5.584361553192139 -0.03209296613931656
5.131217002868652 5.598963737487793 -0.03211487829685211
5.105526924133301 5.594194412231445 -0.03202688694000244
5.081390380859375 5.591498374938965 -0.03194955363869667
5.060415744781494 5.591880798339844 -0.0318913459777832
5.051105499267578 5.604928016662598 -0.03190555423498154
5.034195423126221 5.6102166175842285 -0.03187466412782669
5.006345272064209 5.60252571105957 -0.03177166357636452
4.986666679382324 5.604360580444336 -0.03126445785164833
4.971780776977539 5.6112284660339355 -0.03124469891190529
4.9534759521484375 5.613997936248779 -0.031202640384435654
4.916482448577881 5.61959981918335 -0.031118299812078476
4.888339996337891 5.610885143280029 -0.03101419098675251
4.848330497741699 5.61251163482666 -0.030909737572073936
4.799644470214844 5.627278804779053 -0.030372845008969307
4.749089241027832 5.639428615570068 -0.029826771467924118
4.694615364074707 5.646408557891846 -0.029385175555944443
4.583655834197998 5.656832218170166 -0.0290098637342453
4.542713165283203 5.654317378997803 -0.02858218550682068
4.524867057800293 5.656612396240234 -0.028544731438159943
4.49653434753418 5.66947078704834 -0.028515100479125977
4.472452163696289 5.663715839385986 -0.02831454947590828
4.433220863342285 5.662907123565674 -0.028216809034347534
4.416273593902588 5.665441989898682 -0.02818368375301361
4.4016218185424805 5.671079158782959 -0.02785128727555275
4.3830647468566895 5.671941757202148 -0.02780994027853012
4.370511531829834 5.680021286010742 -0.02780476212501526
4.357949256896973 5.688797950744629 -0.02767881378531456
4.331182479858398 5.678227424621582 -0.027270404621958733
4.3273234367370605 5.6976494789123535 -0.027320044115185738
4.309198379516602 5.699019432067871 -0.027160177007317543
4.28863525390625 5.696357727050781 -0.027105024084448814
4.264825820922852 5.689468860626221 -0.02702970989048481
4.257036209106445 5.704223155975342 -0.02705669030547142
4.23914098739624 5.7049055099487305 -0.027018088847398758
4.2165021896362305 5.699309825897217 -0.026950044557452202
4.1974992752075195 5.698841094970703 -0.026594841852784157
4.183913230895996 5.705358028411865 -0.026463165879249573
4.161721229553223 5.700387954711914 -0.02639888972043991
4.148403167724609 5.706974983215332 -0.0263897143304348
4.129212856292725 5.705638885498047 -0.026343539357185364
4.115097999572754 5.711579322814941 -0.02633061073720455
4.102150917053223 5.718593597412109 -0.026323724538087845
4.085679054260254 5.720867156982422 -0.02598615549504757
4.065469264984131 5.7181501388549805 -0.025814328342676163
4.054649353027344 5.728273391723633 -0.02582162246108055
4.029733180999756 5.718199729919434 -0.02573847398161888
4.013430118560791 5.720771312713623 -0.0257120244204998
3.999631404876709 5.7265520095825195 -0.025700151920318604
3.988943576812744 5.736571788787842 -0.02570781297981739
3.967066764831543 5.730981826782227 -0.025338688865303993
3.949997663497925 5.731913089752197 -0.02518676035106182
3.9168899059295654 5.735416889190674 -0.02501060999929905
3.8939061164855957 5.727245807647705 -0.024939686059951782
3.8640551567077637 5.735138893127441 -0.02478400245308876
3.8333005905151367 5.741525173187256 -0.024439014494419098
3.826605796813965 5.757333278656006 -0.024472450837492943
3.787395715713501 5.750728607177734 -0.024376360699534416
3.7701430320739746 5.750476837158203 -0.024342074990272522
3.7420811653137207 5.76043701171875 -0.024199366569519043
3.729969024658203 5.76795768737793 -0.0238970834761858
3.7066540718078613 5.758846282958984 -0.023826472461223602
3.690889358520508 5.760585784912109 -0.023801928386092186
3.6749558448791504 5.7625627517700195 -0.02377786673605442
3.6582818031311035 5.762979984283447 -0.023630550131201744
3.6490085124969482 5.77482271194458 -0.023648127913475037
3.6283187866210938 5.769115447998047 -0.023294342681765556
3.614701271057129 5.774235725402832 -0.0232844278216362
3.59844970703125 5.774887561798096 -0.02325689047574997
3.5841500759124756 5.779408931732178 -0.023244211450219154
3.570897102355957 5.784806251525879 -0.023236066102981567
3.547102451324463 5.773027420043945 -0.02292712964117527
3.5335755348205566 5.778652191162109 -0.022918952628970146
3.516371965408325 5.777421951293945 -0.02288508601486683
3.5047152042388916 5.786064624786377 -0.022772550582885742
3.484025478363037 5.77893590927124 -0.02271614782512188
3.47471284866333 5.790631294250488 -0.022438379004597664
3.4552314281463623 5.78614616394043 -0.022391855716705322
3.442042350769043 5.791327953338623 -0.022384652867913246
3.423851728439331 5.788036823272705 -0.02234354242682457
3.4072017669677734 5.788071632385254 -0.022200651466846466
3.388123035430908 5.783078670501709 -0.02215421013534069
3.382443904876709 5.8017659187316895 -0.021903783082962036
3.360112190246582 5.791047096252441 -0.021836712956428528
3.344508647918701 5.791810035705566 -0.021814104169607162
7.64844274520874 5.695816993713379 0.030086670070886612
7.562297821044922 5.705920696258545 0.030465947464108467
7.477115631103516 5.715767860412598 0.030265972018241882
7.408298492431641 5.712752819061279 0.030086591839790344
7.3863983154296875 5.7203474044799805 0.03004419058561325
7.337360382080078 5.731966018676758 0.029942991212010384
7.240909576416016 5.730281829833984 0.030101433396339417
6.431962013244629 5.808687686920166 0.029838543385267258
6.354387283325195 5.811573505401611 0.03002537600696087
6.3072686195373535 5.817450046539307 0.030441902577877045
6.293250560760498 5.828736305236816 0.03028535284101963
6.249985218048096 5.837757110595703 0.030569642782211304
6.212723731994629 5.827139377593994 0.03044729307293892
6.165114879608154 5.831484794616699 0.03047988750040531
6.1541056632995605 5.845317840576172 0.030484292656183243
6.105288505554199 5.848053932189941 0.030365217477083206
6.078723907470703 5.846846103668213 0.030292445793747902
6.027443885803223 5.8465895652771 0.03052782639861107
6.005348205566406 5.849595069885254 0.03047751635313034
5.968159198760986 5.862351894378662 0.030413899570703506
5.939639091491699 5.858808517456055 0.030473988503217697
5.89845085144043 5.867194175720215 0.03038853406906128
5.831350326538086 5.87404203414917 0.030596282333135605
5.41878604888916 5.912022590637207 0.030975347384810448
5.370238304138184 5.908822059631348 0.031189950183033943
5.356438636779785 5.918267250061035 0.03118106909096241
5.306839942932129 5.913331031799316 0.031037036329507828
5.291594505310059 5.921016216278076 0.031019670888781548
5.250678539276123 5.925269603729248 0.03175630047917366
5.233641624450684 5.931316375732422 0.03172885626554489
5.200654983520508 5.918850898742676 0.03160424157977104
5.193368911743164 5.9353532791137695 0.031634554266929626
5.163483142852783 5.926492214202881 0.03152894973754883
5.149624347686768 5.935615062713623 0.03152002766728401
5.128818511962891 5.936476707458496 0.03194711357355118
5.111893177032471 5.942500114440918 0.03192047029733658
5.079225540161133 5.929368495941162 0.03179308772087097
5.069671154022217 5.943660736083984 0.0318121574819088
5.050314426422119 5.9461212158203125 0.03176909685134888
5.0304999351501465 5.947762966156006 0.031721748411655426
5.003701686859131 5.9415669441223145 0.03163180872797966
4.988626480102539 5.948885440826416 0.0316152423620224
4.975746154785156 5.958597183227539 0.032086052000522614
4.9543023109436035 5.958745002746582 0.03202992305159569
4.926164150238037 5.94997501373291 0.031927429139614105
4.915252685546875 5.961939811706543 0.03193666413426399
4.892945766448975 5.960780143737793 0.031874384731054306
4.870815277099609 5.9589924812316895 0.03181096911430359
4.811837196350098 5.96295166015625 0.032137684524059296
4.757653713226318 5.972242832183838 0.03236042708158493
4.699708461761475 5.976424694061279 0.03235291317105293
4.547242641448975 5.987209320068359 0.03245125710964203
4.499231815338135 6.001962184906006 0.032706767320632935
4.47921895980835 6.00117301940918 0.032651424407958984
4.439439296722412 6.000430107116699 0.0326736755669117
4.426290512084961 6.008697509765625 0.032668352127075195
4.408958435058594 6.01146936416626 0.03263334929943085
4.3835225105285645 6.00342321395874 0.032864924520254135
4.371030807495117 6.012474060058594 0.0328654944896698
4.358338832855225 6.021464824676514 0.03286430984735489
4.332785606384277 6.012946128845215 0.03289467841386795
4.3206586837768555 6.022645950317383 0.03322353586554527
4.292657852172852 6.010465145111084 0.03323284536600113
4.281953811645508 6.021860122680664 0.03324664384126663
4.259659767150879 6.017125606536865 0.033171311020851135
4.253908157348633 6.036084175109863 0.03322602063417435
4.2292985916137695 6.0276899337768555 0.03313129395246506
4.218580722808838 6.03925085067749 0.03314630314707756
4.1873979568481445 6.02175235748291 0.033001720905303955
4.179666042327881 6.037545204162598 0.03348861634731293
4.154247760772705 6.027516841888428 0.03338494896888733
4.141844272613525 6.036859512329102 0.03338805213570595
4.126197814941406 6.041110038757324 0.03336397558450699
4.1092915534973145 6.043816566467285 0.033330582082271576
4.087291717529297 6.038372039794922 0.033253446221351624
4.075136184692383 6.047635078430176 0.033577319234609604
4.054350852966309 6.0443878173828125 0.03363654762506485
4.039628505706787 6.049764156341553 0.033619221299886703
3.999547004699707 6.044479846954346 0.03349606320261955
3.98467755317688 6.049475193023682 0.033478010445833206
3.9514968395233154 6.054453372955322 0.033730387687683105
3.93625807762146 6.058536052703857 0.03383142501115799
3.897146224975586 6.05399227142334 0.03383767604827881
3.8819541931152344 6.057976722717285 0.033814843744039536
3.851889133453369 6.067155361175537 0.03389862924814224
3.815479278564453 6.0661139488220215 0.03411708399653435
3.799055814743042 6.067906856536865 0.03408275544643402
3.762049436569214 6.065443515777588 0.0339796245098114
3.7529191970825195 6.0788493156433105 0.03401102125644684
3.708263397216797 6.063497066497803 0.034271273761987686
3.6932926177978516 6.067270278930664 0.0342492051422596
3.6832571029663086 6.079988956451416 0.034276507794857025
3.6594767570495605 6.069118499755859 0.034172333776950836
3.6485328674316406 6.080068111419678 0.034190379083156586
3.6366567611694336 6.089117527008057 0.03432001918554306
3.613431930541992 6.078851222991943 0.03421996161341667
3.595914363861084 6.078909397125244 0.0344868041574955
3.5768561363220215 6.075427055358887 0.03442486748099327
3.5679121017456055 6.089102745056152 0.03446032851934433
3.5500857830047607 6.088460922241211 0.034413695335388184
3.541707992553711 6.103163719177246 0.03457619622349739
3.521273612976074 6.097679615020752 0.03450269624590874
3.5036745071411133 6.096623420715332 0.03457612171769142
3.4839887619018555 6.091595649719238 0.03450644016265869
3.4628424644470215 6.084747314453125 0.034545812755823135
3.452807664871216 6.09650993347168 0.03487912565469742
3.4411792755126953 6.105490684509277 0.03488990664482117
3.4228835105895996 6.103475093841553 0.034835901111364365
3.412060260772705 6.113880157470703 0.03485526144504547
3.3902652263641357 6.1045613288879395 0.034762121737003326
3.3765714168548584 6.110621929168701 0.03487617149949074
3.347504138946533 6.087828159332275 0.03470553830265999
3.341265916824341 6.107348442077637 0.035081494599580765
3.329258918762207 6.115507125854492 0.03508801758289337
3.309242010116577 6.108892440795898 0.03501122444868088
3.289426803588867 6.1034088134765625 0.034939199686050415
21.979469299316406 0.05329130217432976 -0.00036961797741241753
21.883968353271484 0.1919773519039154 -0.0007342917961068451
21.78850555419922 0.3281358480453491 -0.0007312069647014141
21.75682830810547 0.41931313276290894 -0.0016933208098635077
21.782630920410156 0.46503257751464844 -0.0016951423604041338
21.643451690673828 0.6894382834434509 -0.0016845338977873325
21.542360305786133 0.730971097946167 -0.001676882733590901
21.487346649169922 0.774109959602356 -0.002032283926382661
21.39334487915039 0.8161283135414124 0.003791077295318246
21.349506378173828 0.8588283061981201 0.0037836472038179636
21.281803131103516 0.9458921551704407 0.0037717334926128387
21.243938446044922 0.9883854389190674 0.0037637483328580856
21.197195053100586 1.0315953493118286 0.003756062127649784
21.182395935058594 1.0749413967132568 0.003753756172955036
21.14569091796875 1.1174339056015015 0.0037477780133485794
21.116697311401367 1.160787582397461 0.0037437640130519867
21.084095001220703 1.2028861045837402 0.002448864746838808
21.042665481567383 1.244692087173462 0.0024449641350656748
20.998109817504883 1.2867223024368286 0.002439582021906972
20.987056732177734 1.3297661542892456 0.0024381703697144985
20.94824981689453 1.3722434043884277 0.0024340476375073195
20.94266128540039 1.4155302047729492 0.0024342124816030264
20.889129638671875 1.4558173418045044 0.002427439671009779
20.854557037353516 1.4978291988372803 0.0024232573341578245
20.795217514038086 1.5806984901428223 0.0024183401837944984
20.76584243774414 1.6227385997772217 0.0024136535357683897
20.73435401916504 1.6635758876800537 0.0024115722626447678
20.661136627197266 1.7884936332702637 0.0014860378578305244
20.598480224609375 1.8705012798309326 0.004573591984808445
20.525623321533203 1.9940624237060547 0.004560941830277443
20.490352630615234 2.0339150428771973 0.0036426896695047617
20.339771270751953 2.234832525253296 0.003274185350164771
20.26829719543457 2.356027603149414 0.0032651987858116627
20.203601837158203 2.4773316383361816 0.003257886739447713
20.104454040527344 2.594468355178833 0.0023489417508244514
20.044261932373047 2.671666145324707 0.002343858126550913
20.0395565032959 2.7142786979675293 0.002344009932130575
19.97220802307129 2.790860176086426 0.003906726371496916
19.940324783325195 2.8286051750183105 0.0039008609019219875
19.927276611328125 2.8689520359039307 0.0039002930279821157
19.8847599029541 2.906202793121338 0.003891934175044298
19.865915298461914 2.945568084716797 0.003891178173944354
19.84307289123535 2.984618663787842 0.0038871087599545717
19.817405700683594 3.0237233638763428 0.0038829389959573746
19.792871475219727 3.062023878097534 0.0038802768103778362
19.759010314941406 3.0991244316101074 0.0038740355521440506
19.73491668701172 3.1382153034210205 0.003871513996273279
19.727882385253906 3.1790852546691895 0.003535808064043522
19.69321632385254 3.216675281524658 0.003529616165906191
19.660200119018555 3.2531840801239014 0.0035255595576018095
19.634187698364258 3.2907543182373047 0.0035215457901358604
19.61273193359375 3.3302483558654785 0.003519624238833785
19.602603912353516 3.3703956604003906 0.0026396859902888536
19.57118034362793 3.407161235809326 0.002635202370584011
19.519006729125977 3.482496500015259 0.0026305585633963346
19.495121002197266 3.5203330516815186 0.0026275161653757095
19.478530883789062 3.5599827766418457 0.0026276123244315386
19.446685791015625 3.5962202548980713 0.0026230644434690475
19.41065216064453 3.6321191787719727 0.0026183887384831905
19.381488800048828 3.668307304382324 0.0026167873293161392
19.37789535522461 3.70963454246521 0.0012042101006954908
19.331317901611328 3.7432072162628174 0.001201805891469121
19.31993293762207 3.782616138458252 0.0008702768827788532
19.261232376098633 3.8554201126098633 0.0008686435176059604
19.248218536376953 3.894376516342163 0.0008685367647558451
19.180456161499023 4.006680965423584 0.0008673197589814663
19.054222106933594 4.105491638183594 0.0
18.799354553222656 4.174417018890381 0.0
18.2670955657959 4.257930755615234 -0.0003195000172127038
17.947410583496094 4.302548885345459 -0.00031426845816895366
17.851642608642578 4.319616794586182 -0.00031229923479259014
17.732471466064453 4.33007287979126 -0.0033423148561269045
17.625347137451172 4.343513488769531 -0.0033238509204238653
17.505422592163086 4.352512359619141 -0.003302931319922209
17.39919662475586 4.36477518081665 -0.0032846045214682817
17.305648803710938 4.38031005859375 -0.003268689615651965
17.20506477355957 4.392862319946289 -0.003251406131312251
17.092605590820312 4.402262210845947 -0.0040086908265948296
16.99675750732422 4.416006088256836 -0.00428736861795187
16.90292739868164 4.4290924072265625 -0.004266009666025639
16.800140380859375 4.4405341148376465 -0.004242452792823315
16.703588485717773 4.452118396759033 -0.004220394417643547
16.607070922851562 4.46362829208374 -0.00419835839420557
16.518505096435547 4.47737979888916 -0.004178358241915703
16.433876037597656 4.4910712242126465 -0.004159299656748772
16.334835052490234 4.500753879547119 -0.004136607050895691
16.227680206298828 4.5082526206970215 -0.004111881833523512
16.140811920166016 4.520219802856445 -0.004092238377779722
16.05208969116211 4.531613349914551 -0.004072139039635658
15.956864356994629 4.541264057159424 -0.004050414077937603
15.871461868286133 4.55258321762085 -0.004031125456094742
15.803329467773438 4.5696001052856445 -0.0040162913501262665
15.688633918762207 4.571735858917236 -0.0039895446971058846
15.612576484680176 4.5850324630737305 -0.004688876681029797
15.522808074951172 4.594425201416016 -0.004940326791256666
15.435680389404297 4.60349702835083 -0.007156192325055599
15.349224090576172 4.612704753875732 -0.007825851440429688
15.272615432739258 4.624993324279785 -0.007791771553456783
15.185482025146484 4.633315086364746 -0.008022576570510864
15.096685409545898 4.640488147735596 -0.007980742491781712
15.030617713928223 4.655065536499023 -0.00795077160000801
14.933509826660156 4.6592535972595215 -0.007904743775725365
14.780221939086914 4.679546356201172 -0.007834172807633877
14.698898315429688 4.687656879425049 -0.007796597667038441
14.552950859069824 4.708452224731445 -0.0077293021604418755
14.331396102905273 4.736772060394287 -0.00762717192992568
14.102577209472656 4.759692192077637 -0.008176098577678204
13.89008617401123 4.785451889038086 -0.008320866152644157
13.688179969787598 4.813044548034668 -0.008217809721827507
13.540741920471191 4.824702262878418 -0.01193256676197052
13.468286514282227 4.8310747146606445 -0.011877074837684631
13.3419189453125 4.848597526550293 -0.011784249916672707
13.278154373168945 4.857304096221924 -0.011736908927559853
13.21639633178711 4.866089344024658 -0.01169184036552906
13.13879680633545 4.868503570556641 -0.011631055735051632
13.077071189880371 4.877172946929932 -0.01158530917018652
13.011421203613281 4.883723258972168 -0.011537117883563042
12.947829246520996 4.891183376312256 -0.011726310476660728
12.882659912109375 4.8971381187438965 -0.01167669240385294
12.820459365844727 4.9042181968688965 -0.012232083827257156
12.746847152709961 4.907049655914307 -0.012171410955488682
12.688600540161133 4.914884567260742 -0.012125562876462936
12.642183303833008 4.927348613739014 -0.012091964483261108
12.5824556350708 4.934810161590576 -0.01204384583979845
12.517894744873047 4.93973445892334 -0.011992068961262703
12.4432373046875 4.940773963928223 -0.011930295266211033
12.385931968688965 4.947800159454346 -0.01188530120998621
12.325554847717285 4.953609466552734 -0.011835298500955105
12.266946792602539 4.960275650024414 -0.011790123768150806
12.234461784362793 4.976705074310303 -0.011770747601985931
12.155673027038574 4.974322319030762 -0.01170355174690485
12.105186462402344 4.983636379241943 -0.014539889991283417
12.048184394836426 4.989434242248535 -0.014485504478216171
12.004962921142578 5.000986099243164 -0.014447376132011414
11.938664436340332 5.003084659576416 -0.014378879219293594
11.88747501373291 5.010897636413574 -0.014331400394439697
11.836772918701172 5.0190935134887695 -0.014284254983067513
11.76869010925293 5.019063472747803 -0.014211330562829971
11.716317176818848 5.025725841522217 -0.014379635453224182
11.667745590209961 5.03419303894043 -0.014890969730913639
11.612024307250977 5.038995742797852 -0.014834200032055378
11.56342601776123 5.04644775390625 -0.014784738421440125
11.50799560546875 5.0513153076171875 -0.014727624133229256
11.469160079956055 5.062915325164795 -0.01469327136874199
11.395915985107422 5.058865547180176 -0.014610350131988525
11.352818489074707 5.068560600280762 -0.014569241553544998
11.203277587890625 5.08650541305542 -0.014419574290513992
11.147130012512207 5.089169979095459 -0.014360003173351288
11.065038681030273 5.1081132888793945 -0.0142830740660429
10.907798767089844 5.118955135345459 -0.01412137784063816
10.754271507263184 5.1296491622924805 -0.013756661675870419
10.611916542053223 5.143885612487793 -0.013818556442856789
10.522757530212402 5.155508518218994 -0.013730702921748161
10.484576225280762 5.164381980895996 -0.01369437761604786
10.382737159729004 5.1680989265441895 -0.013586681336164474
10.357391357421875 5.18289852142334 -0.01357448473572731
10.303300857543945 5.1828155517578125 -0.013515347614884377
10.255720138549805 5.185576438903809 -0.013466139324009418
10.235895156860352 5.202818393707275 -0.013455696403980255
10.162967681884766 5.192535877227783 -0.013372446410357952
10.11623477935791 5.195160865783691 -0.013322683051228523
10.079898834228516 5.203524112701416 -0.013292431831359863
10.050369262695312 5.214941024780273 -0.013266924768686295
9.995905876159668 5.213595867156982 -0.013207383453845978
9.94842529296875 5.215120792388916 -0.013160750269889832
9.908296585083008 5.220542907714844 -0.01311982050538063
9.876940727233887 5.230792045593262 -0.013095654547214508
9.826416969299316 5.230390548706055 -0.012552646920084953
9.788267135620117 5.236180305480957 -0.012709641829133034
9.744294166564941 5.239246368408203 -0.012666123919188976
9.706850051879883 5.24532413482666 -0.012629533186554909
9.659628868103027 5.246284008026123 -0.012580384500324726
9.617218971252441 5.249124526977539 -0.012542598880827427
9.571979522705078 5.2504563331604 -0.012495389208197594
9.541596412658691 5.2601237297058105 -0.012468993663787842
9.501608848571777 5.263819694519043 -0.012432308867573738
9.470163345336914 5.27232551574707 -0.012407537549734116
9.42137336730957 5.271346092224121 -0.012356274761259556
9.38509750366211 5.2768635749816895 -0.012325199320912361
9.347787857055664 5.281447410583496 -0.012473948299884796
9.308610916137695 5.285366058349609 -0.012436605989933014
9.273810386657715 5.291296482086182 -0.01240624487400055
9.232426643371582 5.293648719787598 -0.012362347915768623
9.193065643310547 5.296669960021973 -0.012325506657361984
9.16722297668457 5.307149887084961 -0.012306529097259045
9.091683387756348 5.314664840698242 -0.012235431931912899
9.040430068969727 5.309906005859375 -0.01218146551400423
8.959449768066406 5.313217639923096 -0.01210201345384121
8.941852569580078 5.327894687652588 -0.012093628756701946
8.860471725463867 5.330095291137695 -0.011106195859611034
8.794224739074707 5.340810775756836 -0.011050635948777199
8.767538070678711 5.349539756774902 -0.011030605994164944
8.693090438842773 5.354485511779785 -0.010964542627334595
8.592255592346191 5.367176532745361 -0.010880704037845135
8.478890419006348 5.370758533477783 -0.010780107229948044
8.437013626098633 5.369317531585693 -0.010740538127720356
8.401111602783203 5.371199607849121 -0.010879321955144405
8.378329277038574 5.381160736083984 -0.01086437702178955
8.34722900390625 5.386205196380615 -0.01083845179527998
8.309049606323242 5.386226654052734 -0.010804414749145508
8.278768539428711 5.391546249389648 -0.01077912375330925
8.246370315551758 5.395053863525391 -0.010751727968454361
8.220881462097168 5.402772903442383 -0.010734081268310547
8.188644409179688 5.406468868255615 -0.010705660097301006
8.149924278259277 5.405423164367676 -0.010669505223631859
8.132694244384766 5.418330192565918 -0.010662823915481567
8.091070175170898 5.4153900146484375 -0.009341013617813587
8.043785095214844 5.408145904541016 -0.00929934997111559
8.016231536865234 5.413809776306152 -0.009280592203140259
7.983667373657227 5.416486740112305 -0.00925592053681612
7.954842567443848 5.421270370483398 -0.009235781617462635
