VERSION .7
FIELDS x y z
SIZE 4 4 4
TYPE F F F
COUNT 1 1 1
WIDTH 833
HEIGHT 1
VIEWPOINT 0 0 0 1 0 0 0
POINTS 833
DATA ascii
13.884881019592285 -5.944143772125244 -0.26756909489631653
13.852659225463867 -5.8961181640625 -0.2669375538825989
13.858311653137207 -5.863833427429199 -0.26749423146247864
13.845907211303711 -5.824736595153809 -0.26701992750167847
13.84756088256836 -5.790647029876709 -0.26703813672065735
13.835184097290039 -5.751769065856934 -0.2672572135925293
13.819430351257324 -5.711370944976807 -0.2669476568698883
13.80837631225586 -5.672539710998535 -0.26718780398368835
13.809988975524902 -5.639736175537109 -0.26721641421318054
13.797863006591797 -5.601161956787109 -0.26743894815444946
13.810083389282227 -5.5384931564331055 -0.2653897702693939
13.807256698608398 -5.503389358520508 -0.26601651310920715
13.801424026489258 -5.467901229858398 -0.26568618416786194
13.804523468017578 -5.4357733726501465 -0.26621344685554504
13.79757022857666 -5.399258613586426 -0.2660799026489258
13.809415817260742 -5.370874881744385 -0.2667747735977173
13.799554824829102 -5.3002424240112305 -0.26637277007102966
13.784046173095703 -5.261249542236328 -0.2667582631111145
13.775227546691895 -5.191761016845703 -0.2668408751487732
13.78886604309082 -5.1640119552612305 -0.2671135663986206
13.742130279541016 -4.98264741897583 -0.26696687936782837
13.739848136901855 -4.884307861328125 -0.2672099471092224
13.74099349975586 -4.819630146026611 -0.26772406697273254
13.718038558959961 -4.778923988342285 -0.26729458570480347
13.71280574798584 -4.713142395019531 -0.2656915485858917
13.718128204345703 -4.682458877563477 -0.2656083106994629
13.705950736999512 -4.613947868347168 -0.26587459444999695
13.692020416259766 -4.577646255493164 -0.2654240131378174
13.708267211914062 -4.5514726638793945 -0.26643362641334534
13.70748519897461 -4.518726348876953 -0.26622945070266724
13.715391159057617 -4.489798545837402 -0.26641467213630676
13.710756301879883 -4.456573963165283 -0.2668038010597229
13.728361129760742 -4.43011999130249 -0.266960471868515
13.703807830810547 -4.3908185958862305 -0.266526997089386
13.716423034667969 -4.362573146820068 -0.26725509762763977
13.71471881866455 -4.33071231842041 -0.2670471966266632
13.713739395141602 -4.299126148223877 -0.26706257462501526
13.69703483581543 -4.261775970458984 -0.26722443103790283
13.705498695373535 -4.233234405517578 -0.2672176659107208
13.700946807861328 -4.200478553771973 -0.2671695351600647
13.684235572814941 -4.1636199951171875 -0.26732727885246277
13.676677703857422 -4.130331039428711 -0.26723068952560425
13.683690071105957 -4.101258277893066 -0.26719731092453003
13.678119659423828 -4.06798791885376 -0.26757463812828064
13.69524097442627 -4.0419416427612305 -0.2679552733898163
13.679036140441895 -4.005634784698486 -0.2676926255226135
13.67863941192627 -3.974717140197754 -0.2664155066013336
13.665731430053711 -3.90863037109375 -0.26649969816207886
13.658955574035645 -3.876046657562256 -0.2664194107055664
13.655950546264648 -3.8131256103515625 -0.26604798436164856
13.645750999450684 -3.7795498371124268 -0.2665635347366333
13.652116775512695 -3.719698905944824 -0.26637423038482666
13.625079154968262 -3.6817564964294434 -0.2665654122829437
13.6297025680542 -3.5299010276794434 -0.2667759358882904
13.606992721557617 -3.432887077331543 -0.2667607069015503
13.60726261138916 -3.3720662593841553 -0.2673383355140686
13.614147186279297 -3.3431358337402344 -0.2673265337944031
13.625965118408203 -3.285919189453125 -0.26814791560173035
13.599493980407715 -3.24902606010437 -0.267699658870697
13.593889236450195 -3.187230348587036 -0.2668958008289337
13.601444244384766 -3.159237861633301 -0.26690131425857544
13.589285850524902 -3.126492500305176 -0.2671796977519989
13.587082862854004 -3.0956530570983887 -0.26721903681755066
13.585289001464844 -3.0656025409698486 -0.2670481204986572
13.58316421508789 -3.0353004932403564 -0.2668842077255249
13.580986022949219 -3.004580497741699 -0.2675682306289673
13.573821067810059 -2.9734621047973633 -0.267310231924057
13.577194213867188 -2.943819522857666 -0.2672498822212219
13.561025619506836 -2.910862445831299 -0.266815721988678
13.55742073059082 -2.8804588317871094 -0.2674620747566223
13.551462173461914 -2.8491628170013428 -0.2672352194786072
13.536649703979492 -2.816727876663208 -0.26681673526763916
13.555370330810547 -2.791076183319092 -0.2672803997993469
13.549942970275879 -2.7600107192993164 -0.2676948308944702
13.553942680358887 -2.731332540512085 -0.26765674352645874
13.538763999938965 -2.6984007358551025 -0.26724714040756226
13.526867866516113 -2.666856050491333 -0.2671160101890564
13.528759002685547 -2.637864112854004 -0.26767393946647644
13.547314643859863 -2.611664295196533 -0.2679194211959839
13.525693893432617 -2.5783965587615967 -0.26739197969436646
13.55203914642334 -2.524317979812622 -0.2687378227710724
13.534619331359863 -2.4918136596679688 -0.26828712224960327
13.536840438842773 -2.43353533744812 -0.2683452367782593
13.527056694030762 -2.402600049972534 -0.2680424153804779
13.511617660522461 -2.341411590576172 -0.26838627457618713
13.523859024047852 -2.2558460235595703 -0.268334299325943
13.517081260681152 -2.1674647331237793 -0.26876944303512573
13.497779846191406 -2.106102466583252 -0.26903337240219116
13.493732452392578 -2.076159715652466 -0.2688673138618469
13.498445510864258 -2.019364833831787 -0.2687791883945465
13.494312286376953 -1.9894896745681763 -0.268616259098053
13.48526382446289 -1.9301648139953613 -0.2691047787666321
13.499613761901855 -1.9036388397216797 -0.2693132162094116
13.486128807067871 -1.8729972839355469 -0.2689630389213562
13.500985145568848 -1.845876932144165 -0.2691739797592163
13.48735237121582 -1.81550931930542 -0.26966622471809387
13.495844841003418 -1.7879410982131958 -0.27039122581481934
13.503514289855957 -1.7598177194595337 -0.2706659436225891
13.476106643676758 -1.7278131246566772 -0.27067267894744873
13.47797966003418 -1.6987954378128052 -0.27063053846359253
13.4638671875 -1.6686406135559082 -0.2702844738960266
13.456504821777344 -1.6391774415969849 -0.27006998658180237
13.450511932373047 -1.6094987392425537 -0.26987120509147644
13.436741828918457 -1.5795751810073853 -0.2703612744808197
13.446844100952148 -1.552275538444519 -0.27049168944358826
13.43465805053711 -1.5219974517822266 -0.2701883912086487
13.442817687988281 -1.4944703578948975 -0.2702825665473938
13.421470642089844 -1.4632816314697266 -0.26980140805244446
13.431710243225098 -1.4361993074417114 -0.2701433598995209
13.422903060913086 -1.406887412071228 -0.2705199420452118
13.421838760375977 -1.377997636795044 -0.2704440653324127
13.413787841796875 -1.3490474224090576 -0.27022576332092285
13.395269393920898 -1.2902250289916992 -0.26973843574523926
13.391987800598145 -1.2616639137268066 -0.26982325315475464
13.35521125793457 -1.20167875289917 -0.2695927321910858
13.346461296081543 -1.1727750301361084 -0.2693650424480438
13.341485023498535 -1.1159381866455078 -0.26916706562042236
13.316986083984375 -1.0294277667999268 -0.27120450139045715
13.29727554321289 -0.9438493847846985 -0.2706761956214905
13.279597282409668 -0.8864033222198486 -0.2708534896373749
13.277676582336426 -0.8579875230789185 -0.2709711194038391
13.284621238708496 -0.8028852343559265 -0.27104514837265015
13.2735013961792 -0.7739567160606384 -0.27078038454055786
13.27523422241211 -0.7179732918739319 -0.2707483768463135
13.2622709274292 -0.6896734833717346 -0.27107957005500793
13.260478973388672 -0.6617919206619263 -0.27100539207458496
13.270223617553711 -0.634060800075531 -0.27137333154678345
13.251835823059082 -0.6056219935417175 -0.27097001671791077
13.265660285949707 -0.578471839427948 -0.2712293863296509
13.23684024810791 -0.5490847826004028 -0.27061691880226135
13.248268127441406 -0.5220211148262024 -0.27082711458206177
13.247453689575195 -0.4936476945877075 -0.27078503370285034
13.236285209655762 -0.46572762727737427 -0.27053818106651306
13.236572265625 -0.43803951144218445 -0.2711378335952759
13.231823921203613 -0.4097849726676941 -0.2740771472454071
13.222301483154297 -0.38182902336120605 -0.27385637164115906
13.21319580078125 -0.35412484407424927 -0.27365416288375854
13.205649375915527 -0.3258908987045288 -0.2734871506690979
13.212045669555664 -0.29841846227645874 -0.27360567450523376
13.198158264160156 -0.27009427547454834 -0.27330148220062256
13.206653594970703 -0.2428516298532486 -0.273667573928833
13.194517135620117 -0.21504200994968414 -0.27340543270111084
13.210963249206543 -0.18727877736091614 -0.27373287081718445
13.198427200317383 -0.15951025485992432 -0.27346378564834595
13.191461563110352 -0.10406216979026794 -0.2733086347579956
13.180071830749512 -0.07642339169979095 -0.2736785411834717
13.164749145507812 -0.021087829023599625 -0.27336016297340393
11.162864685058594 4.434578895568848 -0.2687307596206665
11.139219284057617 4.506469249725342 -0.26810428500175476
11.092460632324219 4.568907737731934 -0.2669326663017273
11.073771476745605 4.6158528327941895 -0.2669481635093689
11.045665740966797 4.685857772827148 -0.26624321937561035
11.024215698242188 4.758755683898926 -0.2657082676887512
10.719499588012695 5.479775428771973 -0.26291733980178833
10.694321632385254 5.551978588104248 -0.262414813041687
10.67048454284668 5.625044822692871 -0.26195579767227173
10.647682189941406 5.641291618347168 -0.2616828680038452
10.643178939819336 5.668057441711426 -0.261315256357193
10.631695747375488 5.69029426574707 -0.26114028692245483
10.601265907287598 5.731572151184082 -0.2604297995567322
10.604242324829102 5.76165246963501 -0.2606135308742523
10.576343536376953 5.804317474365234 -0.25997215509414673
10.559602737426758 5.823675632476807 -0.25967472791671753
10.529757499694824 5.8651838302612305 -0.25880974531173706
10.534685134887695 5.8966064453125 -0.25923141837120056
9.915685653686523 6.312925338745117 -0.2468494325876236
9.813840866088867 6.33577823638916 -0.24459585547447205
9.708181381225586 6.3543877601623535 -0.24171032011508942
9.642985343933105 6.369246959686279 -0.24057160317897797
9.6104154586792 6.3770551681518555 -0.23956602811813354
9.557791709899902 6.3707427978515625 -0.2384103536605835
9.535845756530762 6.38557767868042 -0.23767384886741638
9.494733810424805 6.38662576675415 -0.23680680990219116
9.470646858215332 6.399009704589844 -0.2360108494758606
9.423362731933594 6.396423816680908 -0.23517277836799622
9.399576187133789 6.408811569213867 -0.23473866283893585
9.356963157653809 6.408242225646973 -0.23348484933376312
9.338088989257812 6.424663543701172 -0.23318548500537872
9.29654312133789 6.424544334411621 -0.2319599986076355
9.271537780761719 6.435940742492676 -0.23150227963924408
9.195083618164062 6.440216541290283 -0.2297499179840088
9.096673965454102 6.457114219665527 -0.22693997621536255
9.007555961608887 6.479398250579834 -0.22488388419151306
8.895057678222656 6.48371696472168 -0.22190983593463898
8.342859268188477 6.577794075012207 -0.20785708725452423
8.256214141845703 6.59406852722168 -0.20592285692691803
8.165487289428711 6.606110095977783 -0.203567236661911
8.13575553894043 6.610658645629883 -0.20301732420921326
8.089190483093262 6.62895393371582 -0.20190462470054626
8.045620918273926 6.621826648712158 -0.20068751275539398
8.02575397491455 6.633662700653076 -0.2003811001777649
7.996363639831543 6.637349605560303 -0.19951246678829193
7.967591762542725 6.642063140869141 -0.19898995757102966
7.941082000732422 6.648146629333496 -0.19819770753383636
7.916627883911133 6.655665397644043 -0.19777558743953705
7.880738258361816 6.654074668884277 -0.19675618410110474
7.847067356109619 6.65378999710083 -0.19610744714736938
7.830110549926758 6.668015003204346 -0.19556386768817902
7.800815582275391 6.671248435974121 -0.19502586126327515
7.761667251586914 6.665705680847168 -0.19392147660255432
7.743298530578613 6.678522109985352 -0.19366273283958435
7.701247692108154 6.670375347137451 -0.19248968362808228
7.684088230133057 6.683472633361816 -0.19210132956504822
7.651474952697754 6.683669090270996 -0.19023747742176056
7.63505220413208 6.697508811950684 -0.1895562708377838
7.568102836608887 6.695388317108154 -0.18797551095485687
7.554121017456055 6.7110161781311035 -0.18797381222248077
7.488890647888184 6.709709167480469 -0.1864381730556488
7.473562717437744 6.723987579345703 -0.18578997254371643
7.420419692993164 6.732936382293701 -0.18456017971038818
7.393017292022705 6.736098766326904 -0.18407638370990753
7.311206340789795 6.746162414550781 -0.18202582001686096
6.923637390136719 6.804477691650391 -0.1712518334388733
6.870830535888672 6.809700012207031 -0.17006289958953857
6.845474720001221 6.812788486480713 -0.16978487372398376
6.798337459564209 6.823105335235596 -0.16829536855220795
6.776546478271484 6.829522132873535 -0.16796205937862396
6.721905708312988 6.831759929656982 -0.1667342334985733
6.70620584487915 6.844155311584473 -0.16611170768737793
6.67569637298584 6.842195987701416 -0.16571766138076782
6.649658679962158 6.843864440917969 -0.1648409366607666
6.623149871826172 6.844944953918457 -0.16409705579280853
6.605266094207764 6.855708599090576 -0.16387349367141724
6.5703349113464355 6.847836494445801 -0.16292241215705872
6.552630424499512 6.857814788818359 -0.16269327700138092
6.531624794006348 6.865133285522461 -0.16195696592330933
6.507985591888428 6.8687744140625 -0.16172389686107635
6.484655380249023 6.8726606369018555 -0.16092130541801453
6.458398818969727 6.874192237854004 -0.1603502780199051
6.434871196746826 6.877695560455322 -0.15881972014904022
6.4120306968688965 6.882061004638672 -0.15803614258766174
6.383657455444336 6.880814552307129 -0.15769647061824799
6.36283540725708 6.886980056762695 -0.1569623202085495
6.342674732208252 6.894649505615234 -0.1568278670310974
6.3218770027160645 6.900727272033691 -0.15609607100486755
6.298741340637207 6.904184341430664 -0.15530754625797272
6.278968334197998 6.912109375 -0.15518374741077423
6.243768215179443 6.9020843505859375 -0.1540992558002472
6.233763694763184 6.920044422149658 -0.15420888364315033
6.203275203704834 6.915641784667969 -0.15324999392032623
6.181999206542969 6.920763969421387 -0.15251252055168152
6.155667304992676 6.920344352722168 -0.1522192806005478
6.142129421234131 6.934691429138184 -0.1516822874546051
6.113338470458984 6.931110382080078 -0.1513262242078781
6.086574077606201 6.9299116134643555 -0.15045881271362305
6.0669050216674805 6.937140464782715 -0.15033605694770813
6.051386833190918 6.948441505432129 -0.14974579215049744
5.988414287567139 6.934889316558838 -0.14834997057914734
5.974518299102783 6.948103904724121 -0.14780554175376892
5.92707633972168 6.9517292976379395 -0.14679446816444397
5.906887054443359 6.957452774047852 -0.1460971087217331
5.861412048339844 6.96290397644043 -0.14429965615272522
5.718338489532471 6.969151973724365 -0.14114007353782654
5.663622856140137 6.991642951965332 -0.13977311551570892
5.6175360679626465 6.994772434234619 -0.1388135701417923
5.608091831207275 7.012772560119629 -0.13839128613471985
5.558970928192139 7.011684417724609 -0.1373601257801056
5.540613651275635 7.018398761749268 -0.13672038912773132
5.491092205047607 7.016223907470703 -0.13568226993083954
5.468245506286621 7.017651081085205 -0.13494250178337097
5.448638916015625 7.022499084472656 -0.1348181515932083
5.432807922363281 7.032395362854004 -0.13424691557884216
5.406588077545166 7.0292253494262695 -0.1334259808063507
5.386310577392578 7.033233642578125 -0.13328778743743896
5.3610992431640625 7.030488967895508 -0.1320776492357254
5.348959445953369 7.0455145835876465 -0.13201400637626648
5.329683303833008 7.050676345825195 -0.1314944624900818
5.314644813537598 7.061196327209473 -0.13135212659835815
5.27815055847168 7.043756484985352 -0.13041406869888306
5.269432544708252 7.06283712387085 -0.13002529740333557
5.239954948425293 7.053820610046387 -0.12952730059623718
5.229344367980957 7.070821285247803 -0.12923017144203186
5.202669143676758 7.065595626831055 -0.1284002661705017
5.172327041625977 7.055686950683594 -0.1278892457485199
5.161089897155762 7.071308135986328 -0.12757322192192078
5.146364212036133 7.0819478034973145 -0.1270378977060318
5.123350143432617 7.081817626953125 -0.12670886516571045
5.096283435821533 7.075499534606934 -0.12600365281105042
5.075717926025391 7.077873229980469 -0.12572742998600006
5.0641632080078125 7.093485355377197 -0.12528100609779358
5.034678936004639 7.083446979522705 -0.12451833486557007
5.0256028175354 7.102536201477051 -0.1245352029800415
4.988800048828125 7.0818705558776855 -0.12346111238002777
4.977903366088867 7.097641944885254 -0.12315672636032104
4.961678504943848 7.106525897979736 -0.12299791723489761
4.933122158050537 7.0971832275390625 -0.1221299022436142
4.915303707122803 7.102954864501953 -0.12165574729442596
4.898675918579102 7.111116886138916 -0.12148689478635788
4.874994277954102 7.108497619628906 -0.12047377228736877
4.860740661621094 7.119342803955078 -0.12035735696554184
4.836949825286865 7.1168694496154785 -0.1196170300245285
4.80702543258667 7.104737281799316 -0.11924385279417038
4.794721603393555 7.118335723876953 -0.11878149956464767
4.774302005767822 7.120802879333496 -0.1181289404630661
4.755564212799072 7.124776840209961 -0.11763583868741989
4.73545503616333 7.126633167266846 -0.11737626791000366
4.721334457397461 7.1384172439575195 -0.11688055098056793
4.696952819824219 7.133684158325195 -0.11625038832426071
4.652704238891602 7.13169002532959 -0.11524990200996399
4.636002063751221 7.138416290283203 -0.11481034755706787
4.6022162437438965 7.152154922485352 -0.11407221853733063
4.576845169067383 7.145268440246582 -0.11329247802495956
4.5599212646484375 7.15244197845459 -0.11325214803218842
4.544365406036377 7.160780906677246 -0.11271669715642929
4.52515172958374 7.163318157196045 -0.1120905727148056
4.510955810546875 7.174745082855225 -0.11211912333965302
4.487537384033203 7.1704792976379395 -0.11139041185379028
4.443170547485352 7.166524410247803 -0.1105227917432785
4.43316650390625 7.183633327484131 -0.11025532335042953
4.410025596618652 7.1804118156433105 -0.1099340170621872
4.392747402191162 7.185674667358398 -0.10936089605093002
4.377429962158203 7.1941237449646 -0.10935124009847641
4.355512619018555 7.1926589012146 -0.10867349058389664
4.327658176422119 7.180248260498047 -0.10783836245536804
4.3108954429626465 7.186123847961426 -0.10779301822185516
4.297290802001953 7.198258876800537 -0.10732482373714447
4.280178546905518 7.203517913818359 -0.10675883293151855
4.2543230056762695 7.1949591636657715 -0.10598717629909515
4.234934329986572 7.1962127685546875 -0.10587581992149353
4.219529628753662 7.204196929931641 -0.10535459965467453
4.197110176086426 7.2011494636535645 -0.10466915369033813
4.178365707397461 7.203306198120117 -0.10457465797662735
4.157702445983887 7.202078342437744 -0.1039237454533577
12.713014602661133 5.361174583435059 -0.19327454268932343
12.676813125610352 5.440025329589844 -0.19239825010299683
12.634817123413086 5.579786777496338 -0.19179674983024597
12.574798583984375 5.648015975952148 -0.1905796229839325
12.565167427062988 5.738890171051025 -0.190132275223732
11.964654922485352 6.435698509216309 -0.1807773858308792
11.843981742858887 6.4671173095703125 -0.1803886592388153
11.692574501037598 6.480197429656982 -0.17768186330795288
11.605462074279785 6.495956897735596 -0.176160991191864
11.573728561401367 6.509774684906006 -0.17568427324295044
11.469893455505371 6.515108108520508 -0.17391616106033325
11.431884765625 6.524933815002441 -0.17334653437137604
11.344786643981934 6.5387163162231445 -0.17183972895145416
11.298437118530273 6.54327392578125 -0.1711459755897522
11.224946022033691 6.563996315002441 -0.1698523759841919
11.090544700622559 6.579313278198242 -0.16745984554290771
10.961280822753906 6.596139907836914 -0.16534994542598724
9.960705757141113 6.73012638092041 -0.14932435750961304
9.861659049987793 6.753890037536621 -0.14811456203460693
9.752166748046875 6.769357681274414 -0.14638212323188782
9.669410705566406 6.772433280944824 -0.14484569430351257
9.649321556091309 6.7882537841796875 -0.1442117840051651
9.57364273071289 6.795467376708984 -0.14279119670391083
9.538394927978516 6.800258159637451 -0.14247557520866394
9.496963500976562 6.800705432891846 -0.14135508239269257
9.462882041931152 6.806711673736572 -0.14106270670890808
9.423120498657227 6.807827949523926 -0.14050428569316864
9.386322021484375 6.811147689819336 -0.13963451981544495
9.355388641357422 6.8190412521362305 -0.1392156481742859
9.31225872039795 6.817241668701172 -0.13825353980064392
9.288819313049316 6.829949378967285 -0.1379435956478119
9.261488914489746 6.840167999267578 -0.1372235119342804
9.227567672729492 6.844754695892334 -0.13675904273986816
9.106855392456055 6.844597816467285 -0.13438597321510315
8.349603652954102 6.959869384765625 -0.12010033428668976
8.262044906616211 6.975379467010498 -0.11781294643878937
8.15851879119873 6.976293563842773 -0.11614261567592621
8.073280334472656 6.99174690246582 -0.1144099310040474
8.024449348449707 7.008815288543701 -0.11348506808280945
7.9910502433776855 7.009581089019775 -0.11257434636354446
7.963283538818359 7.014518737792969 -0.11238756775856018
7.934368133544922 7.0185546875 -0.1115398108959198
7.905508995056152 7.022974967956543 -0.11118463426828384
7.875502109527588 7.025824546813965 -0.11048298329114914
7.848122596740723 7.030701160430908 -0.11014454066753387
7.812231063842773 7.028475284576416 -0.10936632007360458
7.799676895141602 7.0467352867126465 -0.10923925042152405
7.758460521697998 7.038794994354248 -0.10838375985622406
7.7291789054870605 7.042178153991699 -0.1080266684293747
7.705845832824707 7.050452709197998 -0.10742579400539398
7.676908493041992 7.0532989501953125 -0.10706846415996552
7.638572692871094 7.048016548156738 -0.10610822588205338
7.6238579750061035 7.063998222351074 -0.10451731085777283
7.566500186920166 7.070308685302734 -0.10350652039051056
7.53071403503418 7.066198348999023 -0.10321702063083649
7.4777116775512695 7.075919151306152 -0.10211488604545593
7.447983741760254 7.077141761779785 -0.10143665224313736
7.415990352630615 7.106411933898926 -0.10078093409538269
7.372252941131592 7.093905448913574 -0.10023261606693268
7.313446044921875 7.096879482269287 -0.09874744713306427
7.296703815460205 7.110093593597412 -0.09872061014175415
6.845781326293945 7.164619445800781 -0.08891131728887558
6.761203289031982 7.165754318237305 -0.08719344437122345
6.741247177124023 7.174373626708984 -0.08667482435703278
6.689962387084961 7.180150032043457 -0.08565706014633179
6.6747541427612305 7.193700313568115 -0.08565328270196915
6.631074905395508 7.2072649002075195 -0.08443278074264526
6.594326972961426 7.19724178314209 -0.08400848507881165
6.570426940917969 7.201983451843262 -0.0834513008594513
6.546320915222168 7.205536365509033 -0.08318851888179779
6.516602516174316 7.202800750732422 -0.08240775018930435
6.4978837966918945 7.213024139404297 -0.08236571401357651
6.489190101623535 7.233502388000488 -0.08185243606567383
6.4470367431640625 7.216805458068848 -0.0810655727982521
6.4254937171936035 7.2234721183776855 -0.08084189146757126
6.401240348815918 7.22634744644165 -0.07999089360237122
6.383802890777588 7.237083435058594 -0.07907373458147049
6.34706974029541 7.226281642913818 -0.07822145521640778
6.335055351257324 7.242862224578857 -0.0776708722114563
6.307015895843506 7.241964817047119 -0.07751661539077759
6.288539886474609 7.251078128814697 -0.07688828557729721
6.258795738220215 7.2471113204956055 -0.07670866698026657
6.239588737487793 7.256148338317871 -0.07607881724834442
6.209789276123047 7.2518815994262695 -0.07531605660915375
6.189451694488525 7.258786678314209 -0.07525332272052765
6.161969184875488 7.257681846618652 -0.07452483475208282
6.143727779388428 7.266707897186279 -0.07448666542768478
6.121199607849121 7.271511077880859 -0.07382102310657501
6.099847793579102 7.2767438888549805 -0.0731661319732666
6.065729141235352 7.266617774963379 -0.07293775677680969
6.024490833282471 7.279314041137695 -0.07209126651287079
6.007126808166504 7.28907585144043 -0.0716295838356018
5.960416793823242 7.294778347015381 -0.07086336612701416
5.927286148071289 7.285256385803223 -0.0700770914554596
5.889945983886719 7.301739692687988 -0.06942456215620041
5.868185997009277 7.305960655212402 -0.06877589225769043
5.817326545715332 7.305444240570068 -0.06697024405002594
5.795844078063965 7.309542655944824 -0.06689721345901489
5.744327068328857 7.3075761795043945 -0.06566178053617477
5.6759819984436035 7.314815044403076 -0.06470147520303726
5.619315147399902 7.336554527282715 -0.06345118582248688
5.563535690307617 7.327448844909668 -0.062046416103839874
5.552038192749023 7.343899726867676 -0.06208767369389534
5.508122444152832 7.349950790405273 -0.061381399631500244
5.4776997566223145 7.34105110168457 -0.060653045773506165
5.44178581237793 7.357364654541016 -0.06003950908780098
5.421659469604492 7.362769603729248 -0.05943172797560692
5.3743367195129395 7.362537860870361 -0.058692123740911484
5.354045867919922 7.3675079345703125 -0.058085158467292786
5.305443286895752 7.3649420738220215 -0.05733613669872284
5.287164211273193 7.37249231338501 -0.05633629485964775
5.263329029083252 7.371743202209473 -0.05611049756407738
5.248740196228027 7.384382247924805 -0.05570442974567413
5.23084020614624 7.391634941101074 -0.05554090812802315
5.204047679901123 7.386468887329102 -0.05486918240785599
5.1809000968933105 7.386844635009766 -0.054374899715185165
5.166750907897949 7.399521827697754 -0.054253119975328445
5.150755405426025 7.409323215484619 -0.05369574949145317
5.132681846618652 7.416844367980957 -0.053255289793014526
5.094581127166748 7.394771575927734 -0.052886176854372025
5.0809783935546875 7.4078850746154785 -0.05235622450709343
5.060084342956543 7.411075115203857 -0.0518898107111454
5.040927410125732 7.416258335113525 -0.05171748995780945
5.0157904624938965 7.412315845489502 -0.051071248948574066
4.995419979095459 7.416056156158447 -0.050612349063158035
4.976914882659912 7.4220170974731445 -0.05044715479016304
4.9557905197143555 7.423773288726807 -0.04984511435031891
4.932624816894531 7.423364162445068 -0.04936140030622482
4.909956932067871 7.42262077331543 -0.04915469512343407
4.885441303253174 7.419715881347656 -0.0485241673886776
4.870715141296387 7.431121349334717 -0.04812314361333847
4.84682035446167 7.428241729736328 -0.04790613055229187
4.839958667755127 7.4522199630737305 -0.04745211824774742
4.806807041168213 7.435151100158691 -0.04687179625034332
4.790265083312988 7.443397045135498 -0.046320460736751556
4.768606662750244 7.444396018981934 -0.045724499970674515
4.752659797668457 7.453757286071777 -0.04572061821818352
4.723729610443115 7.442409038543701 -0.045052915811538696
4.708569526672363 7.453668594360352 -0.044521018862724304
4.679364204406738 7.441594123840332 -0.044392019510269165
4.6695709228515625 7.460331916809082 -0.04390784353017807
4.645287036895752 7.456907272338867 -0.04329312592744827
4.636199474334717 7.476847171783447 -0.04335300251841545
4.58344030380249 7.46174430847168 -0.04208493232727051
4.562636852264404 7.462555885314941 -0.04190421476960182
4.549839496612549 7.477470874786377 -0.04153013974428177
4.528307914733887 7.476982116699219 -0.04094157740473747
4.512845039367676 7.486466884613037 -0.04040862247347832
4.491193771362305 7.486675262451172 -0.040357328951358795
4.468603610992432 7.484182357788086 -0.039762336760759354
4.444638252258301 7.479262351989746 -0.03915619105100632
4.434375762939453 7.498420715332031 -0.03920667618513107
4.411984920501709 7.496018886566162 -0.038615431636571884
4.363738059997559 7.485989570617676 -0.03781035542488098
4.347184181213379 7.493288040161133 -0.03740248456597328
4.332370758056641 7.504642486572266 -0.03701373189687729
4.309932708740234 7.501685619354248 -0.036825425922870636
4.292809009552002 7.507907867431641 -0.03628385066986084
4.278909206390381 7.52083683013916 -0.03630247712135315
4.255524635314941 7.5159807205200195 -0.03570981323719025
4.239952087402344 7.524856090545654 -0.03518141061067581
4.210198402404785 7.509514808654785 -0.035068511962890625
4.197990417480469 7.524302959442139 -0.03457052633166313
4.171300411224365 7.513066291809082 -0.033954329788684845
4.161531448364258 7.533345699310303 -0.03348087519407272
4.1361775398254395 7.524298191070557 -0.03340259939432144
4.124429225921631 7.541043281555176 -0.03291264548897743
4.091688632965088 7.518198013305664 -0.032253626734018326
4.075265407562256 7.525171756744385 -0.03211848810315132
4.051135063171387 7.518927574157715 -0.03166095167398453
13.2114896774292 0.006254768464714289 -0.26731401681900024
13.199559211730957 0.03364104777574539 -0.26707231998443604
13.189526557922363 0.06179176643490791 -0.2668710947036743
13.17570972442627 0.08907013386487961 -0.2665945589542389
13.14050579071045 0.11610271036624908 -0.26588788628578186
13.143594741821289 0.14421071112155914 -0.2659549117088318
13.144416809082031 0.17150072753429413 -0.26617443561553955
13.132627487182617 0.19880007207393646 -0.26594337821006775
13.13869857788086 0.2267717570066452 -0.26607441902160645
13.127216339111328 0.25382402539253235 -0.2658531665802002
13.111270904541016 0.5565064549446106 -0.26389819383621216
13.064759254455566 0.636836588382721 -0.26304295659065247
13.04556655883789 0.801030158996582 -0.2628360092639923
13.042284965515137 0.85537189245224 -0.2628430426120758
13.024516105651855 0.9364739060401917 -0.2625957131385803
13.039997100830078 0.9653970003128052 -0.2629493772983551
13.02799129486084 0.9916964769363403 -0.26274481415748596
13.013315200805664 1.0185439586639404 -0.26249685883522034
13.015238761901855 1.0732566118240356 -0.2626248002052307
12.996485710144043 1.0994728803634644 -0.2622919976711273
13.0070161819458 1.127553939819336 -0.2625492215156555
13.00757122039795 1.155603289604187 -0.2624153196811676
13.003890991210938 1.182479977607727 -0.2593729496002197
12.973234176635742 1.2348012924194336 -0.2588645815849304
12.983821868896484 1.2630022764205933 -0.25913000106811523
12.957435607910156 1.287779450416565 -0.2586578130722046
12.969209671020508 1.3167399168014526 -0.25894254446029663
12.951674461364746 1.3421190977096558 -0.2586529850959778
12.942316055297852 1.396264910697937 -0.2585793733596802
12.937053680419922 1.4508399963378906 -0.2585938274860382
12.946945190429688 1.4791611433029175 -0.25824788212776184
12.961820602416992 1.5083117485046387 -0.25920966267585754
12.937620162963867 1.560551404953003 -0.2582554817199707
12.9520845413208 1.5897676944732666 -0.2586072087287903
12.905363082885742 1.804383397102356 -0.2578606903553009
12.896767616271973 1.941427230834961 -0.25446295738220215
12.86674976348877 2.019709348678589 -0.25410765409469604
12.840131759643555 2.0989322662353516 -0.25384652614593506
12.819296836853027 2.122849464416504 -0.25352194905281067
12.817471504211426 2.1500802040100098 -0.25357773900032043
12.81287956237793 2.1772656440734863 -0.25357773900032043
12.787675857543945 2.200295925140381 -0.2531702518463135
12.810526847839355 2.2318053245544434 -0.25310805439949036
12.787269592285156 2.25571346282959 -0.25274813175201416
12.786521911621094 2.282951831817627 -0.25263044238090515
12.776572227478027 2.3087410926818848 -0.2525278925895691
12.76675796508789 2.3349454402923584 -0.2524356544017792
12.753454208374023 2.3598737716674805 -0.25226736068725586
12.747430801391602 2.386934280395508 -0.25225427746772766
12.742097854614258 2.413315773010254 -0.25224077701568604
12.717608451843262 2.436222791671753 -0.25147390365600586
12.717548370361328 2.46419095993042 -0.24858248233795166
12.715173721313477 2.491119146347046 -0.24863944947719574
12.704997062683105 2.5167102813720703 -0.24853762984275818
12.692950248718262 2.54231858253479 -0.24840915203094482
12.674188613891602 2.56612491607666 -0.24754014611244202
12.673437118530273 2.5939722061157227 -0.24763256311416626
12.665861129760742 2.619818687438965 -0.2475873827934265
12.650870323181152 2.6443021297454834 -0.24740111827850342
12.646894454956055 2.6714844703674316 -0.24743802845478058
12.615214347839355 2.6921515464782715 -0.2469249665737152
12.588240623474121 2.7139155864715576 -0.24631784856319427
12.580072402954102 2.7400946617126465 -0.2462746500968933
12.562299728393555 2.763542652130127 -0.24603238701820374
12.539153099060059 2.786546230316162 -0.2457021027803421
12.536386489868164 2.8132448196411133 -0.24575427174568176
12.508319854736328 2.834418296813965 -0.24532797932624817
12.512224197387695 2.890561103820801 -0.24563467502593994
12.492002487182617 2.913404941558838 -0.24476894736289978
12.470572471618652 2.96364164352417 -0.24458740651607513
12.454191207885742 2.98726224899292 -0.24419870972633362
12.44316577911377 3.0400924682617188 -0.2438475489616394
12.422706604003906 3.11798095703125 -0.24204349517822266
12.401834487915039 3.168320894241333 -0.24189482629299164
12.378686904907227 3.24544095993042 -0.24165256321430206
12.364700317382812 3.2698230743408203 -0.2415069192647934
12.318754196166992 3.3126320838928223 -0.24029403924942017
12.321527481079102 3.3414225578308105 -0.24048270285129547
12.304681777954102 3.3919382095336914 -0.24042733013629913
12.274505615234375 3.411653518676758 -0.2397947907447815
12.267683029174805 3.437394142150879 -0.2398059368133545
12.258785247802734 3.462965250015259 -0.23976746201515198
12.256175994873047 3.489708185195923 -0.23985600471496582
12.256332397460938 3.5174620151519775 -0.23941946029663086
12.238454818725586 3.5404491424560547 -0.23921345174312592
12.235243797302246 3.5670526027679443 -0.23929093778133392
12.233793258666992 3.594388484954834 -0.2392200529575348
12.232553482055664 3.62223219871521 -0.2393505871295929
12.200132369995117 3.640383243560791 -0.23848514258861542
12.194367408752441 3.6662395000457764 -0.2396990954875946
12.200641632080078 3.6963658332824707 -0.23997004330158234
12.178625106811523 3.7175028324127197 -0.2391054779291153
12.154339790344238 3.7382946014404297 -0.23878589272499084
12.158304214477539 3.767150402069092 -0.23900587856769562
12.157575607299805 3.7947912216186523 -0.23915591835975647
12.131919860839844 3.8150463104248047 -0.2386152297258377
12.113569259643555 3.8371148109436035 -0.23842006921768188
12.111889839172363 3.8648738861083984 -0.23854318261146545
12.089987754821777 3.885547161102295 -0.23769137263298035
12.09954833984375 3.916539192199707 -0.2380274534225464
12.09426498413086 3.9431934356689453 -0.238091841340065
12.0830078125 3.967282772064209 -0.237839013338089
12.069448471069336 3.9907944202423096 -0.23774006962776184
12.060956001281738 4.0163893699646 -0.23774006962776184
12.05427074432373 4.042170524597168 -0.23777136206626892
12.037227630615234 4.064263343811035 -0.23701809346675873
12.03902816772461 4.0933427810668945 -0.23722130060195923
12.0212984085083 4.1153645515441895 -0.23685389757156372
12.008198738098145 4.16726016998291 -0.23693779110908508
12.008726119995117 4.195584774017334 -0.2371213585138321
11.96249008178711 4.235843181610107 -0.23559996485710144
11.974644660949707 4.268333435058594 -0.2389468550682068
11.941429138183594 4.313260078430176 -0.23863980174064636
11.908968925476074 4.386363506317139 -0.2383517324924469
11.886829376220703 4.435150146484375 -0.23769475519657135
11.868544578552246 4.45640754699707 -0.23751451075077057
11.843846321105957 4.504135608673096 -0.23721176385879517
11.835240364074707 4.5296244621276855 -0.23664797842502594
11.818115234375 4.579596519470215 -0.23668020963668823
11.799223899841309 4.601089000701904 -0.2363123893737793
11.787975311279297 4.653360843658447 -0.23588187992572784
11.782635688781738 4.680168151855469 -0.23597440123558044
11.766965866088867 4.7024407386779785 -0.2358597218990326
11.745438575744629 4.722128391265869 -0.2354351133108139
11.733688354492188 4.746343612670898 -0.23540116846561432
11.729281425476074 4.7731122970581055 -0.23551419377326965
11.712142944335938 4.7951226234436035 -0.2347869873046875
11.710439682006836 4.822824001312256 -0.23476216197013855
11.68773365020752 4.842069149017334 -0.2380194216966629
11.683099746704102 4.869212627410889 -0.23794662952423096
11.671198844909668 4.892908096313477 -0.2379121333360672
11.675004959106445 4.9230146408081055 -0.23819765448570251
11.652329444885254 4.942593574523926 -0.23794858157634735
11.646146774291992 4.968717098236084 -0.23744869232177734
11.628594398498535 4.990413665771484 -0.2371179759502411
11.624370574951172 5.0171918869018555 -0.23724372684955597
11.604284286499023 5.037320137023926 -0.23704880475997925
11.59765911102295 5.063710689544678 -0.2365478277206421
11.591257095336914 5.089787006378174 -0.23644481599330902
11.570311546325684 5.109893321990967 -0.2362389862537384
11.557159423828125 5.132772445678711 -0.23618756234645844
11.542201042175293 5.155038356781006 -0.2361012101173401
11.533000946044922 5.18030309677124 -0.2355535924434662
11.530842781066895 5.208117485046387 -0.23554176092147827
11.523731231689453 5.233931541442871 -0.23561856150627136
11.522915840148926 5.2630767822265625 -0.23582911491394043
11.505109786987305 5.284034729003906 -0.23510542511940002
11.504023551940918 5.312471866607666 -0.2351207733154297
11.476116180419922 5.329150199890137 -0.23478099703788757
11.47095775604248 5.355928421020508 -0.23490357398986816
11.458462715148926 5.408778190612793 -0.23433652520179749
11.443807601928711 5.4311370849609375 -0.23778066039085388
11.416280746459961 5.476890563964844 -0.23749519884586334
11.420337677001953 5.5082292556762695 -0.23723334074020386
11.37603759765625 5.546038627624512 -0.23679594695568085
11.345720291137695 5.619808197021484 -0.2361225187778473
11.319145202636719 5.666135787963867 -0.235875204205513
11.315829277038574 5.693872451782227 -0.23546721041202545
11.282102584838867 5.736572265625 -0.23507718741893768
11.28374195098877 5.76756477355957 -0.235366553068161
11.266290664672852 5.817958354949951 -0.23492053151130676
11.247005462646484 5.838253974914551 -0.23458701372146606
11.22933578491211 5.888587951660156 -0.23414236307144165
11.216445922851562 5.912198543548584 -0.23413428664207458
11.202438354492188 5.934767723083496 -0.2339119166135788
11.191974639892578 5.959001064300537 -0.23336520791053772
11.170463562011719 5.977996349334717 -0.23318080604076385
11.143119812011719 5.993356227874756 -0.2346206158399582
11.131284713745117 6.017469882965088 -0.23445242643356323
11.113996505737305 6.037961006164551 -0.23435260355472565
11.106642723083496 6.064066410064697 -0.23446504771709442
11.08243179321289 6.0814008712768555 -0.23364068567752838
11.074213027954102 6.106825351715088 -0.23354721069335938
11.064432144165039 6.131624698638916 -0.23361103236675262
11.060308456420898 6.1600446701049805 -0.2332155704498291
11.032804489135742 6.1749725341796875 -0.2327178716659546
11.029626846313477 6.2039594650268555 -0.23292900621891022
11.019437789916992 6.228365421295166 -0.23298527300357819
11.006897926330566 6.2516679763793945 -0.23241005837917328
10.991830825805664 6.273987293243408 -0.23218408226966858
10.945979118347168 6.278183937072754 -0.23149126768112183
10.930821418762207 6.2996721267700195 -0.23086297512054443
10.884288787841797 6.303648471832275 -0.22997240722179413
10.852860450744629 6.31577730178833 -0.22959013283252716
10.809657096862793 6.321369171142578 -0.22837962210178375
10.775243759155273 6.3312883377075195 -0.22774240374565125
10.735124588012695 6.337937355041504 -0.22717474400997162
10.689814567565918 6.3418049812316895 -0.22592635452747345
10.659573554992676 6.353806018829346 -0.2255658507347107
10.603165626525879 6.3502583503723145 -0.224467471241951
10.579195022583008 6.36643123626709 -0.22367580235004425
10.527660369873047 6.365429401397705 -0.22343362867832184
10.414169311523438 6.3865556716918945 -0.2216881513595581
10.292428970336914 6.401281833648682 -0.21920925378799438
10.191102981567383 6.427463531494141 -0.21661795675754547
10.107378005981445 6.434315204620361 -0.21523314714431763
9.989686965942383 6.448002338409424 -0.21285691857337952
9.926433563232422 6.466557025909424 -0.21154354512691498
9.89743423461914 6.4769606590271 -0.21103572845458984
9.824668884277344 6.488601207733154 -0.20952068269252777
9.78787899017334 6.494163513183594 -0.20885397493839264
9.742111206054688 6.492954730987549 -0.2076244354248047
9.712018013000488 6.502256393432617 -0.20727387070655823
9.68297004699707 6.51259708404541 -0.20677262544631958
9.659476280212402 6.525949954986572 -0.20494946837425232
9.607231140136719 6.519940376281738 -0.2041289508342743
9.577117919921875 6.529219150543213 -0.2030760943889618
9.535394668579102 6.530010223388672 -0.2024802416563034
9.493968963623047 6.530623912811279 -0.2017139196395874
9.45836353302002 6.535732269287109 -0.20072193443775177
9.43006420135498 6.5453410148620605 -0.20041152834892273
9.400814056396484 6.554630756378174 -0.199385404586792
9.35854434967041 6.554062843322754 -0.1987762302160263
9.331693649291992 6.5643720626831055 -0.19849684834480286
9.288204193115234 6.563276290893555 -0.1971731334924698
9.25559139251709 6.569070339202881 -0.1967696100473404
9.228904724121094 6.57918119430542 -0.19649596512317657
9.185489654541016 6.577661514282227 -0.19517681002616882
9.147623062133789 6.579514503479004 -0.19466568529605865
9.110011100769043 6.5811896324157715 -0.1939850002527237
9.082852363586426 6.590936660766602 -0.19318848848342896
9.044889450073242 6.592293739318848 -0.19267235696315765
9.013402938842773 6.598666667938232 -0.19161854684352875
8.987809181213379 6.608828544616699 -0.1913672834634781
8.952577590942383 6.611588954925537 -0.19090953469276428
8.917545318603516 6.614995956420898 -0.1897818148136139
8.887471199035645 6.621530532836914 -0.18943752348423004
8.814947128295898 6.625204086303711 -0.18561135232448578
8.795938491821289 6.639731407165527 -0.18499518930912018
8.737598419189453 6.653437614440918 -0.18368330597877502
8.68347454071045 6.640942573547363 -0.18283690512180328
8.629167556762695 6.657193183898926 -0.18161676824092865
8.606831550598145 6.668498992919922 -0.18143753707408905
8.529989242553711 6.6666388511657715 -0.17974695563316345
8.504498481750488 6.675191402435303 -0.1793394535779953
8.438883781433105 6.681315898895264 -0.17805159091949463
8.349016189575195 6.695981025695801 -0.17622625827789307
8.289068222045898 6.705458641052246 -0.17506437003612518
8.268260955810547 6.717061996459961 -0.17426858842372894
8.196118354797363 6.715949058532715 -0.17318366467952728
8.175795555114746 6.727702617645264 -0.17256131768226624
8.137109756469727 6.72507381439209 -0.17173123359680176
8.114126205444336 6.734467029571533 -0.17105500400066376
8.067395210266113 6.724004745483398 -0.16794538497924805
8.053020477294922 6.74122953414917 -0.1673043817281723
8.022711753845215 6.744220733642578 -0.16696444153785706
7.995586395263672 6.750417232513428 -0.16654150187969208
7.960239887237549 6.749123573303223 -0.16561758518218994
7.931485176086426 6.753085613250732 -0.1653105616569519
7.900348663330078 6.7555341720581055 -0.16432546079158783
7.876125812530518 6.763372421264648 -0.16411519050598145
7.844560146331787 6.76522970199585 -0.16360041499137878
7.827683448791504 6.779256820678711 -0.1630672663450241
7.789987564086914 6.774951934814453 -0.16241955757141113
7.762899875640869 6.780368804931641 -0.16167986392974854
7.740621566772461 6.789485454559326 -0.16150933504104614
7.710968017578125 6.791840076446533 -0.1605580896139145
7.676974773406982 6.790870666503906 -0.16015058755874634
7.644697189331055 6.7908549308776855 -0.15961959958076477
7.627818584442139 6.804233074188232 -0.15909028053283691
7.596492767333984 6.805280685424805 -0.15858495235443115
7.572351455688477 6.812236785888672 -0.15790830552577972
7.536030292510986 6.807909965515137 -0.15729279816150665
7.5112104415893555 6.814685344696045 -0.15661166608333588
7.488956451416016 6.822882175445557 -0.15644219517707825
7.455126762390137 6.8210577964782715 -0.1557348072528839
7.431480407714844 6.8280134201049805 -0.1549224555492401
7.405370712280273 6.832418918609619 -0.15235334634780884
7.377164363861084 6.835421562194824 -0.15191921591758728
7.353784561157227 6.842381000518799 -0.15127061307430267
7.332389831542969 6.850917816162109 -0.15112151205539703
7.289668083190918 6.840226650238037 -0.14993369579315186
7.268927097320557 6.849186420440674 -0.1497991383075714
7.249650001525879 6.8594794273376465 -0.14908334612846375
7.219702243804932 6.860433578491211 -0.14877121150493622
7.187015533447266 6.857810974121094 -0.14823900163173676
7.158388137817383 6.859563827514648 -0.14749188721179962
7.145020008087158 6.87545919418335 -0.14736329019069672
7.114031791687012 6.8741302490234375 -0.14656315743923187
7.072354316711426 6.862926959991455 -0.14585769176483154
7.063165664672852 6.8827338218688965 -0.14550918340682983
7.0304460525512695 6.879351615905762 -0.1451292634010315
6.998020172119141 6.876946926116943 -0.14461663365364075
6.9773101806640625 6.885114669799805 -0.14403235912322998
6.924262046813965 6.890564918518066 -0.14293724298477173
6.902257919311523 6.897234916687012 -0.14263203740119934
6.852951526641846 6.905888557434082 -0.14161992073059082
6.82808256149292 6.909445762634277 -0.14066272974014282
6.78389835357666 6.922807693481445 -0.13841895759105682
6.762609004974365 6.92979097366333 -0.1376895010471344
6.703608989715576 6.927460670471191 -0.13663610816001892
6.684371471405029 6.936326503753662 -0.13639327883720398
6.659417152404785 6.940042495727539 -0.1357443779706955
6.625626087188721 6.933571815490723 -0.13520529866218567
6.579562187194824 6.943678379058838 -0.1342748999595642
6.553772926330566 6.945272922515869 -0.1340429037809372
6.527035713195801 6.946608066558838 -0.13321806490421295
6.511066913604736 6.958493232727051 -0.13318386673927307
6.4889678955078125 6.963785648345947 -0.13244850933551788
6.4649553298950195 6.967800140380859 -0.1322602778673172
6.4373273849487305 6.9669647216796875 -0.13141244649887085
6.417705535888672 6.974710941314697 -0.13130660355091095
6.389794826507568 6.974220275878906 -0.130463108420372
6.3631367683410645 6.974124431610107 -0.13021260499954224
6.3432183265686035 6.981982231140137 -0.12953147292137146
6.322475433349609 6.988442897796631 -0.12940439581871033
6.2926106452941895 6.9845123291015625 -0.1285180300474167
6.2642340660095215 6.982954978942871 -0.1282426416873932
6.247098445892334 6.99299430847168 -0.12790735065937042
6.223527908325195 6.99577522277832 -0.12714925408363342
6.193291664123535 6.991806983947754 -0.12640783190727234
6.185192108154297 7.01192569732666 -0.125967338681221
6.151366710662842 7.003469944000244 -0.1255798190832138
6.136019706726074 7.015517234802246 -0.12499824166297913
6.107133865356445 7.011800765991211 -0.12470608204603195
6.076371192932129 7.006433486938477 -0.12381627410650253
6.056682586669922 7.0132951736450195 -0.12371136993169785
6.04390811920166 7.027932643890381 -0.12318230420351028
6.012177467346191 7.0211076736450195 -0.122840516269207
6.000062465667725 7.036677360534668 -0.12232543528079987
5.964716911315918 7.0246992111206055 -0.12190380692481995
5.943350791931152 7.029919147491455 -0.12121202051639557
5.9220170974731445 7.03424072265625 -0.12107469886541367
5.908212661743164 7.048135757446289 -0.1205344945192337
5.8753790855407715 7.038797378540039 -0.12016627192497253
5.865827560424805 7.05707311630249 -0.1197090893983841
5.8405351638793945 7.057258129119873 -0.11950057744979858
5.819145679473877 7.06119441986084 -0.11880342662334442
5.782317161560059 7.046248435974121 -0.11835145950317383
5.766654014587402 7.0578532218933105 -0.1177823469042778
5.743243217468262 7.059048652648926 -0.11760339140892029
5.723193645477295 7.064300537109375 -0.116937056183815
5.694183826446533 7.059269905090332 -0.11638115346431732
5.677291393280029 7.068295001983643 -0.11675239354372025
5.661229133605957 7.078332901000977 -0.11617019027471542
5.6291823387146 7.0691704750061035 -0.1156877726316452
5.605771541595459 7.069828987121582 -0.11509211361408234
5.568453788757324 7.083841800689697 -0.11438726633787155
5.549556255340576 7.090034484863281 -0.11416618525981903
5.525851726531982 7.090907096862793 -0.11357524991035461
