VERSION .7
FIELDS x y z
SIZE 4 4 4
TYPE F F F
COUNT 1 1 1
WIDTH 842
HEIGHT 1
VIEWPOINT 0 0 0 1 0 0 0
POINTS 842
DATA ascii
8.22177505493164 7.647200584411621 0.08115056157112122
8.178747177124023 7.638896942138672 0.0808822438120842
8.156953811645508 7.650681018829346 0.08082564175128937
8.121925354003906 7.650121688842773 0.08063842356204987
8.082382202148438 7.644589900970459 0.08040297031402588
8.051299095153809 7.647842884063721 0.0802561491727829
8.025683403015137 7.655256271362305 0.08015905320644379
7.996011734008789 7.659090995788574 0.08002335578203201
7.962248802185059 7.659049034118652 0.07984726130962372
7.925475120544434 7.655404090881348 0.079637311398983
7.901852607727051 7.664731025695801 0.07956178486347198
7.855449676513672 7.651974678039551 0.07953138649463654
7.838876724243164 7.667599201202393 0.07952411472797394
7.791296005249023 7.653694152832031 0.07920679450035095
7.779587268829346 7.673980712890625 0.07924968749284744
7.728036880493164 7.654836177825928 0.07888637483119965
7.712574481964111 7.672231674194336 0.0788951963186264
7.67228889465332 7.663898944854736 0.07864651083946228
7.605072498321533 7.661012649536133 0.078287273645401
7.578767776489258 7.666268348693848 0.07818014919757843
7.518909454345703 7.6700592041015625 0.07789534330368042
7.459576606750488 7.673917770385742 0.07761412113904953
7.424837589263916 7.669961929321289 0.07741816341876984
7.364496231079102 7.67202091217041 0.07712490856647491
7.340717315673828 7.679082870483398 0.07704341411590576
7.28808069229126 7.688586235046387 0.07682971656322479
7.241787433624268 7.671572685241699 0.07650913298130035
7.175329685211182 7.665589332580566 0.07614783197641373
7.1522932052612305 7.673215389251709 0.07607397437095642
7.115131855010986 7.665732383728027 0.07547378540039062
7.100738525390625 7.682135581970215 0.07549062371253967
7.069700241088867 7.680856227874756 0.07533154636621475
7.039711952209473 7.680755615234375 0.07518351078033447
7.021520137786865 7.692896842956543 0.0751599371433258
6.98887825012207 7.690062522888184 0.07498785853385925
6.95196533203125 7.681412696838379 0.07476228475570679
6.9294843673706055 7.688581466674805 0.07469107210636139
6.895540237426758 7.68386173248291 0.07450179755687714
6.876659393310547 7.694886207580566 0.07447095215320587
6.8399763107299805 7.686267852783203 0.07424856722354889
6.814496994018555 7.6902689933776855 0.07377739250659943
6.784189224243164 7.688149452209473 0.07399268448352814
6.762269020080566 7.695826530456543 0.07392808794975281
6.730840682983398 7.692752838134766 0.07339303940534592
6.7072272300720215 7.697941780090332 0.07331106811761856
6.6633524894714355 7.680651664733887 0.07337657362222672
6.647489547729492 7.6945672035217285 0.0733790323138237
6.619809627532959 7.6951375007629395 0.07288514077663422
6.595300197601318 7.699466705322266 0.07279367744922638
6.5610880851745605 7.691776275634766 0.07259207963943481
6.537685394287109 7.697022438049316 0.07287512719631195
6.5091142654418945 7.696256637573242 0.07273754477500916
6.49049186706543 7.706616401672363 0.07234659790992737
6.452505111694336 7.694251537322998 0.07210302352905273
6.431057453155518 7.701642036437988 0.07179316133260727
6.41339111328125 7.712963104248047 0.0717741847038269
6.376457691192627 7.7019548416137695 0.07154510170221329
6.348968029022217 7.701230049133301 0.07141619175672531
6.330502986907959 7.711772918701172 0.0713900476694107
6.299530029296875 7.707164287567139 0.07122408598661423
6.27313232421875 7.707454681396484 0.07110702991485596
6.245922088623047 7.707594871520996 0.07098449766635895
6.2231950759887695 7.71221399307251 0.07090791314840317
6.19286584854126 7.707299709320068 0.07074461877346039
6.171820163726807 7.7148027420043945 0.07069272547960281
6.142118453979492 7.710422039031982 0.07053457945585251
6.126166343688965 7.723230361938477 0.07053530961275101
6.091398239135742 7.713183403015137 0.07032504677772522
6.065115928649902 7.712756156921387 0.07020679116249084
6.021138668060303 7.723553657531738 0.07007304579019547
5.994274139404297 7.7220892906188965 0.06994720548391342
5.965542793273926 7.719062328338623 0.06980319321155548
5.941285610198975 7.720735549926758 0.06970756500959396
5.890139579772949 7.721335411071777 0.06948795914649963
5.866920471191406 7.72408390045166 0.06940311193466187
5.812606334686279 7.719860076904297 0.06890292465686798
5.786787033081055 7.7188520431518555 0.06878669559955597
5.770031929016113 7.730276107788086 0.0687800943851471
5.7367963790893555 7.719696044921875 0.06857861578464508
5.72133731842041 7.732359409332275 0.06858520209789276
5.692661285400391 7.728076934814453 0.06843890249729156
5.672356128692627 7.734070777893066 0.06838791072368622
5.640348434448242 7.724395275115967 0.06819731742143631
5.622601509094238 7.734323501586914 0.06817981600761414
5.600552558898926 7.737703323364258 0.06810711324214935
5.575480937957764 7.737812042236328 0.06800297647714615
5.549230575561523 7.735175132751465 0.06787873804569244
5.525748252868652 7.736288070678711 0.0677872896194458
5.501336574554443 7.737001895904541 0.06769051402807236
5.478066444396973 7.738227367401123 0.06760159879922867
5.453259468078613 7.7371826171875 0.06749363243579865
5.431107997894287 7.740818023681641 0.067424476146698
5.406999588012695 7.740571975708008 0.06732391566038132
5.3867034912109375 7.746120452880859 0.0672740563750267
5.358772277832031 7.7407684326171875 0.06712902337312698
5.340831756591797 7.749166488647461 0.06710518151521683
5.312005996704102 7.742688179016113 0.06695079803466797
5.292720794677734 7.7490010261535645 0.06690983474254608
5.2642388343811035 7.74216365814209 0.06652172654867172
5.246047019958496 7.750549793243408 0.06649833917617798
5.21783447265625 7.743436813354492 0.06634420156478882
5.200118541717529 7.752229690551758 0.06632611900568008
5.174314975738525 7.749074935913086 0.06620535999536514
5.155300140380859 7.755397796630859 0.06616751849651337
5.121286392211914 7.739439010620117 0.06593966484069824
5.10689640045166 7.75321102142334 0.06596473604440689
5.087038993835449 7.758061408996582 0.06591622531414032
5.065202713012695 7.760864734649658 0.06584802269935608
5.031686782836914 7.744577407836914 0.0656210258603096
4.992596626281738 7.755711555480957 0.06553679704666138
4.966744422912598 7.750844478607178 0.06540843844413757
4.940700531005859 7.746581077575684 0.06528318673372269
4.925776481628418 7.758647441864014 0.06529861688613892
4.903512001037598 7.7591166496276855 0.06521684676408768
4.875358581542969 7.751184463500977 0.06506218016147614
4.852036476135254 7.749743461608887 0.06496568024158478
4.831857681274414 7.753238677978516 0.06491076946258545
4.8189167976379395 7.769399642944336 0.064959816634655
4.794232368469238 7.765532493591309 0.0648435652256012
4.751075267791748 7.7686309814453125 0.06470242142677307
4.722937107086182 7.758749961853027 0.06431076675653458
4.7022600173950195 7.762066841125488 0.06425485014915466
4.6797590255737305 7.761221885681152 0.064167320728302
4.66234016418457 7.768745422363281 0.0641493946313858
4.634953498840332 7.760638236999512 0.06400054693222046
4.622560501098633 7.776500225067139 0.06405211240053177
4.598869800567627 7.773770809173584 0.06394993513822556
4.574219703674316 7.769488334655762 0.06383512914180756
4.551146030426025 7.767118453979492 0.0637379139661789
4.531198978424072 7.770444869995117 0.06368697434663773
4.50738000869751 7.767234802246094 0.06380758434534073
4.488566875457764 7.7719221115112305 0.06376925110816956
4.4628520011901855 7.765655517578125 0.06363944709300995
4.445259094238281 7.772333145141602 0.06361833959817886
4.425830364227295 7.775761604309082 0.0635712593793869
4.400651931762695 7.770088195800781 0.06344802677631378
4.374858856201172 7.7620649337768555 0.06330817937850952
4.362799167633057 7.77947473526001 0.06337375938892365
4.336665153503418 7.770627975463867 0.06322845071554184
4.323457717895508 7.784881591796875 0.06327138841152191
4.290983200073242 7.765444755554199 0.06303848326206207
4.275855541229248 7.776144027709961 0.063053198158741
4.253663063049316 7.773950576782227 0.06296388804912567
4.232375621795654 7.774439811706543 0.06289472430944443
4.207849025726318 7.767728805541992 0.06276930868625641
4.1912522315979 7.775575637817383 0.06276191771030426
6.108026027679443 -10.16417121887207 0.1106613278388977
6.138495445251465 -10.16702651977539 0.11083267629146576
6.1910905838012695 -10.157215118408203 0.11100216954946518
6.226544380187988 -10.167840957641602 0.11126594245433807
6.278472900390625 -10.156352043151855 0.11142238974571228
6.303893089294434 -10.15031623840332 0.11150060594081879
6.365234375 -10.153427124023438 0.11182818561792374
6.3912458419799805 -10.148064613342285 0.11234208941459656
6.425881385803223 -10.154888153076172 0.1125735491514206
6.455499172210693 -10.154993057250977 0.11272111535072327
6.477193832397461 -10.141765594482422 0.112725630402565
6.509953498840332 -10.14601993560791 0.1129300445318222
6.54439640045166 -10.153282165527344 0.1131565272808075
6.5688018798828125 -10.143495559692383 0.11320160329341888
6.598635673522949 -10.143365859985352 0.1133599728345871
6.633281707763672 -10.150480270385742 0.11358784139156342
6.655691146850586 -10.137414932250977 0.11360004544258118
6.690545082092285 -10.144550323486328 0.11383914202451706
6.711945533752441 -10.130402565002441 0.11397095769643784
6.748483180999756 -10.13923454284668 0.11422736942768097
6.775631904602051 -10.13436508178711 0.11433099210262299
6.813905715942383 -10.144641876220703 0.1146131232380867
6.831648349761963 -10.12559700012207 0.11455515772104263
6.869389533996582 -10.136101722717285 0.11483728885650635
6.894963264465332 -10.127187728881836 0.11490510404109955
6.927773475646973 -10.130125045776367 0.11509688198566437
6.960004806518555 -10.132065773010254 0.11528927087783813
7.011126518249512 -10.114946365356445 0.11542288959026337
7.104947090148926 -10.113903045654297 0.11592073738574982
7.19526481628418 -10.106789588928223 0.11635524034500122
7.293952941894531 -10.1097412109375 0.11692129075527191
7.482780456542969 -10.10057258605957 0.11744500696659088
7.569897651672363 -10.08499526977539 0.11781275272369385
7.636167526245117 -10.084543228149414 0.11818008869886398
7.668085098266602 -10.083147048950195 0.11835189908742905
7.735516548156738 -10.083396911621094 0.1187380999326706
7.762513160705566 -10.075225830078125 0.11882732808589935
7.8231892585754395 -10.066009521484375 0.11910821497440338
7.864233016967773 -10.075597763061523 0.1190895289182663
7.928584098815918 -10.070316314697266 0.11942475289106369
7.957357406616211 -10.063822746276855 0.11954362690448761
7.9959211349487305 -10.068313598632812 0.1197974681854248
8.019929885864258 -10.055625915527344 0.11984193325042725
8.059499740600586 -10.062332153320312 0.12012312561273575
8.088255882263184 -10.0541410446167 0.12069517374038696
8.1351318359375 -10.069551467895508 0.12108492851257324
8.159174919128418 -10.05603313446045 0.12112583965063095
8.190834999084473 -10.05160903930664 0.12127812951803207
8.220239639282227 -10.045053482055664 0.11954253911972046
8.26240348815918 -10.052684783935547 0.11983972787857056
8.291906356811523 -10.04600715637207 0.11996835470199585
8.326241493225098 -10.045072555541992 0.12015987932682037
8.363018035888672 -10.045686721801758 0.12038377672433853
8.402212142944336 -10.050277709960938 0.12064597010612488
8.418986320495605 -10.027978897094727 0.12058617174625397
8.456583023071289 -10.029175758361816 0.12082093954086304
8.498401641845703 -10.036436080932617 0.1211172342300415
8.563011169433594 -10.026805877685547 0.12190886586904526
8.604839324951172 -10.03354549407959 0.122213214635849
8.675970077514648 -10.030691146850586 0.1226186752319336
8.703747749328613 -10.020702362060547 0.12224006652832031
8.77367115020752 -10.015691757202148 0.12310913950204849
8.80833625793457 -10.012758255004883 0.12329935282468796
8.884187698364258 -10.014134407043457 0.12377136200666428
8.985197067260742 -10.000635147094727 0.12430326640605927
9.099983215332031 -10.000699996948242 0.12258216738700867
9.19781494140625 -9.981430053710938 0.12305338680744171
9.312444686889648 -9.97848129272461 0.12374112755060196
9.394357681274414 -9.982364654541016 0.12427304685115814
9.422611236572266 -9.970128059387207 0.12436819076538086
9.487452507019043 -9.954421997070312 0.12466926872730255
9.543319702148438 -9.97152328491211 0.1251317262649536
9.609184265136719 -9.956064224243164 0.12509559094905853
9.644830703735352 -9.951583862304688 0.12529374659061432
9.683584213256836 -9.950172424316406 0.12552510201931
9.726583480834961 -9.95173168182373 0.12581020593643188
9.76228141784668 -9.946876525878906 0.1260022521018982
9.803897857666016 -9.94740104675293 0.1262706220149994
9.841634750366211 -9.943614959716797 0.12648603320121765
9.877819061279297 -9.938836097717285 0.1266860067844391
9.923120498657227 -9.941848754882812 0.12734664976596832
9.964675903320312 -9.942134857177734 0.1266023814678192
10.002429962158203 -9.937969207763672 0.12681786715984344
10.040088653564453 -9.933353424072266 0.12702912092208862
10.080995559692383 -9.932513236999512 0.12728510797023773
10.123422622680664 -9.932500839233398 0.12755776941776276
10.162542343139648 -9.928861618041992 0.12727487087249756
10.197845458984375 -9.922073364257812 0.12745946645736694
10.241989135742188 -9.923233985900879 0.1277494579553604
10.272674560546875 -9.911005020141602 0.12787193059921265
10.317627906799316 -9.913116455078125 0.12817507982254028
10.357606887817383 -9.909063339233398 0.1284094899892807
10.409889221191406 -9.917790412902832 0.12844063341617584
10.431144714355469 -9.896328926086426 0.12844598293304443
10.481891632080078 -9.902511596679688 0.1288139522075653
10.52194595336914 -9.89910888671875 0.12905266880989075
10.568828582763672 -9.90145492553711 0.12937237322330475
10.61036491394043 -9.898391723632812 0.1296255737543106
10.73349380493164 -9.887788772583008 0.13036762177944183
10.768718719482422 -9.879005432128906 0.13054484128952026
10.907646179199219 -9.880395889282227 0.13183994591236115
11.023340225219727 -9.859747886657715 0.13142362236976624
11.109918594360352 -9.853282928466797 0.1319594383239746
11.249135971069336 -9.851106643676758 0.1328747421503067
11.369722366333008 -9.831104278564453 0.13356661796569824
11.472637176513672 -9.835956573486328 0.13428814709186554
11.556459426879883 -9.824182510375977 0.13440561294555664
11.609908103942871 -9.827686309814453 0.13478708267211914
11.69626235961914 -9.817032814025879 0.13531048595905304
11.73360824584961 -9.80644702911377 0.13550493121147156
11.794235229492188 -9.814899444580078 0.13596579432487488
11.826690673828125 -9.80044174194336 0.13610418140888214
11.870610237121582 -9.79413890838623 0.13636913895606995
11.922245025634766 -9.795228958129883 0.13672854006290436
11.977210998535156 -9.79832649230957 0.13751089572906494
12.010107040405273 -9.78298568725586 0.1376509964466095
12.074748992919922 -9.794028282165527 0.13815869390964508
12.109650611877441 -9.780242919921875 0.1383228898048401
12.16212272644043 -9.780267715454102 0.13868626952171326
12.199616432189941 -9.768299102783203 0.13887916505336761
12.256031036376953 -9.77180004119873 0.13929057121276855
12.310891151428223 -9.773099899291992 0.13967902958393097
12.36153793334961 -9.771050453186035 0.14002037048339844
12.401910781860352 -9.760494232177734 0.1402442753314972
12.452518463134766 -9.758543014526367 0.1405867040157318
12.496097564697266 -9.750399589538574 0.1408473551273346
12.55970287322998 -9.757441520690918 0.14133194088935852
12.590963363647461 -9.739897727966309 0.14145585894584656
12.647003173828125 -9.74085807800293 0.14185529947280884
12.687385559082031 -9.729355812072754 0.14150293171405792
12.74482250213623 -9.730961799621582 0.14151307940483093
12.795785903930664 -9.7279052734375 0.14185428619384766
12.855362892150879 -9.73044204711914 0.1422867327928543
12.892385482788086 -9.715940475463867 0.14247003197669983
13.061747550964355 -9.715431213378906 0.14366427063941956
13.163487434387207 -9.70577621459961 0.14533327519893646
13.21644401550293 -9.702038764953613 0.1456928253173828
13.314706802368164 -9.688148498535156 0.14632447063922882
13.4798583984375 -9.679296493530273 0.14746814966201782
13.592798233032227 -9.673892974853516 0.14825677871704102
13.644479751586914 -9.66808032989502 0.14860118925571442
13.734807968139648 -9.645458221435547 0.14914099872112274
13.807119369506836 -9.653518676757812 0.14970818161964417
13.918832778930664 -9.644608497619629 0.1500527560710907
13.967369079589844 -9.634658813476562 0.15035639703273773
14.080205917358398 -9.625975608825684 0.15113678574562073
14.151472091674805 -9.630922317504883 0.15168282389640808
14.190364837646484 -9.61384391784668 0.15188397467136383
14.257823944091797 -9.616438865661621 0.15239202976226807
14.300291061401367 -9.601222038269043 0.15262863039970398
14.36306381225586 -9.599663734436035 0.15246213972568512
14.41718578338623 -9.592613220214844 0.15282511711120605
14.480850219726562 -9.59092903137207 0.1555931270122528
14.52782917022705 -9.578207969665527 0.15588140487670898
14.594637870788574 -9.578113555908203 0.1563814878463745
14.656753540039062 -9.574895858764648 0.1568308025598526
14.714383125305176 -9.569036483764648 0.15679359436035156
14.767680168151855 -9.559394836425781 0.15758880972862244
14.841264724731445 -9.56285572052002 0.15771615505218506
14.894660949707031 -9.552823066711426 0.1580682098865509
14.96066665649414 -9.550868034362793 0.15855666995048523
15.004839897155762 -9.535297393798828 0.15881434082984924
15.076643943786621 -9.53630542755127 0.15872009098529816
15.133285522460938 -9.527690887451172 0.15974722802639008
15.19529914855957 -9.522758483886719 0.15954704582691193
15.257448196411133 -9.516904830932617 0.15999022126197815
15.397388458251953 -9.515119552612305 0.16104060411453247
15.451932907104492 -9.503807067871094 0.16140006482601166
15.520866394042969 -9.50133228302002 0.16191187500953674
15.580963134765625 -9.492959976196289 0.16232767701148987
15.642166137695312 -9.485257148742676 0.16275866329669952
15.706731796264648 -9.47988510131836 0.16322588920593262
15.773365020751953 -9.474729537963867 0.16371037065982819
15.83858871459961 -9.468696594238281 0.16417992115020752
15.903358459472656 -9.462675094604492 0.16464662551879883
15.97915267944336 -9.462153434753418 0.1672293245792389
16.05117416381836 -9.459325790405273 0.16777417063713074
16.09954833984375 -9.44287395477295 0.16807487607002258
16.166051864624023 -9.436068534851074 0.1685599684715271
16.246322631835938 -9.43723201751709 0.16918998956680298
16.380563735961914 -9.423171997070312 0.17017385363578796
16.4344425201416 -9.408828735351562 0.17052891850471497
16.575712203979492 -9.397241592407227 0.17158275842666626
16.658716201782227 -9.39867115020752 0.17175889015197754
16.71383285522461 -9.3827543258667 0.17212148010730743
16.788516998291016 -9.378913879394531 0.17268839478492737
16.929340362548828 -9.3642578125 0.1730324923992157
16.98782730102539 -9.350621223449707 0.17343199253082275
17.144153594970703 -9.342808723449707 0.17462685704231262
17.21454620361328 -9.33488941192627 0.17514720559120178
17.378005981445312 -9.329036712646484 0.1764080673456192
17.436962127685547 -9.314125061035156 0.17681021988391876
17.512897491455078 -9.306654930114746 0.1773790717124939
17.589841842651367 -9.300786018371582 0.1779598891735077
17.65903091430664 -9.289718627929688 0.1801113784313202
17.725830078125 -9.277379989624023 0.1805928647518158
17.819229125976562 -9.279205322265625 0.18134969472885132
17.879608154296875 -9.26271915435791 0.18176676332950592
17.95168685913086 -9.252288818359375 0.18229568004608154
18.03384780883789 -9.247320175170898 0.18293720483779907
18.125621795654297 -9.24553108215332 0.1836656630039215
18.191665649414062 -9.231696128845215 0.18414157629013062
18.279674530029297 -9.228705406188965 0.18483717739582062
18.352144241333008 -9.216148376464844 0.18537169694900513
18.436311721801758 -9.210558891296387 0.1860283762216568
18.496749877929688 -9.192008972167969 0.18643981218338013
18.58959197998047 -9.1895112991333 0.18718379735946655
18.66307258605957 -9.177690505981445 0.18698203563690186
18.750476837158203 -9.170984268188477 0.18766170740127563
18.828582763671875 -9.160813331604004 0.18824972212314606
18.904247283935547 -9.148321151733398 0.1882878988981247
18.99178695678711 -9.141505241394043 0.18896442651748657
19.077960968017578 -9.134267807006836 0.18963783979415894
19.15793228149414 -9.122892379760742 0.19024111330509186
19.239839553833008 -9.112372398376465 0.19086280465126038
19.329431533813477 -9.105742454528809 0.19156049191951752
19.414461135864258 -9.095172882080078 0.1922125518321991
19.494462966918945 -9.083364486694336 0.1928199827671051
19.605260848999023 -9.085521697998047 0.1947382390499115
19.684612274169922 -9.07126235961914 0.19533772766590118
19.77372932434082 -9.062630653381348 0.19603124260902405
19.858768463134766 -9.050923347473145 0.19668489694595337
19.952068328857422 -9.042884826660156 0.19742080569267273
20.032169342041016 -9.029126167297363 0.1980292797088623
20.131725311279297 -9.02291202545166 0.1988217532634735
20.227434158325195 -9.014838218688965 0.19958266615867615
20.306594848632812 -8.999654769897461 0.2001763880252838
20.395751953125 -8.987089157104492 0.20086780190467834
20.49468231201172 -8.979939460754395 0.20085470378398895
20.59403419494629 -8.972577095031738 0.2010832130908966
20.67735481262207 -8.956371307373047 0.20171032845973969
20.770572662353516 -8.94560432434082 0.20243629813194275
20.875316619873047 -8.937898635864258 0.20327308773994446
20.958812713623047 -8.922225952148438 0.20390315353870392
21.063697814941406 -8.915288925170898 0.20474645495414734
21.155305862426758 -8.900821685791016 0.20544478297233582
21.27218246459961 -8.898083686828613 0.2064051330089569
21.35564422607422 -8.88096809387207 0.20703750848770142
21.4611759185791 -8.87112808227539 0.20787684619426727
21.548263549804688 -8.854814529418945 0.20853972434997559
21.759546279907227 -8.834708213806152 0.21021980047225952
21.860057830810547 -8.822718620300293 0.2104211151599884
21.96478271484375 -8.810467720031738 0.2112482190132141
22.07573890686035 -8.801836967468262 0.2121371030807495
22.17770767211914 -8.789196014404297 0.2129429280757904
22.27759552001953 -8.773765563964844 0.21312204003334045
22.499820709228516 -8.753593444824219 0.21489694714546204
22.60047149658203 -8.73720932006836 0.21567800641059875
22.718446731567383 -8.72867202758789 0.21662887930870056
22.81935691833496 -8.712202072143555 0.2174130082130432
22.930484771728516 -8.699491500854492 0.21830415725708008
23.03118324279785 -8.683065414428711 0.21909356117248535
23.16378402709961 -8.676586151123047 0.22017386555671692
23.273256301879883 -8.662561416625977 0.2210402637720108
23.392366409301758 -8.651668548583984 0.22200748324394226
23.50350570678711 -8.6357421875 0.22288575768470764
23.624141693115234 -8.624464988708496 0.22385616600513458
23.72698211669922 -8.60557746887207 0.22465789318084717
23.83559799194336 -8.588075637817383 0.22460272908210754
23.967214584350586 -8.579345703125 0.22503426671028137
24.09384536743164 -8.566654205322266 0.2260533571243286
24.19403648376465 -8.545763969421387 0.22683089971542358
24.273448944091797 -8.51719856262207 0.22741958498954773
24.326675415039062 -8.477553367614746 0.22775736451148987
24.3199462890625 -8.418651580810547 0.22503329813480377
24.33854103088379 -8.366908073425293 0.22505825757980347
24.33083724975586 -8.307840347290039 0.2248135507106781
24.312332153320312 -8.245227813720703 0.22447611391544342
24.340991973876953 -8.19701099395752 0.22458994388580322
24.320764541625977 -8.134044647216797 0.2242436707019806
24.36510467529297 -8.092695236206055 0.2245112806558609
24.388565063476562 -8.042680740356445 0.22456136345863342
24.42246437072754 -7.997705459594727 0.22471754252910614
24.434255599975586 -7.945460319519043 0.2246733009815216
24.473657608032227 -7.900504112243652 0.2248843014240265
24.473739624023438 -7.844487190246582 0.2240830361843109
24.511669158935547 -7.7989420890808105 0.22428074479103088
24.517559051513672 -7.744823455810547 0.22419174015522003
24.533451080322266 -7.6938886642456055 0.22418564558029175
24.542964935302734 -7.639324188232422 0.22412602603435516
24.53262710571289 -7.5802998542785645 0.22388598322868347
24.551815032958984 -7.530450820922852 0.22299449145793915
24.582216262817383 -7.482358932495117 0.22312432527542114
24.578628540039062 -7.425571441650391 0.22295567393302917
24.598865509033203 -7.318777084350586 0.22286218404769897
24.61602020263672 -7.268309593200684 0.22287684679031372
24.632274627685547 -7.215937614440918 0.2228798270225525
24.65339469909668 -7.166606903076172 0.21952477097511292
24.670528411865234 -7.059046268463135 0.21940645575523376
24.667016983032227 -7.002694606781006 0.2192511260509491
24.692039489746094 -6.953795433044434 0.21934720873832703
24.714874267578125 -6.903942108154297 0.21942713856697083
24.730560302734375 -6.853029251098633 0.21943965554237366
24.714313507080078 -6.791711807250977 0.21915873885154724
24.729808807373047 -6.740806579589844 0.21917319297790527
24.715980529785156 -6.681966781616211 0.21893183887004852
24.745037078857422 -6.633130073547363 0.21905748546123505
24.754352569580078 -6.580596923828125 0.219023197889328
24.748397827148438 -6.524056434631348 0.21728172898292542
24.74109649658203 -6.465638160705566 0.21710661053657532
24.7463436126709 -6.4121785163879395 0.21703600883483887
24.750411987304688 -6.357793807983398 0.21695606410503387
24.740211486816406 -6.299522399902344 0.21674075722694397
24.75650405883789 -6.24899435043335 0.21677005290985107
24.782224655151367 -6.199204444885254 0.21688368916511536
24.792415618896484 -6.147112846374512 0.21685877442359924
24.800086975097656 -6.038264751434326 0.21670258045196533
24.81793975830078 -5.988084316253662 0.2167530506849289
24.81902313232422 -5.933215618133545 0.21665239334106445
24.82275390625 -5.878732681274414 0.21381288766860962
24.821426391601562 -5.8240461349487305 0.21369996666908264
24.84942054748535 -5.775581359863281 0.21383346617221832
24.87250328063965 -5.671299934387207 0.21383008360862732
24.86488914489746 -5.613711357116699 0.21365663409233093
24.896533966064453 -5.566582679748535 0.21383395791053772
24.887691497802734 -5.509751319885254 0.21365347504615784
24.903751373291016 -5.458176136016846 0.213058203458786
24.93057632446289 -5.354119300842285 0.21309533715248108
24.923870086669922 -5.298595428466797 0.21202045679092407
24.63379669189453 -5.183521747589111 0.20956507325172424
23.774490356445312 -4.949690818786621 0.20202063024044037
23.762248992919922 -4.895715713500977 0.2018296718597412
23.7353458404541 -4.786059856414795 0.20143067836761475
23.71239471435547 -4.730245113372803 0.20115086436271667
23.668275833129883 -4.617886543273926 0.2005784511566162
23.895357131958008 -4.6107378005981445 0.20243968069553375
24.09398651123047 -4.595699310302734 0.20408642292022705
24.060306549072266 -4.537549018859863 0.2035415768623352
24.836240768432617 -4.522383689880371 0.20731902122497559
24.822254180908203 -4.411915302276611 0.20704707503318787
24.805068969726562 -4.355778694152832 0.206201434135437
24.171133041381836 -4.1396026611328125 0.2006804645061493
24.186981201171875 -4.090036392211914 0.20074741542339325
24.172531127929688 -4.035130500793457 0.1996828019618988
24.014938354492188 -3.9576165676116943 0.1983492374420166
24.162967681884766 -3.9298930168151855 0.1994704306125641
24.190587997436523 -3.881991386413574 0.19965019822120667
23.95632553100586 -3.7934203147888184 0.19771736860275269
23.936735153198242 -3.7387852668762207 0.1973639726638794
24.095417022705078 -3.711493968963623 0.19863036274909973
23.548627853393555 -3.425339698791504 0.19334766268730164
23.521137237548828 -3.370650291442871 0.19306454062461853
23.518993377685547 -3.3205490112304688 0.19298908114433289
23.514184951782227 -3.26951265335083 0.19289396703243256
23.508411407470703 -3.2181363105773926 0.19278781116008759
23.50173568725586 -3.1669507026672363 0.191827654838562
23.956892013549805 -3.126230239868164 0.1951313465833664
24.614599227905273 -3.159496545791626 0.20049378275871277
24.604774475097656 -3.1054463386535645 0.200360506772995
24.61139488220215 -3.054408550262451 0.19974756240844727
24.582111358642578 -2.9983668327331543 0.19945603609085083
24.5667724609375 -2.9438700675964355 0.19928066432476044
24.54005241394043 -2.889024257659912 0.1990145444869995
24.551563262939453 -2.83811616897583 0.19816678762435913
24.52896499633789 -2.783036708831787 0.19793707132339478
24.518753051757812 -2.7297351360321045 0.197808176279068
24.50596809387207 -2.6768388748168945 0.19766080379486084
24.492586135864258 -2.623060703277588 0.19750650227069855
24.481998443603516 -2.5699329376220703 0.19737577438354492
24.480743408203125 -2.5175576210021973 0.197323739528656
24.466224670410156 -2.464766025543213 0.197164386510849
24.46449851989746 -2.4127023220062256 0.1971084624528885
24.42725372314453 -2.3569655418395996 0.19676662981510162
24.420080184936523 -2.305135488510132 0.19666966795921326
24.41995620727539 -2.252502918243408 0.19601979851722717
24.412757873535156 -2.200756549835205 0.19592340290546417
24.387828826904297 -2.095005750656128 0.19565096497535706
24.3675594329834 -2.042332649230957 0.19457101821899414
24.353816986083984 -1.9379322528839111 0.194123774766922
24.32292366027832 -1.7816715240478516 0.19378414750099182
24.297042846679688 -1.6769325733184814 0.1935199797153473
24.281269073486328 -1.6252226829528809 0.19336658716201782
24.27194595336914 -1.5219495296478271 0.1932395100593567
24.281213760375977 -1.4719507694244385 0.1932886242866516
24.263099670410156 -1.3683204650878906 0.19309751689434052
24.236879348754883 -1.315784215927124 0.1928655058145523
24.243160247802734 -1.2656731605529785 0.1920185685157776
24.213027954101562 -1.2128465175628662 0.19115421175956726
24.22652816772461 -1.1625208854675293 0.19124148786067963
24.20354652404785 -1.1102054119110107 0.19104033708572388
24.209470748901367 -1.0601367950439453 0.19106954336166382
24.20025062561035 -1.0088155269622803 0.19097945094108582
24.194074630737305 -0.9573937654495239 0.19091397523880005
24.1976375579834 -0.906639814376831 0.19092640280723572
24.192094802856445 -0.8561627864837646 0.19086924195289612
24.190046310424805 -0.8049584627151489 0.19083699584007263
24.186023712158203 -0.7539774179458618 0.1913989633321762
24.16649627685547 -0.7023004293441772 0.19123169779777527
24.130027770996094 -0.6505240797996521 0.1909325271844864
24.089250564575195 -0.5994008183479309 0.1897301822900772
24.08721351623535 -0.5484670400619507 0.18970459699630737
24.064380645751953 -0.4973839223384857 0.18951614201068878
24.020732879638672 -0.44661468267440796 0.18916469812393188
24.017532348632812 -0.3958325982093811 0.1891324818134308
24.016571044921875 -0.34536561369895935 0.18911877274513245
23.99150848388672 -0.2952093482017517 0.18831679224967957
23.98537826538086 -0.24448832869529724 0.18826478719711304
23.96158218383789 -0.19391831755638123 0.18807414174079895
23.94074249267578 -0.14320194721221924 0.18790777027606964
23.918325424194336 -0.09283396601676941 0.1877295970916748
23.893596649169922 -0.043153777718544006 0.18753446638584137
22.847423553466797 0.004996738396584988 0.13910454511642456
22.82781219482422 0.10113093256950378 0.13898490369319916
22.793949127197266 0.14828412234783173 0.1387813687324524
22.75867462158203 0.2439081370830536 0.1377635896205902
22.76244354248047 0.29200172424316406 0.13779033720493317
22.727920532226562 0.386488676071167 0.14001381397247314
22.729490280151367 0.43450742959976196 0.14003224670886993
22.770954132080078 0.5312421321868896 0.1394876092672348
22.61691665649414 0.8122708797454834 0.1380157619714737
22.600086212158203 0.8586305379867554 0.13792221248149872
22.581268310546875 0.9054216146469116 0.13782185316085815
22.552249908447266 0.9519426822662354 0.13765473663806915
22.556228637695312 0.999580979347229 0.13688847422599792
22.500722885131836 1.138893961906433 0.13601920008659363
22.436634063720703 1.2771093845367432 0.13567394018173218
22.1964111328125 2.106966972351074 0.13426366448402405
22.156869888305664 2.2438461780548096 0.13331228494644165
22.116012573242188 2.380260705947876 0.13315296173095703
22.09222984313965 2.471862554550171 0.13250605762004852
22.096195220947266 2.518744468688965 0.13256226480007172
22.058517456054688 2.608600616455078 0.13342516124248505
22.059879302978516 2.655991792678833 0.13346675038337708
22.003803253173828 2.7896833419799805 0.132438063621521
21.997352600097656 2.8352603912353516 0.1324344128370285
21.976173400878906 2.880270481109619 0.13234272599220276
21.953887939453125 2.923703670501709 0.1322450488805771
21.920053482055664 2.9660701751708984 0.13151904940605164
21.904003143310547 3.010997772216797 0.13146018981933594
21.872161865234375 3.0528805255889893 0.13130688667297363
21.854825973510742 3.0972743034362793 0.1304520219564438
21.8240966796875 3.1867318153381348 0.13034766912460327
21.70458221435547 3.3087687492370605 0.1297549307346344
21.62504005432129 3.4358863830566406 0.12885257601737976
21.543424606323242 3.5619139671325684 0.12771522998809814
21.189849853515625 4.054614067077637 0.12455238401889801
21.130035400390625 4.181036949157715 0.12380965054035187
21.035179138183594 4.299858093261719 0.12340974807739258
20.96909523010254 4.423861503601074 0.12241533398628235
20.917625427246094 4.505099296569824 0.12168511748313904
20.891155242919922 4.544783115386963 0.12158609181642532
20.866500854492188 4.585576057434082 0.12042254954576492
20.858280181884766 4.629716873168945 0.1204308271408081
20.824188232421875 4.667513847351074 0.1202896311879158
20.792621612548828 4.706559181213379 0.1201644018292427
20.766887664794922 4.746609687805176 0.12007376551628113
20.74732208251953 4.788247585296631 0.12002022564411163
20.72313117980957 4.828530788421631 0.11993725597858429
20.69778060913086 4.867929935455322 0.11908698827028275
20.67160415649414 4.907847881317139 0.1189936101436615
20.642868041992188 4.9468512535095215 0.11835533380508423
20.581600189208984 5.023918151855469 0.11812370270490646
20.550203323364258 5.061463832855225 0.11800487339496613
20.486417770385742 5.137360095977783 0.11776301264762878
20.476482391357422 5.180057525634766 0.11700974404811859
20.41460418701172 5.255978584289551 0.11625194549560547
20.344589233398438 5.374551773071289 0.11604401469230652
20.276363372802734 5.4931230545043945 0.11509642004966736
20.206880569458008 5.6108903884887695 0.11331728100776672
19.985260009765625 5.958847999572754 0.1114172488451004
19.912866592407227 6.073834419250488 0.11047878861427307
19.849885940551758 6.191286563873291 0.10982018709182739
19.791805267333984 6.264752388000488 0.10964488983154297
19.764848709106445 6.301375389099121 0.10956890881061554
19.734773635864258 6.337715148925781 0.10873177647590637
19.702817916870117 6.373133659362793 0.10862809419631958
19.703201293945312 6.418453693389893 0.10766647756099701
19.66263198852539 6.451186180114746 0.10752004384994507
19.637258529663086 6.488575458526611 0.10670968890190125
19.608217239379883 6.524144172668457 0.10662606358528137
19.59033966064453 6.564165115356445 0.10660199820995331
19.56976318359375 6.603019714355469 0.10656744241714478
19.541118621826172 6.638554573059082 0.10648784786462784
19.51183319091797 6.675131797790527 0.10640421509742737
19.482254028320312 6.710206031799316 0.10580646991729736
19.465181350708008 6.75032901763916 0.10504733771085739
19.45813751220703 6.793702125549316 0.10508845746517181
19.44284439086914 6.833661079406738 0.10508186370134354
19.4158935546875 6.870823860168457 0.10501357913017273
19.377582550048828 6.902547359466553 0.10488437861204147
19.25521469116211 6.9504780769348145 0.10437874495983124
19.143217086791992 6.954986095428467 0.10333926975727081
18.937475204467773 6.970657825469971 0.10165786743164062
18.83690643310547 6.9780592918396 0.1011957973241806
18.64008903503418 6.994564056396484 0.10029692947864532
18.52199935913086 6.994135856628418 0.09973815828561783
18.294620513916016 6.99644660949707 0.09747736155986786
17.165483474731445 7.065546989440918 0.09078218042850494
16.87866973876953 7.071902751922607 0.08884221315383911
16.626279830932617 7.089352607727051 0.08729331195354462
16.44875717163086 7.095672607421875 0.08651544898748398
16.37282943725586 7.103255271911621 0.08555199205875397
16.277233123779297 7.101953506469727 0.0851278156042099
16.1904354095459 7.105291366577148 0.08475351333618164
16.10761260986328 7.108844757080078 0.08439822494983673
16.038854598999023 7.118993759155273 0.08411563187837601
15.947944641113281 7.118773460388184 0.08328153192996979
15.876736640930176 7.1265363693237305 0.08236046135425568
15.798408508300781 7.131965637207031 0.08202971518039703
15.73349380493164 7.142002105712891 0.0817718356847763
15.65212345123291 7.144275665283203 0.08142377436161041
15.576688766479492 7.150091648101807 0.0811125785112381
15.491920471191406 7.150140285491943 0.0807451605796814
15.420442581176758 7.156475067138672 0.08045341074466705
15.336748123168945 7.157023906707764 0.07906293869018555
15.26215648651123 7.160820960998535 0.07875177264213562
15.179938316345215 7.16185188293457 0.07840730994939804
15.110003471374512 7.167230606079102 0.07812410593032837
15.027984619140625 7.166565895080566 0.07777446508407593
14.967513084411621 7.177013397216797 0.07753994315862656
14.882850646972656 7.174440860748291 0.07676493376493454
14.743074417114258 7.183735370635986 0.07561343163251877
14.672708511352539 7.187165260314941 0.07532479614019394
14.538461685180664 7.197481155395508 0.07478993386030197
14.466361999511719 7.19920539855957 0.0744994580745697
14.256025314331055 7.206701278686523 0.07307294756174088
13.742876052856445 7.2398576736450195 0.06954982876777649
13.547219276428223 7.24594783782959 0.06878858804702759
13.36279296875 7.256333351135254 0.06770320236682892
13.191471099853516 7.271054267883301 0.06652402132749557
13.133462905883789 7.274656295776367 0.06630678474903107
13.064474105834961 7.272957801818848 0.06603582948446274
13.011255264282227 7.278740882873535 0.06547003984451294
12.94288444519043 7.275798320770264 0.06466805934906006
12.894502639770508 7.284895420074463 0.06450437754392624
12.833160400390625 7.285411357879639 0.06501222401857376
12.775605201721191 7.287835121154785 0.06389941275119781
12.71839427947998 7.291254043579102 0.06369095295667648
12.672189712524414 7.299747467041016 0.06353577226400375
12.619962692260742 7.3056111335754395 0.06335155665874481
12.563312530517578 7.307666778564453 0.06314309686422348
12.499135971069336 7.305093765258789 0.06289710849523544
12.445920944213867 7.30970573425293 0.06218789890408516
12.385866165161133 7.309046268463135 0.0616036094725132
12.320568084716797 7.305442810058594 0.06135447695851326
12.279497146606445 7.316173553466797 0.0612277090549469
12.232827186584473 7.322807312011719 0.06107014790177345
12.172391891479492 7.321398735046387 0.06084534525871277
12.11591911315918 7.322309494018555 0.06013005971908569
12.06259536743164 7.3242998123168945 0.059587277472019196
12.010916709899902 7.328084945678711 0.059409547597169876
11.950969696044922 7.325586318969727 0.059188373386859894
11.900869369506836 7.329306602478027 0.059016771614551544
11.860906600952148 7.339278221130371 0.058895085006952286
11.794437408447266 7.332039833068848 0.05864047259092331
11.696626663208008 7.339710235595703 0.05746462941169739
11.654253005981445 7.3468732833862305 0.05733105540275574
11.497272491455078 7.34931755065918 0.05663448944687843
11.341322898864746 7.350872993469238 0.05575576052069664
11.101797103881836 7.362273216247559 0.05447521060705185
10.964776992797852 7.37106990814209 0.05369853973388672
10.819225311279297 7.372397422790527 0.052740201354026794
10.784294128417969 7.381982326507568 0.05264577269554138
10.738101959228516 7.3835296630859375 0.0521705336868763
10.687967300415039 7.382338523864746 0.05200190842151642
10.644959449768066 7.385309219360352 0.05140042304992676
10.59453010559082 7.383331298828125 0.05123167857527733
10.542109489440918 7.379913806915283 0.05105341970920563
10.506332397460938 7.387401580810547 0.05095428600907326
10.471502304077148 7.396391868591309 0.05054105818271637
10.425291061401367 7.3962273597717285 0.050711870193481445
10.381092071533203 7.397303581237793 0.05057143419981003
10.337611198425293 7.399667739868164 0.05043650418519974
10.301220893859863 7.405997276306152 0.05033383518457413
10.239202499389648 7.394079208374023 0.04965154081583023
10.208330154418945 7.404626369476318 0.0492621511220932
10.163666725158691 7.404466152191162 0.04912065714597702
10.117057800292969 7.403085708618164 0.04897043853998184
10.064549446105957 7.397340297698975 0.04879176616668701
10.031661987304688 7.405668258666992 0.04870762303471565
9.997049331665039 7.41277551651001 0.04861544445157051
9.945306777954102 7.406444549560547 0.0479917973279953
9.897565841674805 7.403256416320801 0.04752714931964874
9.869650840759277 7.414922714233398 0.047468170523643494
9.828531265258789 7.415987968444824 0.04734431952238083
9.786687850952148 7.416723251342773 0.04721768945455551
9.739948272705078 7.413727760314941 0.04706760495901108
9.702280044555664 7.417289733886719 0.04652085155248642
9.650264739990234 7.409857749938965 0.046041976660490036
9.6190824508667 7.417695999145508 0.04596654698252678
9.577686309814453 7.417901992797852 0.04584307223558426
9.50857925415039 7.4282708168029785 0.04566074535250664
9.470212936401367 7.430379867553711 0.04511778801679611
9.392555236816406 7.433568477630615 0.04532799869775772
9.27078628540039 7.432458877563477 0.04466736689209938
9.194762229919434 7.435337066650391 0.044025957584381104
9.161308288574219 7.4397807121276855 0.043939605355262756
9.08590316772461 7.442262649536133 0.04372787848114967
8.967318534851074 7.439816474914551 0.04267023503780365
8.931507110595703 7.441997528076172 0.04257449880242348
8.859359741210938 7.444774627685547 0.042089007794857025
8.818719863891602 7.442445755004883 0.041970450431108475
8.79458999633789 7.453763961791992 0.04193006455898285
8.74066162109375 7.4392805099487305 0.04133293032646179
8.714588165283203 7.4488725662231445 0.04128390923142433
8.679553985595703 7.450530052185059 0.04119197279214859
8.650520324707031 7.457385063171387 0.04112881049513817
8.608697891235352 7.452528953552246 0.04071880504488945
8.584464073181152 7.4631476402282715 0.040678128600120544
8.543558120727539 7.459313869476318 0.04096777364611626
8.503338813781738 7.455728530883789 0.04084957763552666
8.4691162109375 7.457407474517822 0.0407608300447464
8.438261032104492 7.461382865905762 0.04040514677762985
8.401749610900879 7.460599422454834 0.04030551016330719
8.375284194946289 7.468782424926758 0.04025457799434662
8.336673736572266 7.465841293334961 0.039740003645420074
8.298781394958496 7.462998390197754 0.039633430540561676
8.265900611877441 7.465054512023926 0.039551589637994766
8.234630584716797 7.4682722091674805 0.039198391139507294
8.20251750946045 7.470230579376221 0.03911900892853737
8.179990768432617 7.481368541717529 0.03908756375312805
8.148046493530273 7.483639717102051 0.0386110320687294
8.108572006225586 7.479005813598633 0.03849898278713226
8.074872016906738 7.478994846343994 0.03841308504343033
8.039595603942871 7.477752208709717 0.03804450482130051
8.001479148864746 7.473868370056152 0.03793896362185478
7.973572254180908 7.479220390319824 0.037880927324295044
7.933477401733398 7.472620964050293 0.03737114369869232
7.911206245422363 7.483226776123047 0.03734102100133896
7.8756561279296875 7.481001853942871 0.03724677860736847
7.832795143127441 7.471270561218262 0.03684649616479874
7.80673885345459 7.477957725524902 0.03679869696497917
7.772872447967529 7.476884365081787 0.03671293333172798
7.712667942047119 7.48176383972168 0.03669534623622894
7.684029579162598 7.4849958419799805 0.03663274273276329
7.622340679168701 7.487722396850586 0.03610355779528618
7.557958602905273 7.487283706665039 0.03568151965737343
7.517134189605713 7.477813720703125 0.03556168079376221
7.464282989501953 7.488043785095215 0.03545951098203659
7.432696342468262 7.487368583679199 0.03500546142458916
7.376163482666016 7.493273735046387 0.03462442383170128
7.344813346862793 7.492463111877441 0.034549809992313385
7.282681465148926 7.491938591003418 0.034404292702674866
7.251665115356445 7.491612434387207 0.033956315368413925
7.22337007522583 7.49381160736084 0.03389874845743179
7.194455146789551 7.494879722595215 0.03357474505901337
7.170245170593262 7.50129508972168 0.03353843092918396
7.139165878295898 7.500252723693848 0.03346536308526993
7.103292465209961 7.493643760681152 0.033369772136211395
7.091026782989502 7.512406349182129 0.03301513195037842
7.045419692993164 7.495563983917236 0.032875411212444305
7.016712665557861 7.496675491333008 0.03292803466320038
6.984099388122559 7.493312835693359 0.03258998319506645
6.961766242980957 7.5004987716674805 0.032560836523771286
6.94085693359375 7.509706497192383 0.03253740817308426
6.900570392608643 7.497647285461426 0.03242141380906105
6.879677772521973 7.506148338317871 0.03239516168832779
6.840171813964844 7.495126724243164 0.031919509172439575
6.814301490783691 7.497969627380371 0.03162054717540741
6.78375768661499 7.496097087860107 0.03154899179935455
6.7701263427734375 7.512687683105469 0.03156105428934097
6.735790252685547 7.5058488845825195 0.03147544711828232
6.707505226135254 7.506149768829346 0.03141416609287262
6.681233882904053 7.508429527282715 0.031002037227153778
6.659859657287598 7.515758037567139 0.030726438388228416
6.624340057373047 7.5079240798950195 0.030636537820100784
6.603579044342041 7.515773773193359 0.030612289905548096
6.569710731506348 7.509140968322754 0.0305284783244133
6.544240951538086 7.511806488037109 0.03012711927294731
6.517689228057861 7.512749671936035 0.030073318630456924
6.491787910461426 7.514886856079102 0.029778042808175087
6.4606146812438965 7.5106306076049805 0.029709478840231895
6.440277576446533 7.518490314483643 0.029686838388442993
6.40706205368042 7.511754512786865 0.0296041090041399
6.390113830566406 7.523832321166992 0.02924676239490509
6.350661277770996 7.508904457092285 0.028998926281929016
6.336660385131836 7.5248942375183105 0.029009267687797546
6.303921222686768 7.517622947692871 0.028928175568580627
6.254742622375488 7.523101329803467 0.028847331181168556
6.223283767700195 7.516940116882324 0.02842404507100582
6.2001872062683105 7.521695137023926 0.028391482308506966
6.181267738342285 7.530529022216797 0.02813338115811348
6.1186676025390625 7.518609046936035 0.027989782392978668
6.096822261810303 7.52360200881958 0.027961578220129013
6.0406012535095215 7.518739700317383 0.027502823621034622
6.020842552185059 7.526080131530762 0.02724490687251091
5.9900665283203125 7.520488262176514 0.02717534825205803
5.968415260314941 7.525297164916992 0.027148373425006866
5.9433088302612305 7.525666236877441 0.026761917397379875
5.917895317077637 7.526488304138184 0.02671680599451065
5.889328956604004 7.522231101989746 0.02665763348340988
5.876261234283447 7.538273811340332 0.026671383529901505
5.842094421386719 7.526992321014404 0.026351191103458405
5.821260929107666 7.532370090484619 0.026325535029172897
5.797045707702637 7.533857345581055 0.025948571041226387
5.770386695861816 7.531888008117676 0.02589726448059082
5.752087593078613 7.540363311767578 0.025989104062318802
5.721732139587402 7.533891677856445 0.025689827278256416
5.700715065002441 7.538647174835205 0.025665219873189926
5.6790032386779785 7.542418479919434 0.0252973735332489
5.64622688293457 7.532319068908691 0.02522088587284088
5.626720905303955 7.538845062255859 0.025208715349435806
5.593504905700684 7.527836799621582 0.025128278881311417
5.578427314758301 7.540179252624512 0.02489725686609745
5.552131652832031 7.537300109863281 0.024852607399225235
5.529816627502441 7.540687561035156 0.024485111236572266
