VERSION .7
FIELDS x y z
SIZE 4 4 4
TYPE F F F
COUNT 1 1 1
WIDTH 848
HEIGHT 1
VIEWPOINT 0 0 0 1 0 0 0
POINTS 848
DATA ascii
4.361969947814941 6.90461540222168 0.08476515114307404
4.342884063720703 6.906102657318115 0.08418828248977661
4.303426742553711 6.907743453979492 0.08349322527647018
4.2800726890563965 6.902128219604492 0.08300468325614929
4.24345588684082 6.907865047454834 0.08216999471187592
4.228816509246826 6.916173934936523 0.0816686674952507
4.183615207672119 6.907444000244141 0.08086906373500824
4.1591291427612305 6.899679183959961 0.08037726581096649
4.118736267089844 6.89781379699707 0.07965091615915298
4.06362771987915 6.903756618499756 0.07845921069383621
6.099250793457031 -11.473089218139648 0.1367338001728058
6.123675346374512 -11.45989990234375 0.13707485795021057
6.153668403625488 -11.458759307861328 0.1376773715019226
6.183670997619629 -11.457517623901367 0.13862435519695282
6.213376998901367 -11.453948974609375 0.1390678882598877
6.233859062194824 -11.435026168823242 0.1394612193107605
6.335782527923584 -11.450117111206055 0.14170719683170319
6.427923202514648 -11.44617748260498 0.1437751203775406
6.520716667175293 -11.442329406738281 0.14549462497234344
6.896385669708252 -11.422309875488281 0.15391844511032104
6.998566150665283 -11.428548812866211 0.1558954119682312
7.090353012084961 -11.416657447814941 0.1579734832048416
7.153291702270508 -11.41049575805664 0.1591307818889618
7.188438415527344 -11.413861274719238 0.1602037400007248
7.249446868896484 -11.403940200805664 0.16133253276348114
7.281521797180176 -11.40206527709961 0.16199848055839539
7.350974082946777 -11.404651641845703 0.1633020043373108
7.3780317306518555 -11.394634246826172 0.1641996204853058
7.405697822570801 -11.383983612060547 0.16511470079421997
7.4442853927612305 -11.391511917114258 0.1657787412405014
7.511341094970703 -11.389092445373535 0.1670358031988144
7.54014778137207 -11.381312370300293 0.16763871908187866
7.58588171005249 -11.398017883300781 0.16895908117294312
7.612696647644043 -11.386377334594727 0.16901342570781708
7.645833969116211 -11.384737968444824 0.17006704211235046
7.678823471069336 -11.381254196166992 0.17074474692344666
7.715292453765869 -11.384279251098633 0.17139048874378204
7.747588157653809 -11.381007194519043 0.17205864191055298
7.782741546630859 -11.380309104919434 0.17266377806663513
7.818767547607422 -11.382223129272461 0.17376917600631714
7.852621078491211 -11.380826950073242 0.17449718713760376
7.8861894607543945 -11.37740707397461 0.17504587769508362
7.9908905029296875 -11.375053405761719 0.1771262139081955
8.025426864624023 -11.373961448669434 0.1782165765762329
8.085966110229492 -11.357915878295898 0.1793457567691803
8.191085815429688 -11.353816986083984 0.18144576251506805
8.840396881103516 -11.326257705688477 0.19550877809524536
8.948376655578613 -11.317192077636719 0.19755485653877258
9.05732250213623 -11.308128356933594 0.1997901201248169
9.095721244812012 -11.30789566040039 0.2010090947151184
9.161507606506348 -11.291977882385254 0.20227931439876556
9.20625114440918 -11.298298835754395 0.20312926173210144
9.247146606445312 -11.299932479858398 0.20402902364730835
9.284677505493164 -11.297876358032227 0.20521771907806396
9.360269546508789 -11.29256820678711 0.20674525201320648
9.394857406616211 -11.286542892456055 0.2070034146308899
9.438444137573242 -11.290353775024414 0.20831453800201416
9.477967262268066 -11.289355278015137 0.20866407454013824
9.513349533081055 -11.283864974975586 0.20982450246810913
9.5494966506958 -11.27834415435791 0.2106415331363678
9.589529037475586 -11.277503967285156 0.2113550901412964
9.624970436096191 -11.27088737487793 0.2121564745903015
9.660890579223633 -11.264947891235352 0.21279177069664001
9.702923774719238 -11.266561508178711 0.21373769640922546
9.746955871582031 -11.269493103027344 0.21509280800819397
9.790007591247559 -11.271329879760742 0.21552664041519165
9.823385238647461 -11.26246452331543 0.21666130423545837
9.86656379699707 -11.263883590698242 0.21707680821418762
9.89741325378418 -11.251328468322754 0.21815410256385803
9.943918228149414 -11.257003784179688 0.21866238117218018
9.98466682434082 -11.254585266113281 0.21995654702186584
10.02548599243164 -11.253469467163086 0.22032424807548523
10.104023933410645 -11.24591064453125 0.22231830656528473
10.145282745361328 -11.244806289672852 0.22325439751148224
10.889698028564453 -11.189495086669922 0.23891429603099823
11.025959014892578 -11.187919616699219 0.24227049946784973
11.242263793945312 -11.170381546020508 0.24637024104595184
11.280405044555664 -11.161855697631836 0.2476424276828766
11.376842498779297 -11.162848472595215 0.24972037971019745
11.420063018798828 -11.158040046691895 0.25014492869377136
11.511198043823242 -11.153508186340332 0.2521052062511444
11.551639556884766 -11.145515441894531 0.2530369758605957
11.69872760772705 -11.146276473999023 0.256120890378952
11.742546081542969 -11.141060829162598 0.2571409344673157
11.786039352416992 -11.135941505432129 0.25801777839660645
11.828603744506836 -11.128994941711426 0.259006530046463
11.878290176391602 -11.128795623779297 0.2595803439617157
11.928409576416016 -11.12856674194336 0.2611532509326935
11.971821784973145 -11.122690200805664 0.261599600315094
12.020591735839844 -11.12104606628418 0.2631525695323944
12.064178466796875 -11.114200592041016 0.26359573006629944
12.107139587402344 -11.107419967651367 0.265031635761261
12.15353012084961 -11.103052139282227 0.2655368149280548
12.255827903747559 -11.102178573608398 0.2677513360977173
12.392692565917969 -11.085123062133789 0.2702152729034424
12.543855667114258 -11.079174041748047 0.2736096978187561
13.612363815307617 -10.994465827941895 0.2952316999435425
13.769710540771484 -10.97923469543457 0.2988566756248474
13.94788932800293 -10.978588104248047 0.3023023009300232
14.003238677978516 -10.974363327026367 0.3040958046913147
14.05572509765625 -10.967914581298828 0.30471453070640564
14.118202209472656 -10.968799591064453 0.306033730506897
14.158011436462402 -10.952689170837402 0.30703869462013245
14.221445083618164 -10.954086303710938 0.30792590975761414
14.274065971374512 -10.946691513061523 0.3096486032009125
14.326417922973633 -10.939699172973633 0.310288667678833
14.435131072998047 -10.926780700683594 0.31274619698524475
14.507596015930176 -10.934350967407227 0.3138209581375122
14.55198860168457 -10.919952392578125 0.3154130280017853
14.608844757080078 -10.914493560791016 0.31613215804100037
14.676719665527344 -10.91723918914795 0.31776461005210876
14.79017448425293 -10.905763626098633 0.31921231746673584
14.848830223083496 -10.900936126708984 0.3211054801940918
14.964157104492188 -10.889497756958008 0.32326629757881165
15.025447845458984 -10.885894775390625 0.3245801031589508
15.141605377197266 -10.873106002807617 0.32676172256469727
15.32728385925293 -10.861051559448242 0.3304336369037628
16.7392635345459 -10.736482620239258 0.35951822996139526
16.867719650268555 -10.719725608825684 0.36202389001846313
16.947641372680664 -10.72036361694336 0.36325350403785706
17.083236694335938 -10.706518173217773 0.3664368987083435
17.15212059020996 -10.699329376220703 0.367428719997406
17.284786224365234 -10.681231498718262 0.37053465843200684
17.35161590576172 -10.672834396362305 0.3714883327484131
17.430023193359375 -10.670659065246582 0.37394627928733826
17.499454498291016 -10.662450790405273 0.3749416470527649
17.564491271972656 -10.652156829833984 0.37586623430252075
17.64385223388672 -10.649656295776367 0.3778214752674103
17.715404510498047 -10.641894340515137 0.37939971685409546
17.79221534729004 -10.637852668762207 0.38056427240371704
17.932682037353516 -10.619573593139648 0.38387852907180786
18.010692596435547 -10.615348815917969 0.38508349657058716
18.158525466918945 -10.599696159362793 0.38855600357055664
18.239543914794922 -10.595683097839355 0.38983041048049927
18.387468338012695 -10.57891845703125 0.3927931487560272
18.457197189331055 -10.56749153137207 0.3943444788455963
18.610193252563477 -10.551897048950195 0.39743858575820923
20.43482208251953 -10.370680809020996 0.43491971492767334
20.694076538085938 -10.338247299194336 0.4412606358528137
20.97072982788086 -10.312232971191406 0.4463784098625183
21.15365219116211 -10.291781425476074 0.4501888155937195
21.25506591796875 -10.286627769470215 0.4518865942955017
21.43645477294922 -10.263216018676758 0.4562723636627197
21.53057289123535 -10.253410339355469 0.45781028270721436
21.631946563720703 -10.245996475219727 0.4595174789428711
21.715665817260742 -10.229585647583008 0.4622783362865448
21.81485366821289 -10.221046447753906 0.4639626741409302
22.00818634033203 -10.198820114135742 0.4671488404273987
22.095199584960938 -10.183499336242676 0.47001519799232483
22.29373550415039 -10.161388397216797 0.47334450483322144
22.40386962890625 -10.155488967895508 0.4752386808395386
22.60765838623047 -10.133308410644531 0.4801601767539978
22.715063095092773 -10.124202728271484 0.4819859266281128
25.738950729370117 -9.76468276977539 0.5458604693412781
26.11235237121582 -9.719001770019531 0.553167998790741
26.484113693237305 -9.66825008392334 0.5607694983482361
26.748138427734375 -9.637168884277344 0.5662122368812561
26.887409210205078 -9.62435531616211 0.5687360763549805
27.020721435546875 -9.608863830566406 0.571126401424408
27.145793914794922 -9.588067054748535 0.5743691921234131
27.27263641357422 -9.569258689880371 0.5773528814315796
27.5544376373291 -9.537996292114258 0.5824772119522095
27.686206817626953 -9.519317626953125 0.5848203301429749
27.96293067932129 -9.482965469360352 0.5916414260864258
28.087486267089844 -9.460262298583984 0.5938557982444763
21.253929138183594 -5.554096698760986 0.44874081015586853
21.212322235107422 -5.400995254516602 0.4484582543373108
21.21210479736328 -5.25916862487793 0.44772472977638245
21.472000122070312 -5.227724075317383 0.45259904861450195
21.744165420532227 -5.246208667755127 0.4582151770591736
29.7575626373291 -6.981915473937988 0.6276262402534485
21.558012008666992 -4.915273189544678 0.45477139949798584
24.032146453857422 -3.5979514122009277 0.5045448541641235
24.00775909423828 -3.440133571624756 0.5035246014595032
24.474292755126953 -3.3501031398773193 0.5122615098953247
30.222972869873047 -3.9435858726501465 0.6324613690376282
30.52826690673828 -1.4634809494018555 0.634516716003418
30.514375686645508 -1.2705965042114258 0.6340680718421936
30.51630973815918 -1.0785459280014038 0.6332367062568665
36.3204231262207 3.2969486713409424 1.0448613166809082
35.28224182128906 6.21816873550415 1.017760992050171
35.130279541015625 6.572360992431641 1.0131264925003052
35.03296661376953 6.782374382019043 1.0093598365783691
27.904285430908203 7.688821792602539 0.8094465732574463
27.240108489990234 7.690382957458496 0.7908107042312622
26.807575225830078 7.690314292907715 0.7774867415428162
26.188440322875977 7.691211700439453 0.7599400281906128
25.58755874633789 7.6897993087768555 0.7422447204589844
19.76461410522461 7.656384468078613 0.5783642530441284
19.380016326904297 7.647859573364258 0.5671929121017456
19.128156661987305 7.641727447509766 0.5595155358314514
18.74604034423828 7.62607479095459 0.5484760999679565
15.026799201965332 7.559051513671875 0.4416576623916626
14.854248046875 7.550806522369385 0.4371180534362793
14.775014877319336 7.549154758453369 0.4352465271949768
14.62978744506836 7.552816390991211 0.4309006929397583
14.46990966796875 7.547626972198486 0.4261162281036377
14.41106128692627 7.555016040802002 0.42486125230789185
11.754640579223633 7.481114387512207 0.34882256388664246
11.637811660766602 7.475811004638672 0.34544479846954346
11.576583862304688 7.470461845397949 0.3435850739479065
11.465682029724121 7.467475891113281 0.34037452936172485
11.415310859680176 7.468454360961914 0.3393610715866089
11.347972869873047 7.45906400680542 0.3373229205608368
11.296479225158691 7.458833694458008 0.33591869473457336
11.234798431396484 7.451632976531982 0.33405953645706177
11.125490188598633 7.446786880493164 0.33088916540145874
10.972572326660156 7.444741725921631 0.3266133666038513
9.493572235107422 7.386346817016602 0.28575682640075684
9.36514949798584 7.381410121917725 0.28211748600006104
9.240885734558105 7.378121376037598 0.2787427604198456
9.164637565612793 7.380658149719238 0.2766873240470886
9.120830535888672 7.376633644104004 0.2758127450942993
9.043024063110352 7.376917839050293 0.2737165689468384
9.00687026977539 7.378605842590332 0.2726127505302429
8.91292953491211 7.364594459533691 0.27004000544548035
8.88784408569336 7.374955654144287 0.26974162459373474
8.800474166870117 7.365259170532227 0.2673306167125702
8.76401138305664 7.365721225738525 0.2659497559070587
8.678293228149414 7.356266975402832 0.2636355757713318
8.650957107543945 7.364376544952393 0.2628346085548401
8.571708679199219 7.3590240478515625 0.2607038617134094
8.474220275878906 7.36837100982666 0.25844746828079224
7.685904026031494 7.332581520080566 0.23719793558120728
7.579263687133789 7.322409629821777 0.23432311415672302
7.486610412597656 7.324973106384277 0.2326018214225769
7.428112030029297 7.328695297241211 0.23070332407951355
7.384693145751953 7.316686630249023 0.22960308194160461
7.330066680908203 7.323994159698486 0.2282237708568573
7.300296783447266 7.324584484100342 0.2273900955915451
7.235313415527344 7.320791721343994 0.22571545839309692
7.200796127319336 7.316171169281006 0.22475215792655945
7.1668901443481445 7.312379837036133 0.22390234470367432
7.136285781860352 7.311968803405762 0.22306600213050842
7.116491794586182 7.322024345397949 0.22266033291816711
7.069090843200684 7.303886413574219 0.22129270434379578
7.0384907722473145 7.303056716918945 0.22019246220588684
7.015564918518066 7.309568405151367 0.21996891498565674
6.995884418487549 7.319774627685547 0.21919190883636475
6.947338104248047 7.299770355224609 0.21815606951713562
6.915118217468262 7.296543121337891 0.21698716282844543
6.833611488342285 7.301939964294434 0.21493282914161682
6.743961334228516 7.297564506530762 0.21328751742839813
6.6591644287109375 7.2973127365112305 0.21083930134773254
6.1561479568481445 7.280345916748047 0.1977883279323578
6.0790534019470215 7.2815260887146 0.19664563238620758
5.989611625671387 7.266767501831055 0.19432201981544495
5.919034004211426 7.273830413818359 0.1923661231994629
5.8841142654418945 7.262179374694824 0.19138769805431366
5.862500190734863 7.266654968261719 0.19093525409698486
5.842309951782227 7.272459983825684 0.19045740365982056
5.809969902038574 7.263553619384766 0.18955159187316895
5.792792320251465 7.273345947265625 0.18926413357257843
5.766624450683594 7.271937370300293 0.18833449482917786
5.731828689575195 7.259326457977295 0.18771082162857056
5.710947036743164 7.263822555541992 0.18718796968460083
5.685524940490723 7.262990951538086 0.18628649413585663
5.65886116027832 7.2602949142456055 0.18589666485786438
5.643095016479492 7.2711381912231445 0.1853274703025818
5.609927177429199 7.259990692138672 0.1844118982553482
5.585501194000244 7.2598466873168945 0.1838761568069458
5.538136005401611 7.260974407196045 0.1824340969324112
5.520343780517578 7.269260406494141 0.18266889452934265
5.461361885070801 7.254825592041016 0.18115448951721191
5.441672325134277 7.259976387023926 0.18046948313713074
5.389915943145752 7.254385948181152 0.17923083901405334
5.3707170486450195 7.259967803955078 0.1790640652179718
5.323688507080078 7.260148525238037 0.17765119671821594
5.249124050140381 7.253650665283203 0.17560380697250366
4.835886001586914 7.24376106262207 0.1657174676656723
4.813118934631348 7.242157936096191 0.16489729285240173
4.766046524047852 7.23726224899292 0.16379575431346893
4.745980739593506 7.239455223083496 0.16331779956817627
4.695628643035889 7.228862762451172 0.16180987656116486
4.6713714599609375 7.224291801452637 0.16126126050949097
4.629810333251953 7.2265825271606445 0.15982478857040405
4.610377311706543 7.2292351722717285 0.15968480706214905
4.593801021575928 7.237297534942627 0.1591014862060547
4.573396682739258 7.238307476043701 0.15860901772975922
4.538323402404785 7.216487884521484 0.157703697681427
4.521154403686523 7.222807884216309 0.15733925998210907
4.512475967407227 7.242318630218506 0.15704204142093658
4.485613822937012 7.233588695526123 0.15665948390960693
4.454087257385254 7.216141223907471 0.15555180609226227
4.43656063079834 7.221229553222656 0.15515607595443726
4.414065361022949 7.219144821166992 0.1546768993139267
4.398740291595459 7.227741241455078 0.1546817421913147
4.367089748382568 7.209379196166992 0.15355734527111053
4.349360942840576 7.214848518371582 0.1532154232263565
4.33608865737915 7.226706027984619 0.1530286967754364
4.312483310699463 7.221290588378906 0.15243396162986755
4.293147563934326 7.223923206329346 0.15175211429595947
4.27059268951416 7.22004508972168 0.1515045315027237
4.248714447021484 7.218202114105225 0.15076246857643127
4.229313850402832 7.219472885131836 0.15033042430877686
4.203866004943848 7.210297584533691 0.14971598982810974
4.171297073364258 7.224187850952148 0.1488441526889801
4.1037492752075195 7.211519241333008 0.14705047011375427
4.041472434997559 7.207108497619629 0.1454140692949295
3.9830875396728516 7.208850860595703 0.1441498100757599
3.9238507747650146 7.208759307861328 0.14291124045848846
6.5782470703125 -11.432713508605957 0.2547708749771118
6.607669830322266 -11.42730712890625 0.25543320178985596
6.64748477935791 -11.44130802154541 0.25685933232307434
6.667867183685303 -11.421756744384766 0.2567250728607178
6.703499794006348 -11.42665958404541 0.2579754889011383
6.733778476715088 -11.423887252807617 0.2590356171131134
6.8006486892700195 -11.42704963684082 0.26056307554244995
6.831568241119385 -11.42498779296875 0.2613335847854614
6.921679973602295 -11.412189483642578 0.2636438310146332
7.026119709014893 -11.421823501586914 0.2665233612060547
7.513625144958496 -11.39406967163086 0.27889519929885864
7.57387113571167 -11.380849838256836 0.2801796793937683
7.615358829498291 -11.391863822937012 0.28119927644729614
7.681445121765137 -11.386638641357422 0.2832024097442627
7.716192245483398 -11.387104988098145 0.2839440703392029
7.780832767486572 -11.379007339477539 0.28589949011802673
7.817385673522949 -11.381698608398438 0.28637439012527466
7.845444679260254 -11.370427131652832 0.28734806180000305
7.885097026824951 -11.377313613891602 0.28793978691101074
7.948301315307617 -11.36596965789795 0.29019859433174133
7.983530044555664 -11.366050720214844 0.2906091809272766
8.020435333251953 -11.367501258850098 0.29194021224975586
8.049495697021484 -11.357965469360352 0.2926171123981476
8.093395233154297 -11.369819641113281 0.29371342062950134
8.121706008911133 -11.358766555786133 0.2943592965602875
8.196266174316406 -11.362459182739258 0.2965503931045532
8.222047805786133 -11.347030639648438 0.2971125543117523
8.260237693786621 -11.350089073181152 0.29798397421836853
8.300398826599121 -11.354818344116211 0.2990877330303192
8.336941719055176 -11.354667663574219 0.2998831570148468
8.367131233215332 -11.34635066986084 0.3006412982940674
8.440640449523926 -11.345691680908203 0.3024255633354187
8.47640323638916 -11.344528198242188 0.30372607707977295
8.54449462890625 -11.335783004760742 0.3053078055381775
8.587808609008789 -11.344192504882812 0.30651962757110596
8.759249687194824 -11.321691513061523 0.31099849939346313
8.872774124145508 -11.320656776428223 0.3137475848197937
8.980203628540039 -11.31054401397705 0.3164297938346863
9.313682556152344 -11.285345077514648 0.3250668942928314
9.434930801391602 -11.286968231201172 0.3282312750816345
9.550789833068848 -11.28068733215332 0.3316064774990082
9.665239334106445 -11.271408081054688 0.33438777923583984
9.736295700073242 -11.257979393005371 0.33664193749427795
9.785990715026855 -11.26809310913086 0.3375706076622009
9.820005416870117 -11.259166717529297 0.33881038427352905
9.856618881225586 -11.253337860107422 0.3392764627933502
9.893254280090332 -11.24798583984375 0.3406345844268799
9.944746971130371 -11.258517265319824 0.34159743785858154
9.98556137084961 -11.256978034973145 0.34309062361717224
10.022993087768555 -11.252050399780273 0.34358838200569153
10.05965518951416 -11.244754791259766 0.344915509223938
10.093626022338867 -11.2357177734375 0.345832884311676
10.136077880859375 -11.235177993774414 0.3468620777130127
10.182388305664062 -11.23895263671875 0.3481828570365906
10.218015670776367 -11.231344223022461 0.3489876389503479
10.254983901977539 -11.224292755126953 0.34998106956481934
10.301759719848633 -11.228034019470215 0.35116100311279297
10.343438148498535 -11.226603507995605 0.35232582688331604
10.38764762878418 -11.22693920135498 0.3534121513366699
10.515705108642578 -11.222408294677734 0.3568410873413086
10.559538841247559 -11.222419738769531 0.3580934405326843
10.626102447509766 -11.19828987121582 0.3600575029850006
10.685996055603027 -11.214706420898438 0.361322283744812
10.760295867919922 -11.19787311553955 0.36317741870880127
10.790767669677734 -11.183040618896484 0.3643686771392822
11.733787536621094 -11.134111404418945 0.3893248438835144
11.813936233520508 -11.115989685058594 0.3914049565792084
11.868587493896484 -11.121066093444824 0.39286601543426514
11.96591567993164 -11.117997169494629 0.3955341577529907
12.014379501342773 -11.116659164428711 0.39696234464645386
12.10169792175293 -11.103221893310547 0.39929670095443726
12.154335021972656 -11.104354858398438 0.4002459645271301
12.253683090209961 -11.101597785949707 0.4029974341392517
12.29452896118164 -11.09144115447998 0.4041755795478821
12.340827941894531 -11.08627700805664 0.4053378105163574
12.388795852661133 -11.082996368408203 0.4067518711090088
12.447616577148438 -11.08840560913086 0.4083396792411804
12.493904113769531 -11.08265495300293 0.40970999002456665
12.536298751831055 -11.073067665100098 0.41072946786880493
12.592451095581055 -11.075663566589355 0.4124116599559784
12.694379806518555 -11.0714111328125 0.41526782512664795
12.735252380371094 -11.060044288635254 0.41581863164901733
12.790264129638672 -11.061342239379883 0.4173256754875183
12.839735984802246 -11.056840896606445 0.41877347230911255
12.894152641296387 -11.05661392211914 0.4197891354560852
13.040578842163086 -11.040672302246094 0.42392927408218384
14.15218734741211 -10.948989868164062 0.45333391427993774
14.489829063415527 -10.921770095825195 0.462563157081604
14.664571762084961 -10.90959358215332 0.46750712394714355
14.784693717956543 -10.902534484863281 0.4705345630645752
14.85317611694336 -10.904708862304688 0.4724486470222473
14.96339225769043 -10.88975715637207 0.47516387701034546
15.02460765838623 -10.885870933532715 0.47684431076049805
15.091018676757812 -10.886301040649414 0.478907972574234
15.142416000366211 -10.875089645385742 0.4798140227794647
15.268465042114258 -10.86844253540039 0.48349490761756897
15.326915740966797 -10.861377716064453 0.48461800813674927
15.387720108032227 -10.8565673828125 0.4869760274887085
15.455205917358398 -10.855626106262207 0.4884064793586731
15.521916389465332 -10.853628158569336 0.49045270681381226
15.57436752319336 -10.84225082397461 0.4913982152938843
15.638994216918945 -10.838541030883789 0.49271103739738464
15.758262634277344 -10.823244094848633 0.49620121717453003
15.94674015045166 -10.805784225463867 0.5011691451072693
16.132295608520508 -10.784160614013672 0.5060402750968933
17.570663452148438 -10.656757354736328 0.5448886156082153
17.79171371459961 -10.638411521911621 0.550929844379425
18.021366119384766 -10.621637344360352 0.5572391748428345
18.084619522094727 -10.608415603637695 0.5590237379074097
18.254274368286133 -10.60486125946045 0.5636391043663025
18.3087100982666 -10.58572769165039 0.5646398663520813
18.397741317749023 -10.585700988769531 0.5679978728294373
18.472496032714844 -10.576873779296875 0.5696398019790649
18.532466888427734 -10.56020736694336 0.5707827210426331
18.626707077026367 -10.562135696411133 0.5730096101760864
18.688724517822266 -10.545234680175781 0.5755364894866943
18.781564712524414 -10.546295166015625 0.5777362585067749
18.936786651611328 -10.528804779052734 0.5824652314186096
19.007478713989258 -10.515899658203125 0.5839548110961914
19.174640655517578 -10.503791809082031 0.5884917974472046
19.421424865722656 -10.480789184570312 0.5953847765922546
19.679622650146484 -10.460271835327148 0.6018283367156982
21.81153678894043 -10.220439910888672 0.6610127687454224
21.925304412841797 -10.217363357543945 0.6646686792373657
22.10443115234375 -10.187751770019531 0.6694081425666809
22.20553207397461 -10.178534507751465 0.6718190908432007
22.40607452392578 -10.156488418579102 0.6780872344970703
22.49452018737793 -10.140361785888672 0.6801348924636841
22.72080421447754 -10.12745475769043 0.6865602731704712
22.80377769470215 -10.107766151428223 0.6884311437606812
22.91122055053711 -10.097860336303711 0.6916711330413818
23.01876449584961 -10.087286949157715 0.6942698955535889
23.12295150756836 -10.075796127319336 0.6976935267448425
23.329973220825195 -10.049310684204102 0.7032893896102905
23.443313598632812 -10.040507316589355 0.7060720324516296
23.639514923095703 -10.006932258605957 0.711613655090332
23.98797607421875 -9.977083206176758 0.7208839654922485
24.318862915039062 -9.93583869934082 0.7298858165740967
26.99393081665039 -9.599337577819824 0.8050104379653931
27.39678955078125 -9.549015045166016 0.8180331587791443
27.79022979736328 -9.490641593933105 0.8279854655265808
28.055187225341797 -9.449384689331055 0.8354229927062988
28.209941864013672 -9.436368942260742 0.8405333757400513
28.479291915893555 -9.39329719543457 0.8473565578460693
28.621723175048828 -9.374462127685547 0.8510246276855469
28.9075927734375 -9.333477020263672 0.8590985536575317
29.354137420654297 -9.274286270141602 0.8725160956382751
29.807506561279297 -9.21183967590332 0.8842389583587646
30.274673461914062 -9.148113250732422 0.8975138664245605
30.72928237915039 -9.075057983398438 0.9100831747055054
21.54934310913086 -5.151905059814453 0.6365631818771362
35.442161560058594 -8.238113403320312 1.0471326112747192
29.750926971435547 -6.717952728271484 0.888685941696167
22.105335235595703 -4.894078254699707 0.6523514986038208
21.489093780517578 -4.710912704467773 0.6332123279571533
21.178171157836914 -4.549379825592041 0.6235453486442566
21.381650924682617 -4.546684741973877 0.6294451951980591
21.492061614990234 -4.475643634796143 0.6323181986808777
21.38416290283203 -4.313110828399658 0.6278485655784607
22.002893447875977 -4.294116973876953 0.6462512612342834
36.44554138183594 -4.678628921508789 1.0663175582885742
36.39997863769531 -4.440358638763428 1.064171314239502
36.39250946044922 -4.283984184265137 1.0633410215377808
36.42228698730469 -4.21087646484375 1.0639961957931519
36.41130065917969 -4.0542893409729 1.063126802444458
36.42140197753906 -3.823765754699707 1.0617974996566772
36.4439697265625 -3.594651699066162 1.0617318153381348
36.603763580322266 -0.757082998752594 1.0596466064453125
36.61072540283203 -0.3727896809577942 1.0597095489501953
36.55918502807617 -0.14241962134838104 1.0572316646575928
17.688751220703125 7.327946186065674 0.45587730407714844
17.378467559814453 7.327741622924805 0.447193443775177
17.076068878173828 7.327009677886963 0.43941307067871094
16.8532657623291 7.315607070922852 0.43328022956848145
16.75706672668457 7.315213680267334 0.4305175542831421
16.56238555908203 7.3134236335754395 0.4244977831840515
16.281002044677734 7.311825752258301 0.4172952175140381
13.747364044189453 7.282792568206787 0.34897011518478394
13.596562385559082 7.276401519775391 0.34605294466018677
13.520700454711914 7.271936416625977 0.34415560960769653
13.38405990600586 7.271282196044922 0.34053513407707214
13.318015098571777 7.271236419677734 0.33866196870803833
13.247477531433105 7.269080638885498 0.33686989545822144
13.185367584228516 7.271063804626465 0.3351174592971802
13.113805770874023 7.26713228225708 0.33363842964172363
13.043842315673828 7.264405727386475 0.33134305477142334
12.990991592407227 7.270751953125 0.33041703701019287
12.907837867736816 7.259431838989258 0.32773637771606445
12.782499313354492 7.2599687576293945 0.3233737349510193
12.715165138244629 7.25666618347168 0.32145965099334717
12.598987579345703 7.260873794555664 0.3184249699115753
12.532257080078125 7.257712364196777 0.31709176301956177
12.404394149780273 7.252989768981934 0.31375062465667725
12.335611343383789 7.247768402099609 0.3115158975124359
12.213600158691406 7.244845390319824 0.30867379903793335
12.042829513549805 7.2468767166137695 0.3048388957977295
10.867646217346191 7.2102460861206055 0.27331268787384033
10.810306549072266 7.204556465148926 0.27179229259490967
10.694544792175293 7.192633628845215 0.2694619297981262
10.658397674560547 7.200490951538086 0.2684478163719177
10.6010103225708 7.194750785827637 0.26709824800491333
10.553775787353516 7.194728851318359 0.26580923795700073
10.506669998168945 7.194978713989258 0.2642279267311096
10.458259582519531 7.194312572479248 0.26340651512145996
10.409099578857422 7.192364692687988 0.26171380281448364
10.365947723388672 7.194754123687744 0.26106154918670654
10.312999725341797 7.190317153930664 0.2593282461166382
10.260738372802734 7.185569763183594 0.25791600346565247
10.216482162475586 7.187155246734619 0.2568639814853668
10.169442176818848 7.185656547546387 0.2556041479110718
10.120983123779297 7.183328628540039 0.2540014684200287
10.076330184936523 7.183677673339844 0.25326719880104065
10.02548885345459 7.178857803344727 0.2515980899333954
9.984947204589844 7.181595802307129 0.2504969537258148
9.932113647460938 7.17546272277832 0.2492728978395462
9.888874053955078 7.175502300262451 0.24810577929019928
9.841011047363281 7.172367572784424 0.24698854982852936
9.810211181640625 7.181685447692871 0.2461526244878769
9.754952430725098 7.172371864318848 0.2444051206111908
9.70101261138916 7.1646904945373535 0.24338731169700623
9.662407875061035 7.167214393615723 0.24209526181221008
9.528167724609375 7.160934925079346 0.23926295340061188
9.413651466369629 7.167916297912598 0.2363671362400055
9.273768424987793 7.153952598571777 0.23293176293373108
9.155105590820312 7.1551995277404785 0.22999772429466248
8.830638885498047 7.143927097320557 0.22118043899536133
8.791816711425781 7.142758369445801 0.21986836194992065
8.726256370544434 7.1507110595703125 0.218305766582489
8.67387580871582 7.137925624847412 0.216939777135849
8.640399932861328 7.141027450561523 0.21620959043502808
8.606538772583008 7.1435160636901855 0.21560195088386536
8.558746337890625 7.133896827697754 0.21478867530822754
8.528764724731445 7.139477729797363 0.21373997628688812
8.487195014953613 7.135046005249023 0.212666854262352
8.44888973236084 7.132821083068848 0.21138626337051392
8.414660453796387 7.134406089782715 0.21089184284210205
8.373531341552734 7.129815101623535 0.20958557724952698
8.342789649963379 7.133557319641113 0.2091716080904007
8.311750411987305 7.137810707092285 0.20814716815948486
8.274103164672852 7.1353678703308105 0.2068646401166916
8.230415344238281 7.128047943115234 0.2057764232158661
8.20111083984375 7.132864475250244 0.20514361560344696
8.171695709228516 7.137120246887207 0.20438367128372192
8.12446117401123 7.12615966796875 0.2032875120639801
8.080587387084961 7.117759704589844 0.2021719217300415
8.051199913024902 7.121599197387695 0.20116154849529266
8.029805183410645 7.1329498291015625 0.20100858807563782
7.985210418701172 7.123394966125488 0.19959086179733276
7.953559875488281 7.125372886657715 0.19881120324134827
7.918797492980957 7.123907089233398 0.19804668426513672
7.8918962478637695 7.129751205444336 0.19707462191581726
7.857354640960693 7.1287312507629395 0.1962108016014099
7.818222522735596 7.1232194900512695 0.19535060226917267
7.776900768280029 7.115677833557129 0.19428637623786926
7.745484352111816 7.116519451141357 0.1935032606124878
7.709712028503418 7.1135687828063965 0.1929832249879837
7.679644584655762 7.115902900695801 0.1919676512479782
7.612691879272461 7.113171100616455 0.19036707282066345
7.569687366485596 7.102982044219971 0.18929564952850342
7.5027570724487305 7.099320888519287 0.1870884746313095
7.477075576782227 7.104999542236328 0.1868211030960083
7.418417453765869 7.108951568603516 0.1851046085357666
7.382955074310303 7.10441780090332 0.18432965874671936
7.317566394805908 7.101091384887695 0.1828354299068451
7.28386926651001 7.097800254821777 0.1819557547569275
7.222996711730957 7.098031044006348 0.18032829463481903
7.168262481689453 7.103832721710205 0.17869161069393158
7.126492500305176 7.091810703277588 0.17804378271102905
7.062063217163086 7.0871381759643555 0.17622771859169006
7.03812837600708 7.092495918273926 0.17536704242229462
7.008622169494629 7.0930023193359375 0.17475366592407227
6.968881130218506 7.082118988037109 0.1737702488899231
6.948920249938965 7.091207981109619 0.17327818274497986
6.909554958343506 7.081234931945801 0.1720701903104782
6.887912273406982 7.088422775268555 0.17189380526542664
6.857524871826172 7.086516380310059 0.1709139496088028
6.830574989318848 7.088907718658447 0.17026327550411224
6.792869567871094 7.079117774963379 0.16945300996303558
6.767901420593262 7.082814693450928 0.16859789192676544
6.7324042320251465 7.075511932373047 0.16771447658538818
6.716045379638672 7.087714195251465 0.16706442832946777
6.680819511413574 7.080774307250977 0.16658496856689453
6.648220062255859 7.075582504272461 0.16554689407348633
6.622901916503906 7.078012466430664 0.1646602898836136
6.596164226531982 7.0796918869018555 0.1643877923488617
6.5687665939331055 7.079685688018799 0.16348861157894135
6.531513214111328 7.0692548751831055 0.1625487208366394
6.511624336242676 7.077648639678955 0.1618465781211853
6.477315902709961 7.069745063781738 0.16111692786216736
6.45262336730957 7.073071002960205 0.1605488508939743
6.425924301147461 7.07322883605957 0.1596519947052002
6.3956804275512695 7.069360256195068 0.15893062949180603
6.377240180969238 7.079316139221191 0.15859413146972656
6.339666366577148 7.067042350769043 0.15769079327583313
6.3081231117248535 7.061305046081543 0.15669755637645721
6.285330295562744 7.066114902496338 0.15650370717048645
6.257634162902832 7.064444541931152 0.15561531484127045
6.235898017883301 7.069921970367432 0.1550980806350708
6.201328754425049 7.060565948486328 0.15401120483875275
6.17242431640625 7.0571393966674805 0.15334230661392212
6.139510154724121 7.049842834472656 0.15264791250228882
6.124960422515869 7.062674522399902 0.15210238099098206
6.085794448852539 7.047005653381348 0.1511278599500656
6.065139293670654 7.053491592407227 0.15043379366397858
6.037139892578125 7.050473690032959 0.1501060575246811
6.01835823059082 7.058648586273193 0.14945608377456665
5.996608734130859 7.063131332397461 0.14869937300682068
5.965482234954834 7.05609655380249 0.14829368889331818
5.937267303466797 7.05286979675293 0.14739523828029633
5.912478446960449 7.053438186645508 0.14659342169761658
5.88297176361084 7.047893524169922 0.14589440822601318
5.829833030700684 7.0443267822265625 0.1447109580039978
5.804337501525879 7.0432257652282715 0.14391863346099854
5.780059814453125 7.044374465942383 0.14314106106758118
5.748807907104492 7.036011695861816 0.1423736810684204
5.705864906311035 7.043790817260742 0.1414896547794342
5.678589820861816 7.039937973022461 0.14064113795757294
5.633407115936279 7.044427871704102 0.1398877054452896
5.584245681762695 7.0435638427734375 0.13832956552505493
5.550884246826172 7.03140926361084 0.13752862811088562
5.508048057556152 7.037888526916504 0.136453777551651
5.486512184143066 7.0404253005981445 0.1359376609325409
5.462279796600342 7.0399322509765625 0.13517113029956818
5.428354263305664 7.02662992477417 0.13436803221702576
5.405220031738281 7.026777267456055 0.13394327461719513
5.387738227844238 7.034729957580566 0.13298648595809937
5.362011909484863 7.031686782836914 0.13272711634635925
5.338137626647949 7.031112194061279 0.13198356330394745
5.309640884399414 7.023795127868652 0.13110212981700897
5.296435356140137 7.037002086639404 0.13082942366600037
5.265878677368164 7.0272297859191895 0.12988318502902985
5.247315406799316 7.033193111419678 0.12957584857940674
5.222817420959473 7.0307512283325195 0.12903118133544922
5.194509029388428 7.023569107055664 0.1281369924545288
5.172492027282715 7.024613380432129 0.1276632845401764
5.158232688903809 7.035780906677246 0.12713587284088135
5.12826681137085 7.025964736938477 0.12653358280658722
5.106603622436523 7.027233123779297 0.12606190145015717
5.084321975708008 7.027720928192139 0.12535080313682556
5.055081367492676 7.0179243087768555 0.12467703223228455
5.041872024536133 7.03067684173584 0.1241750717163086
5.013808250427246 7.022801399230957 0.12364311516284943
4.988380432128906 7.017934799194336 0.12305306643247604
4.965192794799805 7.016474723815918 0.122308649122715
4.93918514251709 7.011064529418945 0.12150878459215164
4.919519901275635 7.014396667480469 0.12139150500297546
4.888521194458008 7.001592636108398 0.1204819604754448
4.876709938049316 7.015647888183594 0.12023396790027618
4.853786468505859 7.014057636260986 0.11951927840709686
4.829037189483643 7.009873390197754 0.11876077950000763
4.810088157653809 7.013476371765137 0.11834990978240967
4.788800239562988 7.013974189758301 0.11766541004180908
4.765479564666748 7.011557579040527 0.1169406995177269
4.742877006530762 7.009926795959473 0.11643806099891663
4.727694511413574 7.018826484680176 0.11620508134365082
4.69742488861084 7.005759239196777 0.11529403924942017
4.684320449829102 7.018039703369141 0.11504334211349487
4.640486717224121 7.015796661376953 0.11366132646799088
4.617122650146484 7.0124382972717285 0.11343634128570557
4.570492267608643 7.0052900314331055 0.11198548227548599
4.545804023742676 6.999531269073486 0.11145876348018646
4.5052714347839355 7.001108169555664 0.11037127673625946
4.478384017944336 6.991552352905273 0.1098463237285614
4.378004550933838 6.99545955657959 0.10738962888717651
4.317645072937012 6.996997833251953 0.10536861419677734
4.253584384918213 6.991151809692383 0.10388077050447464
4.1955413818359375 6.994399070739746 0.10222981125116348
4.13102912902832 6.986040115356445 0.10075831413269043
4.0959553718566895 6.993786811828613 0.09984298050403595
4.072145462036133 6.9863362312316895 0.09909266978502274
4.053248405456543 6.987203598022461 0.09871841967105865
4.028491497039795 6.978832244873047 0.09828369319438934
17.741941452026367 8.012218475341797 0.6154029369354248
17.425003051757812 8.00135326385498 0.6049376130104065
17.1080379486084 7.986416339874268 0.5937354564666748
16.90251922607422 7.977343559265137 0.5866200923919678
16.80023765563965 7.971741199493408 0.5836188793182373
16.588253021240234 7.956917762756348 0.5749251842498779
16.492265701293945 7.953016757965088 0.5716745257377625
13.947072982788086 7.84345006942749 0.48478466272354126
13.730585098266602 7.836172103881836 0.4776400923728943
13.510799407958984 7.823748588562012 0.47089242935180664
13.436790466308594 7.818171501159668 0.4688693881034851
13.372689247131348 7.81872034072876 0.4662160873413086
13.301634788513184 7.814699172973633 0.4643568992614746
13.232796669006348 7.811241626739502 0.4615457355976105
13.169083595275879 7.811177730560303 0.4593498706817627
13.097038269042969 7.805667400360107 0.45736387372016907
13.026140213012695 7.800092697143555 0.4545392394065857
12.960529327392578 7.798467636108398 0.45280367136001587
12.89234733581543 7.79392671585083 0.4500909745693207
12.821077346801758 7.787857532501221 0.4470360279083252
12.69842529296875 7.7861175537109375 0.4429754614830017
12.505351066589355 7.7769575119018555 0.4365246295928955
12.321039199829102 7.770174026489258 0.4299429655075073
12.121901512145996 7.751527786254883 0.42329561710357666
11.075406074523926 7.686766624450684 0.38860535621643066
10.918187141418457 7.6797990798950195 0.3830995261669159
10.758358001708984 7.66892147064209 0.3779004216194153
10.707586288452148 7.666692733764648 0.37731707096099854
10.658082962036133 7.665340423583984 0.3753705620765686
10.605921745300293 7.6612701416015625 0.3740460276603699
10.556764602661133 7.659548282623291 0.3721024990081787
10.495244979858398 7.648791313171387 0.3700098395347595
10.460680961608887 7.65688943862915 0.3690306544303894
10.404985427856445 7.649731636047363 0.36715900897979736
10.351301193237305 7.643983840942383 0.36505621671676636
10.310901641845703 7.6472673416137695 0.3642039895057678
10.251142501831055 7.636944770812988 0.36188042163848877
10.20068359375 7.632321357727051 0.3606454133987427
10.15846061706543 7.63405704498291 0.3589484989643097
10.111026763916016 7.631870269775391 0.3573530316352844
10.05306625366211 7.620919227600098 0.35510489344596863
10.014379501342773 7.625334739685059 0.35429054498672485
9.973177909851074 7.626708984375 0.35264626145362854
9.926240921020508 7.623513221740723 0.3510841131210327
9.872318267822266 7.6156840324401855 0.3494277000427246
9.838460922241211 7.622184753417969 0.34831947088241577
9.792576789855957 7.61920690536499 0.34699079394340515
9.735151290893555 7.607968330383301 0.34507375955581665
9.700024604797363 7.612993240356445 0.3436022400856018
9.617436408996582 7.613844394683838 0.3411005437374115
9.559961318969727 7.600668907165527 0.3397567868232727
9.467811584472656 7.5927019119262695 0.3368622660636902
9.421757698059082 7.587948799133301 0.33533576130867004
8.973095893859863 7.574989318847656 0.32075050473213196
8.842597961425781 7.560922622680664 0.31638121604919434
8.720804214477539 7.552203178405762 0.31225958466529846
8.652166366577148 7.556382179260254 0.30980226397514343
8.605509757995605 7.547550201416016 0.30873772501945496
8.568985939025879 7.54703426361084 0.30786484479904175
8.530656814575195 7.545317649841309 0.30662423372268677
8.492152214050293 7.543107986450195 0.30551549792289734
8.451173782348633 7.538142204284668 0.30389404296875
8.42134952545166 7.543525218963623 0.30301225185394287
8.381743431091309 7.539834022521973 0.3018905222415924
8.33920955657959 7.5329413414001465 0.30046552419662476
8.308938980102539 7.537891387939453 0.2993267774581909
8.271851539611816 7.535600185394287 0.2984938323497772
8.246084213256836 7.544045448303223 0.29747670888900757
8.196369171142578 7.530243873596191 0.29585281014442444
8.166882514953613 7.534467697143555 0.2950596213340759
8.129697799682617 7.53199577331543 0.2936207056045532
8.089204788208008 7.5261125564575195 0.2923031449317932
8.040900230407715 7.512905120849609 0.29083579778671265
8.017420768737793 7.5225653648376465 0.29023635387420654
7.980625152587891 7.519244194030762 0.288756787776947
7.937704563140869 7.510503768920898 0.287747859954834
7.908984184265137 7.5148725509643555 0.2866240441799164
7.875933647155762 7.514630317687988 0.2856173515319824
7.844424247741699 7.516269683837891 0.2847585380077362
7.803788185119629 7.508831024169922 0.28322723507881165
7.776755332946777 7.514505386352539 0.2823919951915741
7.736671447753906 7.5068817138671875 0.28087157011032104
7.692742347717285 7.495687961578369 0.28006860613822937
7.668941497802734 7.504125118255615 0.27915793657302856
7.598235130310059 7.4972944259643555 0.27707287669181824
7.566007614135742 7.497087478637695 0.2757844924926758
7.501044273376465 7.4950456619262695 0.2739153802394867
7.464339256286621 7.489928722381592 0.2727826237678528
7.391890048980713 7.479971885681152 0.2702576220035553
7.364767074584961 7.483523845672607 0.26955446600914
7.306032180786133 7.486648082733154 0.2678970694541931
7.265613079071045 7.4762067794799805 0.2663930356502533
7.238789081573486 7.480511665344238 0.26558297872543335
7.206127166748047 7.477748870849609 0.26471662521362305
7.132978439331055 7.464504718780518 0.26215994358062744
7.1030473709106445 7.464132308959961 0.26096758246421814
7.043230056762695 7.463968276977539 0.25931617617607117
7.0120697021484375 7.461907863616943 0.25839224457740784
6.981011867523193 7.460731506347656 0.25718533992767334
6.950535297393799 7.459127426147461 0.256398469209671
6.915626049041748 7.452986717224121 0.2553026080131531
6.892679214477539 7.459781169891357 0.2546750009059906
6.857731819152832 7.452927589416504 0.25332215428352356
6.834794998168945 7.459382057189941 0.2530544400215149
6.78792667388916 7.439702987670898 0.2512967586517334
6.762781620025635 7.443106651306152 0.25057095289230347
6.730841636657715 7.439286231994629 0.24970242381095886
6.708884239196777 7.44655704498291 0.24886485934257507
6.676962375640869 7.4421234130859375 0.24789920449256897
6.6539177894592285 7.448387145996094 0.2470201551914215
6.625496864318848 7.447621822357178 0.24654191732406616
6.595890045166016 7.445398330688477 0.24541060626506805
6.562168121337891 7.439289569854736 0.24409827589988708
6.5344743728637695 7.438955307006836 0.24331167340278625
6.510456085205078 7.443623065948486 0.24275973439216614
6.463676452636719 7.421159267425537 0.24123620986938477
6.441204071044922 7.426418781280518 0.24035540223121643
6.415251731872559 7.428498268127441 0.23940709233283997
6.387764930725098 7.427774429321289 0.23894494771957397
6.360598564147949 7.42730712890625 0.2379079908132553
6.334750175476074 7.429188251495361 0.23693829774856567
6.305234909057617 7.425729751586914 0.2360437512397766
6.2833099365234375 7.431110382080078 0.23554007709026337
6.2481536865234375 7.421627998352051 0.23449525237083435
6.217097282409668 7.415922164916992 0.23354019224643707
6.200019836425781 7.427343368530273 0.23290784657001495
6.162503242492676 7.413997650146484 0.2318418323993683
6.136690139770508 7.414187431335449 0.23108123242855072
6.103130340576172 7.405793190002441 0.22984495759010315
6.08558464050293 7.415805339813232 0.22941060364246368
6.05470609664917 7.409480094909668 0.22823475301265717
6.02675199508667 7.407510757446289 0.22754603624343872
5.998928070068359 7.404646873474121 0.22673289477825165
5.967676162719727 7.397404670715332 0.22557026147842407
5.947360038757324 7.404533863067627 0.22502802312374115
5.926650524139404 7.41019344329834 0.2245899885892868
5.890420913696289 7.397236347198486 0.22325345873832703
5.869444847106934 7.402366638183594 0.22267533838748932
5.834895133972168 7.390242576599121 0.2213667631149292
5.812780380249023 7.394658088684082 0.22090959548950195
5.790116310119629 7.397371292114258 0.22028592228889465
5.733706474304199 7.389206886291504 0.21839162707328796
5.713071346282959 7.39424467086792 0.21797597408294678
5.6530632972717285 7.380615234375 0.21596507728099823
5.627156734466553 7.37846040725708 0.2149823158979416
5.581686973571777 7.383117198944092 0.2141004204750061
5.552868843078613 7.37677001953125 0.21301722526550293
5.531512260437012 7.381162166595459 0.21221444010734558
5.503955364227295 7.376238822937012 0.21143141388893127
5.461522102355957 7.384047985076904 0.21021056175231934
5.427224636077881 7.369616508483887 0.2091265618801117
5.38231086730957 7.373461723327637 0.20749804377555847
5.355342388153076 7.36857795715332 0.20671650767326355
5.308927536010742 7.369778633117676 0.20524516701698303
5.2786359786987305 7.359885215759277 0.20441941916942596
5.259992599487305 7.366678237915039 0.2037690281867981
5.239622116088867 7.37083625793457 0.2032141387462616
5.211337566375732 7.363916397094727 0.20218563079833984
5.187580108642578 7.363095283508301 0.20130115747451782
5.166256427764893 7.365243911743164 0.20108585059642792
5.136875152587891 7.356339931488037 0.1999792754650116
5.118288040161133 7.362618923187256 0.19932010769844055
5.084006309509277 7.346345901489258 0.19825533032417297
5.067283630371094 7.354752540588379 0.1976669430732727
5.040101051330566 7.348287582397461 0.19697612524032593
5.021430969238281 7.354302406311035 0.1965438723564148
4.999757289886475 7.355289459228516 0.1957322657108307
4.973237037658691 7.349431037902832 0.1949969232082367
4.954418182373047 7.355025291442871 0.19431228935718536
4.929401397705078 7.351161003112793 0.19371473789215088
4.902683258056641 7.344219207763672 0.19296890497207642
4.880661964416504 7.344761848449707 0.19215336441993713
4.85411262512207 7.338197708129883 0.19137638807296753
4.836833953857422 7.345730781555176 0.1907922625541687
4.810531139373779 7.338895797729492 0.19013169407844543
