VERSION .7
FIELDS x y z
SIZE 4 4 4
TYPE F F F
COUNT 1 1 1
WIDTH 833
HEIGHT 1
VIEWPOINT 0 0 0 1 0 0 0
POINTS 833
DATA ascii
6.416495323181152 5.674029350280762 -0.014056794345378876
6.407423973083496 5.68974494934082 -0.014063216745853424
6.3477020263671875 5.684704780578613 -0.013517306186258793
6.274082183837891 5.690253734588623 -0.013383915647864342
6.210424423217773 5.7040863037109375 -0.012809579260647297
6.13795804977417 5.709080696105957 -0.012273809872567654
6.071543216705322 5.719546318054199 -0.011704472824931145
5.995298862457275 5.719354629516602 -0.011120528914034367
5.936600685119629 5.735074043273926 -0.011028680019080639
5.858900547027588 5.731656074523926 -0.010348840616643429
5.814720153808594 5.736485958099365 -0.009865964762866497
5.7906880378723145 5.736609935760498 -0.009843920357525349
5.76414680480957 5.758546352386475 -0.009792502038180828
5.724343776702881 5.742637634277344 -0.009298049844801426
5.683022975921631 5.749408721923828 -0.009218858554959297
5.6754655838012695 5.765645503997803 -0.008784664794802666
5.642127990722656 5.756252765655518 -0.008750271052122116
5.621219158172607 5.758849143981934 -0.00873597152531147
5.597712993621826 5.7586259841918945 -0.008669398725032806
5.580252647399902 5.765254974365234 -0.008221380412578583
5.55248498916626 5.760439872741699 -0.008198091760277748
5.534793853759766 5.76598596572876 -0.00818863045424223
5.506653308868408 5.761254787445068 -0.007679508533328772
5.49251651763916 5.770390510559082 -0.007676135748624802
5.466091156005859 5.767177104949951 -0.007656039670109749
5.463761806488037 5.788803577423096 -0.007672247476875782
5.416592597961426 5.762739181518555 -0.007137046195566654
5.411430835723877 5.7818779945373535 -0.007146025076508522
5.39169979095459 5.784882068634033 -0.0071378047578036785
5.3787713050842285 5.7950758934021 -0.006702515762299299
5.345311164855957 5.783685684204102 -0.006577886641025543
5.339404582977295 5.801472187042236 -0.006586833856999874
5.305338382720947 5.788519859313965 -0.006509985309094191
5.280501842498779 5.78618860244751 -0.006065023131668568
5.262792110443115 5.790871620178223 -0.006057363469153643
5.238107204437256 5.7884345054626465 -0.006043522618710995
5.225244045257568 5.798431873321533 -0.005566868465393782
5.201668739318848 5.796412944793701 -0.005555021110922098
5.184432506561279 5.802021503448486 -0.0055492715910077095
5.169790267944336 5.809927940368652 -0.005121117923408747
5.155855178833008 5.818536758422852 -0.005072332918643951
5.126049041748047 5.809783935546875 -0.005053030792623758
5.092883110046387 5.821429252624512 -0.004620881751179695
5.075113296508789 5.825468063354492 -0.004568335134536028
5.024816989898682 5.817017555236816 -0.004121838603168726
4.975053787231445 5.8331379890441895 -0.0036444696597754955
4.867860794067383 5.830328464508057 -0.0030991281382739544
4.821241855621338 5.848841667175293 -0.0026318214368075132
4.757649898529053 5.846192359924316 -0.002155395457521081
4.737875461578369 5.846708297729492 -0.002152536064386368
4.707951545715332 5.835147857666016 -0.0020979363471269608
4.700363636016846 5.850544452667236 -0.001687237643636763
4.680059909820557 5.8501691818237305 -0.0016848706873133779
4.667273044586182 5.859729766845703 -0.0016838978044688702
4.6525492668151855 5.866257190704346 -0.0012287151766940951
4.623807430267334 5.85493278503418 -0.0012223095400258899
4.602318286895752 5.8533124923706055 -0.0012196870520710945
4.596314430236816 5.870784282684326 -0.0007685011951252818
4.573810577392578 5.867746829986572 -0.0007653507636860013
4.5465497970581055 5.857804775238037 -0.0007627591257914901
4.529707908630371 5.861250400543213 -0.00035510509042069316
4.518413066864014 5.872446537017822 -0.00031046057119965553
4.498931884765625 5.8723015785217285 -0.00030892033828422427
4.480597496032715 5.873652458190918 9.640894131734967e-05
4.466843128204346 5.8815598487854 0.00014052476035431027
4.448825359344482 5.883218765258789 0.00014153702068142593
4.424228668212891 5.8759989738464355 0.0001414483122061938
4.40993595123291 5.883052349090576 0.0005911822663620114
4.394299507141113 5.887686729431152 0.0005889604799449444
4.373393535614014 5.885789394378662 0.0005884732818230987
4.3486552238464355 5.877936363220215 0.0010333796963095665
4.342591762542725 5.8953657150268555 0.0010344444308429956
4.32064151763916 5.891806125640869 0.0010323845781385899
4.307563781738281 5.899683475494385 0.0014782926300540566
4.279489040374756 5.886844158172607 0.001472298870794475
4.269628047943115 5.899661064147949 0.0014726637164130807
4.251351356506348 5.900224208831787 0.0019156895577907562
4.245325088500977 5.9177141189575195 0.0019172364845871925
4.2189202308654785 5.907434463500977 0.0019113131565973163
4.199180603027344 5.905745506286621 0.0023067265283316374
4.172586917877197 5.89489221572876 0.0023441449739038944
4.167076587677002 5.913089752197266 0.002346861409023404
4.143836498260498 5.906181335449219 0.002736518858000636
4.129178524017334 5.912033557891846 0.0027798982337117195
4.099842548370361 5.896057605743408 0.0031625996343791485
4.085823059082031 5.9027581214904785 0.003161958884447813
4.07978630065918 5.920252323150635 0.0032086342107504606
4.040998935699463 5.917147636413574 0.003591983113437891
4.023634910583496 5.918054103851318 0.0036321484949439764
3.9839348793029785 5.913067817687988 0.004011024255305529
3.9709713459014893 5.920302391052246 0.004009524825960398
3.9365007877349854 5.9226765632629395 0.004433560650795698
3.926795482635498 5.934752941131592 0.004825736861675978
3.905971050262451 5.930771827697754 0.004859528969973326
3.890404462814331 5.9339070320129395 0.004855910781770945
3.8693621158599854 5.928606986999512 0.005234711803495884
3.858438491821289 5.9395527839660645 0.005279785022139549
3.837528705596924 5.934286117553711 0.005268390290439129
3.806144952774048 5.94047212600708 0.005690986290574074
3.7859549522399902 5.936042308807373 0.005678434856235981
3.755995750427246 5.944138050079346 0.006100841797888279
3.736064910888672 5.939937591552734 0.006473729852586985
3.7242939472198486 5.94930362701416 0.0064745196141302586
3.6995198726654053 5.937087059020996 0.0064962091855704784
3.6848554611206055 5.941067695617676 0.0068765664473176
3.674006700515747 5.951842308044434 0.006878656335175037
3.66477370262146 5.964541912078857 0.006926695350557566
3.6477057933807373 5.965295791625977 0.007302210200577974
3.635740280151367 5.973544597625732 0.007687231991440058
3.610872507095337 5.960502624511719 0.007660188712179661
3.6023032665252686 5.975122928619385 0.0077119083143770695
3.574807643890381 5.957440376281738 0.00806276872754097
3.568575859069824 5.975124359130859 0.008075322955846786
3.547872304916382 5.969389915466309 0.008100496605038643
3.5375545024871826 5.980251789093018 0.008486822247505188
3.5192296504974365 5.977631568908691 0.008472910150885582
3.4989030361175537 5.972166061401367 0.008877790533006191
3.4768919944763184 5.9629316329956055 0.008852235972881317
3.468285083770752 5.976724147796631 0.00886212196201086
3.444770336151123 5.965436935424805 0.009255846031010151
3.43796706199646 5.982288837432861 0.009268604218959808
3.421828508377075 5.983758449554443 0.00926065631210804
3.4124815464019775 5.996255397796631 0.00968991219997406
3.385566473007202 5.977784156799316 0.00965040922164917
3.3750205039978027 5.988963603973389 0.010032295249402523
3.3562448024749756 5.984648704528809 0.010055850259959698
3.339968681335449 5.984703063964844 0.010045301169157028
3.3221325874328613 5.98274040222168 0.01040425430983305
3.314493179321289 5.9982781410217285 0.010461771860718727
3.2961437702178955 5.9952898025512695 0.010444258339703083
3.2850873470306396 6.00466251373291 0.010823940858244896
3.263476848602295 5.9946722984313965 0.011209897696971893
3.243065357208252 5.987602233886719 0.01118474267423153
3.222797393798828 5.9797797203063965 0.011529435403645039
18.867719650268555 1.9156500101089478 -0.06921470165252686
18.810110092163086 2.0293498039245605 -0.07020342350006104
18.794755935668945 2.1473066806793213 -0.07123208791017532
18.75362777709961 2.2226572036743164 -0.07111068814992905
18.736413955688477 2.26005482673645 -0.07106322795152664
18.16248321533203 3.7567903995513916 -0.07198691368103027
18.104938507080078 3.863731861114502 -0.07185370475053787
18.069133758544922 3.9750194549560547 -0.0707954466342926
18.040821075439453 4.048520088195801 -0.07086597383022308
18.030731201171875 4.085575103759766 -0.07187282294034958
18.012359619140625 4.1612420082092285 -0.07186898589134216
18.00315284729004 4.198488235473633 -0.07186707109212875
17.9497013092041 4.265806198120117 -0.07172495871782303
17.928796768188477 4.300164699554443 -0.07167626917362213
17.91005516052246 4.37551736831665 -0.07167498767375946
17.89593505859375 4.491471767425537 -0.07172989845275879
17.72669219970703 4.56764554977417 -0.07116615772247314
15.086740493774414 4.848701477050781 -0.0608363002538681
14.843718528747559 4.873762607574463 -0.05902516469359398
14.602213859558105 4.896373271942139 -0.058185871690511703
14.367136001586914 4.918237686157227 -0.057371266186237335
14.307820320129395 4.931126594543457 -0.05717521160840988
14.225753784179688 4.9368672370910645 -0.056889280676841736
14.13671875 4.938862323760986 -0.05657413601875305
14.090526580810547 4.955557823181152 -0.05643037334084511
13.986071586608887 4.952419281005859 -0.05605415999889374
13.932291030883789 4.965937614440918 -0.055879879742860794
13.853974342346191 4.970448970794678 -0.05560687184333801
13.798623085021973 4.983887672424316 -0.055427469313144684
13.726683616638184 4.990129470825195 -0.05518003925681114
13.578093528747559 5.000951766967773 -0.05475645512342453
13.508674621582031 5.00724458694458 -0.05442915856838226
13.3036527633667 5.0265984535217285 -0.05381733924150467
13.097418785095215 5.043087959289551 -0.05225376412272453
12.913508415222168 5.065720558166504 -0.05164606496691704
11.360212326049805 5.216561317443848 -0.04524775967001915
11.306716918945312 5.221187591552734 -0.045001912862062454
11.203842163085938 5.23029088973999 -0.04467865079641342
11.151603698730469 5.234864234924316 -0.044590555131435394
11.035447120666504 5.236424446105957 -0.044137611985206604
10.996053695678711 5.246456623077393 -0.04402443766593933
10.878886222839355 5.246911525726318 -0.04364385828375816
10.848870277404785 5.260213851928711 -0.04356687515974045
10.797167778015137 5.262929916381836 -0.04340316355228424
10.742794036865234 5.264774322509766 -0.04322965070605278
10.697786331176758 5.270277500152588 -0.04309239611029625
10.654296875 5.276437759399414 -0.042961180210113525
10.607372283935547 5.281364917755127 -0.042817372828722
10.555076599121094 5.28277063369751 -0.04135563224554062
10.508806228637695 5.2869110107421875 -0.041217364370822906
10.46871280670166 5.294713973999023 -0.0411764495074749
10.412629127502441 5.293593406677246 -0.04099951684474945
10.37353801727295 5.300839900970459 -0.040887944400310516
10.311898231506348 5.2970733642578125 -0.04069013521075249
10.276748657226562 5.306079387664795 -0.040594857186079025
10.175712585449219 5.308229446411133 -0.04028389975428581
10.144194602966309 5.3186774253845215 -0.040202170610427856
9.260741233825684 5.388416767120361 -0.037018243223428726
9.162886619567871 5.408868789672852 -0.03676161170005798
9.049110412597656 5.418704986572266 -0.03644135594367981
8.964576721191406 5.419506072998047 -0.03619253635406494
8.926752090454102 5.421966552734375 -0.03608547896146774
8.852892875671387 5.428274631500244 -0.03587927669286728
8.827567100524902 5.437984466552734 -0.03582152724266052
8.738201141357422 5.433830738067627 -0.03555271774530411
8.703710556030273 5.43812370300293 -0.035396043211221695
8.637426376342773 5.44675874710083 -0.03521772474050522
8.603192329406738 5.450817108154297 -0.034565914422273636
8.584285736083984 5.4639105796813965 -0.034535281360149384
8.541380882263184 5.461540699005127 -0.03447099030017853
8.501157760620117 5.461367130279541 -0.03435561805963516
8.478602409362793 5.471841812133789 -0.03430972620844841
8.44001293182373 5.471778869628906 -0.034200116991996765
8.410380363464355 5.478120803833008 -0.03412704914808273
8.383279800415039 5.485280990600586 -0.03406282886862755
8.341547012329102 5.482729434967041 -0.03393982723355293
8.315674781799316 5.491199016571045 -0.033882178366184235
8.267520904541016 5.484072685241699 -0.03373241052031517
8.203594207763672 5.491558074951172 -0.03356566280126572
8.163857460021973 5.48952579498291 -0.03344963863492012
8.089789390563965 5.489335060119629 -0.03324145823717117
8.065095901489258 5.49705696105957 -0.033186063170433044
8.002958297729492 5.504207611083984 -0.032966114580631256
7.97523832321167 5.509557723999023 -0.03289831429719925
7.900345802307129 5.507113933563232 -0.03268567472696304
7.86207914352417 5.504717826843262 -0.03257438540458679
7.807380199432373 5.515563488006592 -0.032443661242723465
7.441723346710205 5.543611526489258 -0.031494881957769394
7.359190464019775 5.554407596588135 -0.031292203813791275
7.28485631942749 5.57053279876709 -0.031124550849199295
7.188148498535156 5.568542003631592 -0.0303055252879858
7.162297248840332 5.5723371505737305 -0.030245140194892883
7.1266632080078125 5.569092750549316 -0.030145132914185524
7.110256195068359 5.580076694488525 -0.03061983734369278
7.088316917419434 5.586667060852051 -0.030574684962630272
7.059010982513428 5.588057994842529 -0.030555473640561104
7.024648189544678 5.584606647491455 -0.030457470566034317
7.001019477844238 5.589572429656982 -0.03040492907166481
6.981138706207275 5.598160743713379 -0.030370408669114113
6.931636810302734 5.582139015197754 -0.03015102446079254
6.921877861022949 5.597999572753906 -0.03015895187854767
6.900852203369141 5.60542106628418 -0.030118728056550026
6.861154556274414 5.596848487854004 -0.029996413737535477
6.834726333618164 5.599648475646973 -0.029933597892522812
6.809328079223633 5.602496147155762 -0.02987322211265564
6.794271469116211 5.613792419433594 -0.029857665300369263
6.760284423828125 5.610054016113281 -0.029761044308543205
6.725170135498047 5.604522228240967 -0.029657861217856407
6.716298580169678 5.620857238769531 -0.029669126495718956
6.671957969665527 5.60795783996582 -0.029527025297284126
6.659701347351074 5.621280670166016 -0.029523856937885284
6.634613990783691 5.624420166015625 -0.029465295374393463
6.609727382659912 5.6269378662109375 -0.028931105509400368
6.581192970275879 5.6262431144714355 -0.028856387361884117
6.554959297180176 5.6280975341796875 -0.028794607147574425
6.527455806732178 5.628056049346924 -0.0287249106913805
6.509098529815674 5.635820388793945 -0.02869552932679653
6.48043155670166 5.635265827178955 -0.029040861874818802
6.448922634124756 5.631411075592041 -0.028952203691005707
6.426799297332764 5.635712146759033 -0.028904644772410393
6.373167991638184 5.636268138885498 -0.028770197182893753
6.2955427169799805 5.638545989990234 -0.02857910841703415
6.231742858886719 5.652407646179199 -0.028450235724449158
6.158989429473877 5.657467365264893 -0.028279844671487808
6.076261520385742 5.652316570281982 -0.02755638211965561
6.031340599060059 5.658097267150879 -0.027460580691695213
6.002554416656494 5.655179023742676 -0.027384350076317787
5.949183464050293 5.651756763458252 -0.02724837325513363
5.947350025177002 5.674165725708008 -0.027294833213090897
5.8966827392578125 5.672831058502197 -0.027619032189249992
5.870215892791748 5.6714959144592285 -0.027551956474781036
5.823573112487793 5.674044609069824 -0.027444638311862946
5.789546966552734 5.6643595695495605 -0.027340048924088478
5.781317234039307 5.679906845092773 -0.027357054874300957
5.753077507019043 5.676296234130859 -0.02727990597486496
5.728309631347656 5.675366401672363 -0.027218779549002647
5.719091415405273 5.689869403839111 -0.02723090909421444
5.698685646057129 5.6937737464904785 -0.027191441506147385
5.674706935882568 5.69339656829834 -0.02664264664053917
5.650981426239014 5.693243503570557 -0.026586996391415596
5.6289801597595215 5.695289611816406 -0.026540078222751617
5.59670352935791 5.686184883117676 -0.026444222778081894
5.575669288635254 5.68907356262207 -0.026402004063129425
5.569464206695557 5.706383228302002 -0.02642807364463806
5.5498199462890625 5.709983825683594 -0.026391373947262764
5.5129852294921875 5.696312427520752 -0.026274243369698524
5.495100498199463 5.701461315155029 -0.02624518796801567
5.480141639709473 5.709677219390869 -0.02623031660914421
5.4544572830200195 5.707201957702637 -0.026165589690208435
5.429391384124756 5.7046990394592285 -0.026102399453520775
5.411772727966309 5.709866523742676 -0.026074225082993507
5.3973846435546875 5.719035625457764 -0.025583475828170776
5.367199420928955 5.710817813873291 -0.025926977396011353
5.361079216003418 5.728078842163086 -0.025954868644475937
5.3325042724609375 5.721928596496582 -0.025875039398670197
5.305253505706787 5.716497421264648 -0.025800909847021103
5.287049770355225 5.721275329589844 -0.02577158249914646
5.269293308258057 5.725854396820068 -0.025742799043655396
5.248228073120117 5.726839065551758 -0.0256981048732996
5.226081848144531 5.727116584777832 -0.025649437680840492
5.207408428192139 5.730562686920166 -0.025616005063056946
5.193352222442627 5.738977432250977 -0.025605197995901108
5.159995079040527 5.72658634185791 -0.025501107797026634
5.142791271209717 5.731436252593994 -0.02542768232524395
5.113833427429199 5.7476067543029785 -0.02498108148574829
5.0884833335876465 5.743139743804932 -0.024915911257267
5.024130344390869 5.742842674255371 -0.02477712742984295
4.991214752197266 5.753936767578125 -0.024734102189540863
4.96338415145874 5.745899677276611 -0.024655239656567574
4.919504165649414 5.743823051452637 -0.024510744959115982
4.865907192230225 5.75407075881958 -0.024423427879810333
4.83109712600708 5.761949062347412 -0.024370167404413223
4.80590295791626 5.756119728088379 -0.024303417652845383
4.759888648986816 5.750058650970459 -0.023783478885889053
4.74753999710083 5.759430885314941 -0.023781374096870422
4.705301761627197 5.757421493530273 -0.023690935224294662
4.685892105102539 5.758016109466553 -0.02360766939818859
4.671335220336914 5.765169620513916 -0.023596055805683136
4.657904624938965 5.773118019104004 -0.02358892187476158
4.633523941040039 5.767997741699219 -0.023527486249804497
4.616433143615723 5.771285057067871 -0.023501701653003693
4.601542949676514 5.777205944061279 -0.023486889898777008
4.580775737762451 5.776336669921875 -0.02303900569677353
4.5689520835876465 5.786124229431152 -0.023039991036057472
4.549642562866211 5.786318302154541 -0.023003004491329193
4.52957010269165 5.786113262176514 -0.022964170202612877
4.502633094787598 5.776434421539307 -0.022843411192297935
4.498403072357178 5.79642915725708 -0.02288433536887169
4.464798450469971 5.777841567993164 -0.022774387151002884
4.457315921783447 5.7930402755737305 -0.022797642275691032
4.428744316101074 5.781344413757324 -0.02271451987326145
4.4208292961120605 5.795961856842041 -0.022735707461833954
4.403650760650635 5.79835319519043 -0.022709140554070473
4.38513708114624 5.799583435058594 -0.022278349846601486
4.371348857879639 5.806429386138916 -0.022269494831562042
4.3471999168396 5.799359321594238 -0.02220790833234787
4.333075523376465 5.806321144104004 -0.02215440571308136
4.313821315765381 5.8056159019470215 -0.02211746573448181
4.2924065589904785 5.802573204040527 -0.022071093320846558
4.282732009887695 5.814769744873047 -0.022083448246121407
4.251733303070068 5.797839641571045 -0.02198566310107708
4.2425923347473145 5.8112921714782715 -0.022002266719937325
4.231490612030029 5.8214898109436035 -0.02161237597465515
4.201669216156006 5.805757522583008 -0.021521635353565216
4.187408924102783 5.812078952789307 -0.021511951461434364
4.170909881591797 5.8146586418151855 -0.02144540101289749
4.150362014770508 5.811437129974365 -0.021401671692728996
4.1332011222839355 5.813627243041992 -0.021377205848693848
4.118144512176514 5.817977428436279 -0.02136162295937538
4.105809211730957 5.826151371002197 -0.021360309794545174
4.081957817077637 5.81866455078125 -0.021300891414284706
4.0652265548706055 5.820468902587891 -0.0212766844779253
4.037096977233887 5.832363605499268 -0.020868271589279175
4.01028299331665 5.819394111633301 -0.02074880339205265
3.9739935398101807 5.819032669067383 -0.020731056109070778
3.9547815322875977 5.816782474517822 -0.020650355145335197
3.9434258937835693 5.826813697814941 -0.02026980370283127
3.9300990104675293 5.833162784576416 -0.02026350423693657
3.8960540294647217 5.835517406463623 -0.020214645192027092
3.872628927230835 5.826578140258789 -0.02015594206750393
3.86236834526062 5.8381547927856445 -0.020166926085948944
3.8449325561523438 5.83809232711792 -0.02013930305838585
3.821451187133789 5.828734397888184 -0.0200798436999321
3.8036723136901855 5.828734397888184 -0.019627131521701813
3.7961363792419434 5.843647480010986 -0.019650546833872795
3.77703857421875 5.840744972229004 -0.019614294171333313
3.7598812580108643 5.8415422439575195 -0.019590159878134727
3.7509052753448486 5.8542561531066895 -0.01960643194615841
3.7237229347229004 5.838468551635742 -0.01952783763408661
3.7104012966156006 5.845085144042969 -0.019523294642567635
3.6961917877197266 5.849493503570557 -0.019512414932250977
3.676738739013672 5.84632682800293 -0.01943291164934635
3.660353422164917 5.84716272354126 -0.019031835719943047
3.6377382278442383 5.8379387855529785 -0.018977569416165352
3.620434045791626 5.837916374206543 -0.018952328711748123
3.601684808731079 5.834681510925293 -0.018917638808488846
3.5984487533569336 5.856595516204834 -0.018963884562253952
3.574929714202881 5.8462815284729 -0.018529804423451424
3.568258047103882 5.862671375274658 -0.018558084964752197
3.55206298828125 5.8634257316589355 -0.018537189811468124
3.5268640518188477 5.849992275238037 -0.018471000716090202
3.5133562088012695 5.855031490325928 -0.018463658168911934
3.502007007598877 5.864476680755615 -0.018427880480885506
3.4785337448120117 5.852725982666016 -0.018368404358625412
3.470498561859131 5.8668928146362305 -0.018389906734228134
3.4464902877807617 5.854813575744629 -0.017956076189875603
3.4345550537109375 5.862331867218018 -0.017957229167222977
3.415215492248535 5.8571553230285645 -0.01791977509856224
3.3922600746154785 5.8464531898498535 -0.017865058034658432
3.384293794631958 5.8607072830200195 -0.017886999994516373
19.5461368560791 -0.6052896976470947 -0.06576912105083466
19.523635864257812 -0.2767200767993927 -0.06673813611268997
23.42896842956543 0.30574268102645874 0.11140325665473938
22.45233917236328 2.755565881729126 0.10231111198663712
22.399051666259766 2.892073392868042 0.10091152787208557
22.32524299621582 3.0253512859344482 0.10066268593072891
22.198894500732422 3.245901107788086 0.09901189804077148
22.17411231994629 3.3847908973693848 0.0989941880106926
22.10008430480957 3.515801429748535 0.09876072406768799
20.76318359375 4.979983806610107 0.09175799041986465
20.64101219177246 4.996002197265625 0.09126346558332443
20.328655242919922 5.011119365692139 0.0911228358745575
20.19386863708496 5.022369861602783 0.09043551981449127
19.90335464477539 5.039216995239258 0.08922888338565826
19.81100845336914 5.059606075286865 0.08886129409074783
19.542200088500977 5.0787177085876465 0.08664368093013763
19.39883041381836 5.084456920623779 0.08605484664440155
19.15409278869629 5.106614112854004 0.08506406843662262
19.031911849975586 5.116366386413574 0.08456846326589584
18.799823760986328 5.138965129852295 0.08363255858421326
18.4306583404541 5.16279411315918 0.08213305473327637
15.371479034423828 5.406060695648193 0.07081429660320282
15.109986305236816 5.4210734367370605 0.0706455409526825
14.866973876953125 5.439620494842529 0.06966793537139893
14.720037460327148 5.456259250640869 0.06908618658781052
14.631059646606445 5.4578375816345215 0.0687216967344284
14.502488136291504 5.479561805725098 0.06822545826435089
14.40112018585205 5.47544002532959 0.0678020492196083
14.265754699707031 5.492847919464111 0.06727290153503418
14.161346435546875 5.486417770385742 0.06683425605297089
14.090760231018066 5.492728233337402 0.0665547177195549
14.0205659866333 5.499897003173828 0.06627856194972992
13.948845863342285 5.505191326141357 0.06599332392215729
13.800800323486328 5.5140485763549805 0.06540217995643616
13.728497505187988 5.518225193023682 0.0651135966181755
13.584992408752441 5.527112007141113 0.06454283744096756
13.5234956741333 5.534827709197998 0.0643051341176033
13.317307472229004 5.5484395027160645 0.0650717094540596
13.107405662536621 5.558042049407959 0.06421560794115067
11.50256061553955 5.665966033935547 0.05924137681722641
11.346023559570312 5.677770614624023 0.05861778184771538
11.290369033813477 5.680023193359375 0.0583927258849144
11.247563362121582 5.687854290008545 0.058232441544532776
11.176501274108887 5.681074142456055 0.05792524293065071
11.12924575805664 5.686917304992676 0.05774291604757309
11.067193984985352 5.684289932250977 0.05748230591416359
11.015267372131348 5.687304496765137 0.0572756789624691
10.973749160766602 5.694742202758789 0.05712059885263443
10.930559158325195 5.701237678527832 0.05695781856775284
10.885336875915527 5.707178592681885 0.05678582563996315
10.835333824157715 5.709659576416016 0.05658643692731857
10.776921272277832 5.707569599151611 0.056342996656894684
10.720549583435059 5.706988334655762 0.056112028658390045
10.67676830291748 5.71223258972168 0.055944979190826416
10.57721996307373 5.716314315795898 0.056208427995443344
10.531386375427246 5.719897747039795 0.056027792394161224
10.434621810913086 5.724297523498535 0.05564020201563835
10.386329650878906 5.725960731506348 0.05544654279947281
10.295963287353516 5.732729911804199 0.055092621594667435
10.25522518157959 5.738041877746582 0.0549384243786335
10.158666610717773 5.740323066711426 0.05454989895224571
10.027355194091797 5.749588489532471 0.05403832346200943
9.098335266113281 5.790323257446289 0.051601067185401917
9.020326614379883 5.794196128845215 0.051297347992658615
8.9884033203125 5.800074577331543 0.05118429288268089
8.922667503356934 5.811025619506836 0.050949305295944214
8.865827560424805 5.80024528503418 0.05069199576973915
8.804238319396973 5.813047409057617 0.05048089474439621
8.76009464263916 5.810731887817383 0.05029758810997009
8.735743522644043 5.820798873901367 0.05022764950990677
8.6986722946167 5.82219934463501 0.050085071474313736
8.643771171569824 5.812150478363037 0.04983849078416824
8.61823558807373 5.8210649490356445 0.04976142942905426
8.579534530639648 5.820887565612793 0.04960733652114868
8.55262565612793 5.829272747039795 0.04952381178736687
8.51063060760498 5.826630115509033 0.04935125634074211
8.475993156433105 5.828786373138428 0.04921905696392059
8.441573143005371 5.831639766693115 0.049091801047325134
8.402411460876465 5.830458164215088 0.048935048282146454
8.363868713378906 5.829463958740234 0.048780106008052826
8.334894180297852 5.835764408111572 0.04868384078145027
8.311975479125977 5.845458984375 0.048621200025081635
8.270567893981934 5.842708110809326 0.04845200106501579
8.243874549865723 5.849610328674316 0.04892130196094513
8.211578369140625 5.852352142333984 0.04880154877901077
8.143328666687012 5.855581760406494 0.04854229465126991
8.106124877929688 5.854387283325195 0.04839269816875458
8.038052558898926 5.856889724731445 0.04813281074166298
7.955872058868408 5.873933792114258 0.047861456871032715
7.850831031799316 5.872995853424072 0.04751143977046013
7.756843090057373 5.879100322723389 0.047165416181087494
7.665803909301758 5.8863396644592285 0.04683581739664078
7.478413105010986 5.894121170043945 0.04614175111055374
7.390378952026367 5.900434970855713 0.04582696780562401
7.310880661010742 5.912602424621582 0.04556380957365036
7.214047431945801 5.909688472747803 0.045190244913101196
7.152062892913818 5.90941858291626 0.04501435160636902
7.120638847351074 5.908361911773682 0.04489363729953766
7.098936080932617 5.915270805358887 0.044834788888692856
7.0748677253723145 5.920869827270508 0.04476336017251015
7.034043312072754 5.911567211151123 0.044524870812892914
7.014786243438721 5.9209980964660645 0.04448353126645088
6.996151447296143 5.93017578125 0.04444330930709839
6.960776329040527 5.9250569343566895 0.0442967526614666
6.917651176452637 5.913880348205566 0.044157497584819794
6.89747428894043 5.921450138092041 0.04410802200436592
6.87689208984375 5.92861270904541 0.04405476152896881
6.850601673126221 5.931507110595703 0.043967798352241516
6.837944507598877 5.945420265197754 0.04396577551960945
6.792591571807861 5.930784225463867 0.04375256970524788
6.7862067222595215 5.950806140899658 0.04379408061504364
6.737865447998047 5.933194637298584 0.04356103017926216
6.718371391296387 5.9409003257751465 0.043514709919691086
6.690131187438965 5.941369533538818 0.04341362044215202
6.660900115966797 5.940179824829102 0.043303608894348145
6.638734817504883 5.9459228515625 0.04324224963784218
6.6086506843566895 5.943739414215088 0.043126318603754044
6.587650299072266 5.94962739944458 0.043557360768318176
6.550446510314941 5.9414825439453125 0.04339481517672539
6.534806728363037 5.952062129974365 0.04337368905544281
6.500946044921875 5.945950031280518 0.04328400641679764
6.475280284881592 5.947929382324219 0.04319782182574272
6.450775146484375 5.950148582458496 0.04263511300086975
6.417085647583008 5.943841457366943 0.04249389469623566
6.413875579833984 5.966301441192627 0.04255713149905205
6.383310794830322 5.9626264572143555 0.04243670403957367
6.294183254241943 5.9539794921875 0.04209207370877266
6.218804836273193 5.957198143005371 0.04183709993958473
6.029289245605469 5.9729084968566895 0.041749220341444016
5.964434623718262 5.983421325683594 0.0415600910782814
5.86833381652832 5.9615044593811035 0.04114992171525955
5.8718390464782715 5.990536689758301 0.040804456919431686
5.811439037322998 5.979079246520996 0.04055863991379738
5.789199352264404 5.980981826782227 0.040490154176950455
5.76915979385376 5.9851555824279785 0.04043722525238991
5.740359783172607 5.980720520019531 0.04032435640692711
5.728036403656006 5.992724895477295 0.040325116366147995
5.705295085906982 5.993859767913818 0.04075796157121658
5.678471088409424 5.99118185043335 0.04065755382180214
5.657255172729492 5.993659496307373 0.04059422388672829
5.636540412902832 5.996668338775635 0.0405350998044014
5.601465225219727 5.984846115112305 0.04037446528673172
5.580790042877197 5.987687587738037 0.04031519219279289
5.560189723968506 5.991121292114258 0.04025823995471001
5.560247898101807 6.016174793243408 0.04034996032714844
5.518927574157715 5.996457099914551 0.04014002904295921
5.512965679168701 6.0156450271606445 0.040189966559410095
5.478154182434082 6.002619743347168 0.04002692550420761
5.45772123336792 6.00528621673584 0.03996872156858444
5.435085296630859 6.006032943725586 0.0399465411901474
5.413197040557861 6.0068535804748535 0.04032086580991745
5.388335227966309 6.005010604858398 0.040231168270111084
5.369134426116943 6.008651256561279 0.0401805154979229
5.348137378692627 6.010283470153809 0.04011724144220352
5.3347249031066895 6.020987510681152 0.03967130556702614
5.306017875671387 6.013683795928955 0.039550527930259705
5.294391632080078 6.025739669799805 0.03955730050802231
5.266176223754883 6.01943826675415 0.039442189037799835
5.254393577575684 6.031180381774902 0.039447635412216187
5.224132537841797 6.02170467376709 0.039314527064561844
5.1971588134765625 6.01645565032959 0.03920774534344673
5.178977012634277 6.020693302154541 0.03921389579772949
5.151540756225586 6.013997554779053 0.03953507915139198
5.136607646942139 6.022481441497803 0.03951894864439964
5.1107096672058105 6.017438888549805 0.039415907114744186
5.081756114959717 6.034598350524902 0.039388034492731094
5.050222396850586 6.022547721862793 0.039240628480911255
5.007678985595703 6.023154258728027 0.03910673037171364
4.997777938842773 6.036684036254883 0.039127349853515625
4.960753917694092 6.0435991287231445 0.03908456116914749
4.927995204925537 6.029158592224121 0.039352212101221085
4.8887248039245605 6.032785892486572 0.039241205900907516
4.830673694610596 6.038363456726074 0.038654666393995285
4.790978908538818 6.040722846984863 0.03896338865160942
4.770938873291016 6.041162490844727 0.0389024056494236
4.731773853302002 6.043726444244385 0.03883752226829529
4.716469764709473 6.05068826675415 0.03881765156984329
4.671387672424316 6.044501781463623 0.0386529266834259
4.652575492858887 6.046736240386963 0.0386037677526474
4.604069709777832 6.035435676574707 0.038825493305921555
4.592118740081787 6.0464348793029785 0.03883323073387146
4.5730204582214355 6.047379493713379 0.038778383284807205
4.565856456756592 6.064023017883301 0.03882450982928276
4.540564060211182 6.05723762512207 0.03876543045043945
4.521288871765137 6.0577545166015625 0.038708414882421494
4.506040573120117 6.063534259796143 0.03868555650115013
4.488250255584717 6.066621780395508 0.03864409029483795
4.462266445159912 6.057753086090088 0.03852838650345802
4.442156791687012 6.057431697845459 0.038878001272678375
4.422868728637695 6.057527542114258 0.03881961852312088
4.411546230316162 6.068423271179199 0.03883085772395134
4.381038665771484 6.053526878356934 0.038675568997859955
4.373650550842285 6.069877624511719 0.0387679748237133
4.351053237915039 6.065013408660889 0.038679175078868866
4.333261966705322 6.0674591064453125 0.038635753095149994
4.3135175704956055 6.066471099853516 0.0385722741484642
4.3008623123168945 6.075328826904297 0.03857177123427391
4.275052547454834 6.06630802154541 0.03845636919140816
4.262786388397217 6.075639247894287 0.03845943883061409
4.236288547515869 6.065310955047607 0.03874283656477928
4.23013162612915 6.083428859710693 0.03880239278078079
4.203425407409668 6.071866512298584 0.0386727899312973
4.184875965118408 6.07266902923584 0.038666389882564545
4.165041923522949 6.070892810821533 0.038599852472543716
4.153316020965576 6.080812454223633 0.03860804811120033
4.132636070251465 6.07829475402832 0.038536135107278824
4.1215500831604 6.089210033416748 0.03855084627866745
4.094332218170166 6.076841354370117 0.03841719776391983
4.0809478759765625 6.08426570892334 0.03881257027387619
4.061897277832031 6.083113670349121 0.03875145688652992
4.030331134796143 6.091231346130371 0.038739513605833054
4.004164218902588 6.07905912399292 0.03860907629132271
3.9735758304595947 6.088282108306885 0.03856104239821434
3.9534411430358887 6.084983825683594 0.03848816454410553
3.9320619106292725 6.080470561981201 0.03880356624722481
3.910867691040039 6.075307846069336 0.038718461990356445
3.9087111949920654 6.099732398986816 0.03882276639342308
3.883826732635498 6.089496612548828 0.03870483860373497
3.864617347717285 6.087203502655029 0.03863904997706413
3.835942029953003 6.098647594451904 0.038653235882520676
3.806739091873169 6.080178737640381 0.038879502564668655
3.7753772735595703 6.086931228637695 0.03882094845175743
3.760817766189575 6.091643333435059 0.038801006972789764
3.7444097995758057 6.094151973724365 0.038765933364629745
3.72830867767334 6.096273899078369 0.038729939609766006
3.705399990081787 6.087160110473633 0.03862328454852104
3.696087121963501 6.101167678833008 0.038705844432115555
3.6767964363098145 6.097842693328857 0.03902699425816536
3.6675796508789062 6.111200332641602 0.03906402364373207
3.631516695022583 6.080511569976807 0.03881785273551941
3.626662254333496 6.101108551025391 0.038901228457689285
3.602350950241089 6.089704513549805 0.038779366761446
3.600484848022461 6.1155619621276855 0.03889653459191322
3.57523775100708 6.101604461669922 0.03880394995212555
3.5590720176696777 6.103872299194336 0.0387699194252491
3.5381879806518555 6.097097873687744 0.039066918194293976
3.5327658653259277 6.116960048675537 0.03914720565080643
3.507706880569458 6.103640079498291 0.039013978093862534
3.4978291988372803 6.115795612335205 0.03904532641172409
3.476168155670166 6.108161926269531 0.03894920274615288
3.468273401260376 6.123816967010498 0.03938934579491615
3.440058946609497 6.1035027503967285 0.03921196982264519
3.43146014213562 6.118768215179443 0.039263248443603516
3.4131124019622803 6.11576509475708 0.0391986221075058
3.3965818881988525 6.115935325622559 0.03919714689254761
3.381326675415039 6.119228363037109 0.039172228425741196
3.3633196353912354 6.11659049987793 0.039110444486141205
3.345146417617798 6.113554954528809 0.03904655575752258
3.3292078971862793 6.115413188934326 0.03939492255449295
3.3096067905426025 6.1095662117004395 0.039312694221735
3.2941930294036865 6.112252235412598 0.03928482159972191
20.330198287963867 0.008562023751437664 -0.03176530823111534
20.330875396728516 0.05199401080608368 -0.03176550194621086
20.315778732299805 0.09411497414112091 -0.03174333646893501
20.297584533691406 0.13627733290195465 -0.031714752316474915
20.27622413635254 0.17932769656181335 -0.03279569745063782
20.287410736083984 0.26487600803375244 -0.032814815640449524
20.259864807128906 0.3486219644546509 -0.03277314454317093
20.263402938842773 0.3919847011566162 -0.03277939185500145
20.30754280090332 0.4349983334541321 -0.03285161405801773
20.19809341430664 0.6868075132369995 -0.03281066566705704
20.13577651977539 0.7695996165275574 -0.03824944794178009
20.002717971801758 0.8904790878295898 -0.03800661116838455
19.92317771911621 1.0124725103378296 -0.038962721824645996
19.901403427124023 1.0527760982513428 -0.03892432898283005
19.85599708557129 1.1342495679855347 -0.0388445183634758
19.793781280517578 1.2555841207504272 -0.038737475872039795
19.726783752441406 1.3771092891693115 -0.038622692227363586
19.681800842285156 1.4983601570129395 -0.03867281228303909
19.637479782104492 1.6192162036895752 -0.03968731313943863
19.58038330078125 1.7385056018829346 -0.04391264542937279
19.562124252319336 1.8199498653411865 -0.04388825222849846
19.5439453125 1.859175205230713 -0.04385683313012123
19.515356063842773 1.9394203424453735 -0.04381006956100464
19.488876342773438 1.9776400327682495 -0.04375949874520302
19.46466827392578 2.016000986099243 -0.04371367394924164
19.446407318115234 2.0561065673828125 -0.04475735127925873
19.44202423095703 2.096449375152588 -0.04475720599293709
19.424665451049805 2.1353654861450195 -0.04472764581441879
19.406879425048828 2.1753787994384766 -0.044697582721710205
19.381956100463867 2.2133212089538574 -0.04465039446949959
19.34758186340332 2.2919795513153076 -0.044593360275030136
19.32996368408203 2.3305788040161133 -0.04456373304128647
19.31593132019043 2.370760917663574 -0.04454270377755165
19.299583435058594 2.4094183444976807 -0.044635109603405
19.2719783782959 2.44671893119812 -0.04458295553922653
19.26691436767578 2.487790107727051 -0.04458341374993324
19.250335693359375 2.5262739658355713 -0.044557079672813416
19.242813110351562 2.5671141147613525 -0.04455224424600601
19.205341339111328 2.6026899814605713 -0.04447793588042259
19.199024200439453 2.6424193382263184 -0.044475898146629333
19.172136306762695 2.680462598800659 -0.04867959022521973
19.144441604614258 2.7171077728271484 -0.04862342029809952
19.12871551513672 2.755382776260376 -0.04859742894768715
19.122220993041992 2.7961575984954834 -0.048596568405628204
19.101688385009766 2.8336548805236816 -0.04855964332818985
19.077342987060547 2.8706350326538086 -0.04851190000772476
19.059843063354492 2.909533977508545 -0.048483047634363174
19.018497467041016 2.943622589111328 -0.048392701894044876
19.001806259155273 2.9815478324890137 -0.048366520553827286
18.982995986938477 3.0200421810150146 -0.04833485558629036
18.954631805419922 3.055873155593872 -0.04827873781323433
18.90044403076172 3.169170618057251 -0.04936018958687782
18.824569702148438 3.2782483100891113 -0.04921437427401543
18.79269027709961 3.3946759700775146 -0.04918539896607399
18.71894073486328 3.5846712589263916 -0.05013542249798775
18.652990341186523 3.694819450378418 -0.05002029240131378
18.58823013305664 3.80358624458313 -0.0499078594148159
18.57752799987793 3.8415801525115967 -0.0499020554125309
18.528881072998047 3.912961006164551 -0.04981403425335884
18.509807586669922 3.949075937271118 -0.049784768372774124
18.51331329345703 3.9901275634765625 -0.04981639236211777
18.49310874938965 4.027014255523682 -0.04978497698903084
18.47345733642578 4.062906742095947 -0.04975469410419464
18.452178955078125 4.098508358001709 -0.04972081258893013
18.444726943969727 4.1381001472473145 -0.050761301070451736
18.41295623779297 4.171124458312988 -0.05069747567176819
18.394275665283203 4.208224773406982 -0.05078567564487457
18.38145637512207 4.245452404022217 -0.05077486112713814
18.36466407775879 4.281735897064209 -0.05075307562947273
18.314754486083984 4.311371803283691 -0.050639450550079346
18.3117733001709 4.350795269012451 -0.050656504929065704
18.302671432495117 4.38889741897583 -0.05065697431564331
18.23150634765625 4.41292142868042 -0.050482701510190964
18.25216293334961 4.458037376403809 -0.049536604434251785
18.253097534179688 4.498542308807373 -0.04945036768913269
18.233905792236328 4.5350341796875 -0.049423880875110626
18.182973861694336 4.562454700469971 -0.04942411929368973
18.164709091186523 4.5991411209106445 -0.04940136894583702
18.02851676940918 4.604489326477051 -0.049052268266677856
17.883846282958984 4.607213020324707 -0.04868484288454056
17.77283477783203 4.619006156921387 -0.04840940609574318
17.665576934814453 4.6302876472473145 -0.048143669962882996
17.45493507385254 4.653724670410156 -0.04762252792716026
17.35837745666504 4.6665849685668945 -0.04738586023449898
17.137182235717773 4.684595108032227 -0.04683469608426094
17.016984939575195 4.689825534820557 -0.04653266444802284
16.82476234436035 4.713064670562744 -0.04606122896075249
16.7303409576416 4.724191188812256 -0.04582899063825607
16.53765106201172 4.744960784912109 -0.04535578191280365
16.447772979736328 4.756247043609619 -0.04513738676905632
16.223041534423828 4.765277862548828 -0.04457322880625725
15.980720520019531 4.803436279296875 -0.04215897619724274
15.732834815979004 4.837081432342529 -0.041584089398384094
15.460203170776367 4.859847545623779 -0.04094432294368744
15.274020195007324 4.872097492218018 -0.0414833165705204
15.194491386413574 4.882412433624268 -0.04129621386528015
15.019172668457031 4.895044326782227 -0.040873222053050995
14.924391746520996 4.899343490600586 -0.04064377397298813
14.77099323272705 4.917093276977539 -0.040282007306814194
14.687740325927734 4.924156188964844 -0.040083009749650955
14.53328800201416 4.940557479858398 -0.03971806541085243
14.467599868774414 4.951743125915527 -0.03956740349531174
14.377431869506836 4.954335689544678 -0.03934825211763382
14.323331832885742 4.969850540161133 -0.039229925721883774
14.226792335510254 4.969455718994141 -0.03899326175451279
14.153223991394043 4.976834297180176 -0.03635041415691376
14.084850311279297 4.986528396606445 -0.03620195388793945
14.029435157775879 4.999696731567383 -0.036086343228816986
13.933614730834961 4.998257160186768 -0.03586624935269356
13.879393577575684 5.012200832366943 -0.035754263401031494
13.795676231384277 5.014355182647705 -0.03556526079773903
13.730116844177246 5.023756980895996 -0.035423751920461655
13.646889686584473 5.0254411697387695 -0.03523615375161171
13.574317932128906 5.030825614929199 -0.035074979066848755
13.510029792785645 5.039754867553711 -0.034936998039484024
13.434176445007324 5.043241500854492 -0.03476770594716072
13.376416206359863 5.053348064422607 -0.03464547544717789
13.312941551208496 5.0617995262146 -0.03450927138328552
13.228609085083008 5.061273574829102 -0.03431731462478638
13.177056312561035 5.0729217529296875 -0.03421113267540932
13.095954895019531 5.073754787445068 -0.034028250724077225
13.0362548828125 5.081857204437256 -0.033900532871484756
12.962599754333496 5.084978103637695 -0.03373720869421959
12.906006813049316 5.093707084655762 -0.0337030254304409
12.836963653564453 5.097362995147705 -0.03355049714446068
12.795367240905762 5.112424850463867 -0.03346998989582062
12.703594207763672 5.106352806091309 -0.03400855511426926
12.656767845153809 5.118155002593994 -0.03391174599528313
12.586530685424805 5.120974540710449 -0.033753033727407455
12.53298282623291 5.1295270919799805 -0.030665645375847816
12.33830738067627 5.1407341957092285 -0.030918791890144348
12.169424057006836 5.160390377044678 -0.03057628870010376
11.980910301208496 5.169554710388184 -0.03026418760418892
11.706611633300781 5.19764518737793 -0.029707500711083412
11.551155090332031 5.215801239013672 -0.029395638033747673
11.445117950439453 5.226059436798096 -0.02918154001235962
11.387822151184082 5.228483200073242 -0.02906305529177189
11.333227157592773 5.232675552368164 -0.028952104970812798
11.278481483459473 5.235905170440674 -0.028840025886893272
11.222074508666992 5.238802433013916 -0.02872425504028797
11.181896209716797 5.248335361480713 -0.02729364112019539
11.118953704833984 5.247061252593994 -0.02716664783656597
11.08076000213623 5.257925987243652 -0.027100304141640663
11.012457847595215 5.253541469573975 -0.026960093528032303
10.974885940551758 5.2636871337890625 -0.02689487859606743
10.923532485961914 5.267706394195557 -0.02679635025560856
10.8790864944458 5.274210453033447 -0.02671421505510807
10.812512397766113 5.27040958404541 -0.026578431949019432
10.760821342468262 5.2728776931762695 -0.026478299871087074
10.715615272521973 5.278412818908691 -0.026394063606858253
10.665788650512695 5.282129287719727 -0.02629922516644001
10.614794731140137 5.2843337059021 -0.026200661435723305
10.565906524658203 5.287467002868652 -0.02675505168735981
10.515289306640625 5.290173530578613 -0.026655269786715508
10.47059440612793 5.2949442863464355 -0.026569655165076256
10.434242248535156 5.303861618041992 -0.026505371555685997
10.391027450561523 5.30977725982666 -0.026424257084727287
10.336431503295898 5.30903959274292 -0.026313461363315582
10.290897369384766 5.313385009765625 -0.026226384565234184
10.236885070800781 5.31243371963501 -0.026116851717233658
10.191451072692871 5.3158087730407715 -0.026029087603092194
10.140436172485352 5.316707134246826 -0.025927750393748283
10.09900951385498 5.32173490524292 -0.025849979370832443
10.04935073852539 5.322320461273193 -0.025751104578375816
10.018791198730469 5.333492279052734 -0.02507917210459709
9.970632553100586 5.3345184326171875 -0.0249861478805542
9.928709030151367 5.338620185852051 -0.02483932301402092
9.878353118896484 5.338700294494629 -0.024741733446717262
9.848103523254395 5.348865985870361 -0.02469378337264061
9.756564140319824 5.3524017333984375 -0.02452055737376213
9.714130401611328 5.3554558753967285 -0.025050412863492966
9.632425308227539 5.363353252410889 -0.024897661060094833
9.580368041992188 5.360520362854004 -0.024791888892650604
9.504179954528809 5.370572566986084 -0.02465304359793663
9.381756782531738 5.379485130310059 -0.024422727525234222
9.26701545715332 5.39138650894165 -0.024211786687374115
9.1380033493042 5.3935041427612305 -0.02396283484995365
9.059462547302246 5.398719787597656 -0.023816285654902458
9.022621154785156 5.402842998504639 -0.024326447397470474
8.967574119567871 5.4206461906433105 -0.02417379431426525
8.9137544631958 5.414071559906006 -0.024059701710939407
8.893073081970215 5.426880836486816 -0.024034637957811356
8.856669425964355 5.4299211502075195 -0.023966670036315918
8.809088706970215 5.426600456237793 -0.023868979886174202
8.772397994995117 5.42921781539917 -0.02380029857158661
8.740449905395508 5.434563636779785 -0.023743994534015656
8.717809677124023 5.4462690353393555 -0.02371412143111229
8.672484397888184 5.443082332611084 -0.023621492087841034
8.625374794006348 5.4391584396362305 -0.02352462336421013
8.6126708984375 5.456160545349121 -0.023521149531006813
8.561387062072754 5.448676109313965 -0.023411843925714493
8.529326438903809 5.453832626342773 -0.023355701938271523
8.506331443786621 5.46410608291626 -0.02332378923892975
8.480230331420898 5.472232818603516 -0.02328362688422203
8.439106941223145 5.47119140625 -0.023202894255518913
8.405120849609375 5.474039077758789 -0.023140601813793182
8.368303298950195 5.4754815101623535 -0.023071082308888435
8.33447551727295 5.478082180023193 -0.023009218275547028
