VERSION .7
FIELDS x y z
SIZE 4 4 4
TYPE F F F
COUNT 1 1 1
WIDTH 835
HEIGHT 1
VIEWPOINT 0 0 0 1 0 0 0
POINTS 835
DATA ascii
12.251860618591309 -4.588582515716553 -0.3522319197654724
12.25986385345459 -4.562592506408691 -0.35289958119392395
12.233034133911133 -4.4069623947143555 -0.3523644208908081
12.220486640930176 -4.315840244293213 -0.35209396481513977
12.203458786010742 -4.223729610443115 -0.3516201674938202
12.158355712890625 -3.53365159034729 -0.3510238528251648
12.154077529907227 -3.5043575763702393 -0.3506839871406555
12.131688117980957 -3.4426305294036865 -0.3503871262073517
12.151595115661621 -3.4210476875305176 -0.3508415222167969
12.1235933303833 -3.3581249713897705 -0.3503050208091736
12.132050514221191 -3.3333749771118164 -0.35043391585350037
12.130152702331543 -3.3050005435943604 -0.35085710883140564
12.123059272766113 -3.2760579586029053 -0.3504544794559479
12.106582641601562 -3.2446625232696533 -0.34842148423194885
12.109394073486328 -3.190816640853882 -0.3488777279853821
12.116249084472656 -3.165748357772827 -0.3489702045917511
12.116981506347656 -3.111485004425049 -0.3492896854877472
12.104084014892578 -3.027191638946533 -0.3491244614124298
12.08296012878418 -2.941235303878784 -0.3487339913845062
12.093537330627441 -2.8633997440338135 -0.3492721915245056
12.04478645324707 -2.3753209114074707 -0.34744104743003845
12.03276538848877 -2.294459104537964 -0.3466712236404419
12.030488967895508 -2.2674856185913086 -0.3472137153148651
12.003220558166504 -2.236478805541992 -0.34629231691360474
12.014385223388672 -2.212096691131592 -0.3464764356613159
11.99923324584961 -2.1835720539093018 -0.34590864181518555
11.988520622253418 -2.155845880508423 -0.34621384739875793
12.000988960266113 -2.131716012954712 -0.3464418053627014
12.002154350280762 -2.1062400341033936 -0.34634819626808167
12.009377479553223 -2.0810725688934326 -0.3464273512363434
12.011993408203125 -2.055859088897705 -0.3471232056617737
11.981736183166504 -1.9732321500778198 -0.34588468074798584
11.992840766906738 -1.9494234323501587 -0.34484922885894775
11.966270446777344 -1.8934130668640137 -0.3444291055202484
11.975022315979004 -1.869333267211914 -0.34464967250823975
11.932547569274902 -1.8112587928771973 -0.3432062864303589
11.917756080627441 -1.7324373722076416 -0.34319689869880676
11.90169620513916 -1.6537688970565796 -0.34308063983917236
11.835631370544434 -1.2661700248718262 -0.340665727853775
11.827984809875488 -1.190192461013794 -0.3409495949745178
11.82028865814209 -1.1391546726226807 -0.3405856192111969
11.809399604797363 -1.1133756637573242 -0.3402048647403717
11.8008394241333 -1.0624481439590454 -0.3404701054096222
11.788593292236328 -1.0366884469985962 -0.34005481004714966
11.798230171203613 -1.0122222900390625 -0.34034860134124756
11.800581932067871 -0.987679123878479 -0.3403564989566803
11.782929420471191 -0.9609392881393433 -0.33978837728500366
11.790013313293457 -0.9368114471435547 -0.33993569016456604
11.78666877746582 -0.911935567855835 -0.3404257893562317
11.778423309326172 -0.885989785194397 -0.34013229608535767
11.777261734008789 -0.8613278269767761 -0.34004631638526917
11.776659965515137 -0.8360756635665894 -0.34005671739578247
11.776968002319336 -0.8114582300186157 -0.34001559019088745
11.75460147857666 -0.7854117751121521 -0.3393232524394989
11.753808975219727 -0.7356511354446411 -0.33984726667404175
11.771488189697266 -0.7122368216514587 -0.3396734595298767
11.738058090209961 -0.6606117486953735 -0.3392651677131653
11.726242065429688 -0.5860200524330139 -0.33889010548591614
11.730048179626465 -0.512305736541748 -0.3388994038105011
11.68005657196045 -0.362345814704895 -0.33801180124282837
11.666166305541992 -0.2885168194770813 -0.33755019307136536
11.695999145507812 -0.21569165587425232 -0.33836641907691956
11.681139945983887 -0.16621024906635284 -0.33854788541793823
11.681266784667969 -0.14196699857711792 -0.3386223614215851
11.692718505859375 -0.09285810589790344 -0.33886030316352844
11.676590919494629 -0.06849753111600876 -0.3383873701095581
11.6647367477417 -0.01930207759141922 -0.3380386233329773
13.274767875671387 0.0890359953045845 -0.27615591883659363
13.256654739379883 0.11642641574144363 -0.2757830023765564
13.249349594116211 0.17216762900352478 -0.27564334869384766
13.246956825256348 0.19963189959526062 -0.27560222148895264
13.21825122833252 0.3380238115787506 -0.2757803499698639
13.187137603759766 0.36532896757125854 -0.2751476466655731
13.183364868164062 0.3926948308944702 -0.2750861644744873
13.176721572875977 0.41986730694770813 -0.274964302778244
13.14492130279541 0.44696491956710815 -0.2743208408355713
13.17453670501709 0.475345253944397 -0.27495890855789185
13.153007507324219 0.501901388168335 -0.27452969551086426
13.155426025390625 0.530139684677124 -0.27460458874702454
13.160640716552734 0.557707667350769 -0.27473539113998413
13.15481185913086 0.5856152772903442 -0.2746403217315674
13.1473388671875 0.6126223802566528 -0.27451032400131226
13.131086349487305 0.6391767263412476 -0.2741972804069519
13.139793395996094 0.6677395701408386 -0.27440863847732544
13.146638870239258 0.6954427361488342 -0.27458104491233826
13.12011432647705 0.7214352488517761 -0.2740577757358551
13.112861633300781 0.7490468621253967 -0.2739395797252655
13.105592727661133 0.7759203910827637 -0.2738204002380371
13.097716331481934 0.8308215141296387 -0.27372705936431885
13.10316276550293 0.8584717512130737 -0.27387672662734985
13.07030200958252 1.1604783535003662 -0.27447962760925293
13.05041217803955 1.2414493560791016 -0.27413102984428406
13.035286903381348 1.2947131395339966 -0.27392470836639404
13.037384986877441 1.3229634761810303 -0.27402693033218384
13.028459548950195 1.3493783473968506 -0.2738981544971466
13.02867603302002 1.3775378465652466 -0.2739638686180115
13.034174919128418 1.4054760932922363 -0.27414026856422424
13.028050422668457 1.432172179222107 -0.2740723192691803
13.014368057250977 1.4588122367858887 -0.2738501727581024
13.010530471801758 1.4857271909713745 -0.27383410930633545
13.019451141357422 1.5149281024932861 -0.274088591337204
12.987324714660645 1.5385124683380127 -0.2748977839946747
12.978045463562012 1.564730167388916 -0.2747694253921509
12.984416961669922 1.59364652633667 -0.2750646471977234
12.987675666809082 1.6214113235473633 -0.27520421147346497
12.964720726013184 1.645876407623291 -0.27479052543640137
12.966957092285156 1.6743146181106567 -0.2749135196208954
12.950305938720703 1.69949471950531 -0.2746340334415436
12.96585750579834 1.7297184467315674 -0.27433180809020996
12.943774223327637 1.7541190385818481 -0.27394166588783264
12.966721534729004 1.784729242324829 -0.274504691362381
12.938047409057617 1.8088630437850952 -0.2738899290561676
12.941543579101562 1.8367412090301514 -0.2740437388420105
12.936134338378906 1.8634573221206665 -0.2740107476711273
12.921832084655762 1.8894925117492676 -0.2737928032875061
12.916890144348145 1.916156530380249 -0.2737715542316437
12.935007095336914 1.9745527505874634 -0.2743292450904846
12.897177696228027 1.9962646961212158 -0.27361464500427246
12.89338493347168 2.051224708557129 -0.2737143337726593
12.835071563720703 2.207840919494629 -0.2744576334953308
12.82081413269043 2.2891809940338135 -0.2744576334953308
12.808937072753906 2.3420486450195312 -0.2736140489578247
12.803119659423828 2.3691704273223877 -0.2735973000526428
12.761396408081055 2.416360855102539 -0.27291780710220337
12.75643539428711 2.443570137023926 -0.2729223966598511
12.715157508850098 2.491222381591797 -0.2722611725330353
12.694465637207031 2.5145342350006104 -0.2712274193763733
12.666998863220215 2.536512613296509 -0.27066484093666077
12.635623931884766 2.5582268238067627 -0.2701106071472168
12.632946968078613 2.584986925125122 -0.27016720175743103
12.625428199768066 2.6115610599517822 -0.2701251804828644
12.604585647583008 2.6345372200012207 -0.26979562640190125
12.592032432556152 2.659198045730591 -0.2696445882320404
12.601934432983398 2.6894233226776123 -0.269279807806015
12.60030460357666 2.7164266109466553 -0.26927682757377625
12.558554649353027 2.7348008155822754 -0.26850607991218567
12.538080215454102 2.75831937789917 -0.26819363236427307
12.554130554199219 2.7891764640808105 -0.27075183391571045
12.554969787597656 2.8175206184387207 -0.27098703384399414
12.532670021057129 2.83984637260437 -0.2706323266029358
12.52227783203125 2.864914655685425 -0.26975175738334656
12.521989822387695 2.8929226398468018 -0.2698776125907898
12.48721981048584 2.9121997356414795 -0.26925796270370483
12.481287956237793 2.93822979927063 -0.2692613899707794
12.47447681427002 2.964675188064575 -0.2692500054836273
12.454401016235352 2.987222194671631 -0.26886221766471863
12.44720458984375 3.040989398956299 -0.26828625798225403
12.429285049438477 3.0640478134155273 -0.26803696155548096
12.407612800598145 3.1141021251678467 -0.26784956455230713
12.364930152893066 3.1861517429351807 -0.2665756046772003
12.333492279052734 3.260960817337036 -0.26624780893325806
12.257244110107422 3.3240950107574463 -0.2643628418445587
12.27412223815918 3.383513927459717 -0.26632174849510193
12.263072967529297 3.4085817337036133 -0.2663259506225586
12.230932235717773 3.4544870853424072 -0.2651611268520355
12.22654914855957 3.4813783168792725 -0.26522645354270935
12.224932670593262 3.5084500312805176 -0.26534947752952576
12.186274528503418 3.5254595279693604 -0.26467233896255493
12.1782808303833 3.550551176071167 -0.2645709812641144
12.155705451965332 3.571446180343628 -0.2635546624660492
12.16539192199707 3.6024508476257324 -0.2639305591583252
12.145883560180664 3.624105930328369 -0.26367002725601196
12.153023719787598 3.6545276641845703 -0.26390692591667175
12.126351356506348 3.673963785171509 -0.2628057897090912
12.116262435913086 3.698376178741455 -0.26275303959846497
12.09309196472168 3.719562530517578 -0.262422114610672
12.093482971191406 3.747171401977539 -0.2625121474266052
12.09097671508789 3.774003028869629 -0.26194149255752563
12.079497337341309 3.7986669540405273 -0.26186704635620117
12.065616607666016 3.821925401687622 -0.26173830032348633
12.04690933227539 3.844245195388794 -0.2614228427410126
12.045710563659668 3.8714230060577393 -0.2608843147754669
12.033262252807617 3.89508318901062 -0.26079002022743225
12.018135070800781 3.918478488922119 -0.26064246892929077
11.996062278747559 3.9388411045074463 -0.26025331020355225
11.989060401916504 3.9642136096954346 -0.2609654366970062
11.984732627868652 3.9911131858825684 -0.2610546946525574
11.975934982299805 4.015902519226074 -0.26104536652565
11.950896263122559 4.063483715057373 -0.2600986957550049
11.958910942077637 4.094006061553955 -0.2604588568210602
11.934249877929688 4.141704559326172 -0.25961312651634216
11.895681381225586 4.212294101715088 -0.2592589557170868
11.864869117736816 4.2856059074401855 -0.25839900970458984
11.859950065612793 4.34037971496582 -0.2579177916049957
11.811201095581055 4.406931400299072 -0.256684809923172
11.800368309020996 4.4315385818481445 -0.25665390491485596
11.78951358795166 4.483473777770996 -0.2560512125492096
11.753825187683105 4.498572826385498 -0.25548285245895386
11.750736236572266 4.5254621505737305 -0.25562018156051636
11.73681354522705 4.54882287979126 -0.25475838780403137
11.747688293457031 4.581101417541504 -0.25528740882873535
11.72668743133545 4.601062774658203 -0.255038321018219
11.715588569641113 4.625519752502441 -0.25432759523391724
11.705437660217285 4.649612903594971 -0.25422999262809753
11.702152252197266 4.677274703979492 -0.25437501072883606
11.685423851013184 4.698736190795898 -0.25422295928001404
11.67060375213623 4.721027374267578 -0.25334495306015015
11.659066200256348 4.745274066925049 -0.25331321358680725
11.658305168151855 4.773189544677734 -0.25351136922836304
11.63717269897461 4.792851448059082 -0.25249984860420227
11.635157585144043 4.82102632522583 -0.2526782751083374
11.61983871459961 4.843049049377441 -0.25256386399269104
11.59858226776123 4.863204002380371 -0.25155848264694214
11.583066940307617 4.884986400604248 -0.2514411211013794
11.568026542663574 4.907037734985352 -0.2513359785079956
11.566073417663574 4.935295581817627 -0.2507535517215729
11.567870140075684 4.964463233947754 -0.251015305519104
11.5328950881958 4.9779133796691895 -0.2497134506702423
11.541698455810547 5.0108962059021 -0.2501347064971924
11.530072212219238 5.03440523147583 -0.25010958313941956
11.52058219909668 5.05875301361084 -0.24936243891716003
11.509784698486328 5.083272457122803 -0.24936243891716003
11.505695343017578 5.11012077331543 -0.2495037168264389
11.47935676574707 5.156318664550781 -0.2480362355709076
11.461699485778809 5.177093029022217 -0.2478870451450348
11.439697265625 5.22517728805542 -0.24711625277996063
11.420620918273926 5.303586483001709 -0.24665142595767975
11.387934684753418 5.346823692321777 -0.24566134810447693
11.389618873596191 5.37648868560791 -0.24593795835971832
11.366573333740234 5.424263000488281 -0.2451627403497696
11.341875076293945 5.500281810760498 -0.24451477825641632
11.322896957397461 5.520890712738037 -0.24435868859291077
11.277989387512207 5.5571441650390625 -0.2431177794933319
11.296958923339844 5.596419334411621 -0.243100106716156
11.266031265258789 5.610340595245361 -0.24259911477565765
11.27519416809082 5.644897937774658 -0.24237094819545746
11.253401756286621 5.663224220275879 -0.24215470254421234
11.263903617858887 5.69793176651001 -0.242549329996109
11.237213134765625 5.714514255523682 -0.24086907505989075
11.233818054199219 5.742159366607666 -0.2404536008834839
11.21800422668457 5.7643351554870605 -0.24029186367988586
11.213838577270508 5.791640758514404 -0.23977544903755188
11.212660789489746 5.8206377029418945 -0.2399221956729889
11.191140174865723 5.839751243591309 -0.23904281854629517
11.168766021728516 5.857596397399902 -0.23873786628246307
11.150642395019531 5.877725124359131 -0.23861174285411835
11.1675443649292 5.917057037353516 -0.2385568767786026
11.141222953796387 5.9328508377075195 -0.23817169666290283
11.118375778198242 5.950334072113037 -0.23726296424865723
11.099781036376953 5.970822811126709 -0.23705095052719116
11.06144905090332 5.979930877685547 -0.23581627011299133
11.068735122680664 6.014362335205078 -0.23615767061710358
11.043362617492676 6.030292987823486 -0.2352006733417511
11.046026229858398 6.061636924743652 -0.2354395091533661
11.027963638305664 6.082315444946289 -0.2353300154209137
11.024064064025879 6.110133171081543 -0.23483479022979736
11.01290225982666 6.133856296539307 -0.2347811460494995
11.008418083190918 6.162107944488525 -0.23428072035312653
10.991358757019043 6.182649612426758 -0.2341046780347824
10.954644203186035 6.222774505615234 -0.23310847580432892
10.928627967834473 6.2381272315979 -0.23214811086654663
10.853169441223145 6.255801677703857 -0.229744091629982
10.734844207763672 6.277833938598633 -0.22663617134094238
10.671493530273438 6.3012471199035645 -0.22509939968585968
10.631802558898926 6.30760383605957 -0.22445394098758698
10.551151275634766 6.319981098175049 -0.22256049513816833
10.521734237670898 6.332067012786865 -0.22154994308948517
10.430985450744629 6.33744478225708 -0.21945464611053467
10.394783020019531 6.345794200897217 -0.21889355778694153
10.350900650024414 6.348625183105469 -0.21758899092674255
10.317361831665039 6.35755729675293 -0.21707814931869507
10.270787239074707 6.359073162078857 -0.21572794020175934
10.24829387664795 6.374700546264648 -0.21545064449310303
10.199677467346191 6.37385368347168 -0.21405401825904846
10.145722389221191 6.370218276977539 -0.2131250500679016
10.128388404846191 6.3887739181518555 -0.21238920092582703
10.094006538391113 6.39717435836792 -0.21187224984169006
10.045944213867188 6.395972728729248 -0.2104950249195099
10.00699234008789 6.4004926681518555 -0.20987746119499207
9.960420608520508 6.400631904602051 -0.20726005733013153
9.934905052185059 6.413500785827637 -0.20700550079345703
9.893708229064941 6.4160332679748535 -0.20570413768291473
9.865388870239258 6.42755126953125 -0.2053990364074707
9.826578140258789 6.431447982788086 -0.20415273308753967
9.79368782043457 6.43975305557251 -0.2037533074617386
9.760015487670898 6.446755886077881 -0.2026175707578659
9.726139068603516 6.453410625457764 -0.20219257473945618
9.664112091064453 6.441935062408447 -0.20047922432422638
9.650883674621582 6.4621782302856445 -0.2004033923149109
9.606201171875 6.461172580718994 -0.1991255283355713
9.58752155303955 6.4783034324646 -0.19894546270370483
9.53499698638916 6.471768856048584 -0.1975090503692627
9.495691299438477 6.474669456481934 -0.19690321385860443
9.470878601074219 6.486677169799805 -0.1960449516773224
9.431462287902832 6.488475322723389 -0.19480900466442108
9.38080883026123 6.483100891113281 -0.1940472424030304
9.360615730285645 6.497984409332275 -0.19321289658546448
9.322259902954102 6.500067234039307 -0.19269892573356628
9.284659385681152 6.5032758712768555 -0.19151571393013
9.253153800964355 6.509968280792236 -0.19106830656528473
9.223950386047363 6.518080711364746 -0.19013124704360962
9.183311462402344 6.518726348876953 -0.18950317800045013
9.151397705078125 6.524769306182861 -0.18851478397846222
9.094483375549316 6.542135238647461 -0.18661625683307648
9.043872833251953 6.534250259399414 -0.18525084853172302
8.973588943481445 6.541165351867676 -0.1836196333169937
8.909151077270508 6.551828861236572 -0.1821892410516739
8.892598152160645 6.568132400512695 -0.18153004348278046
8.834897994995117 6.583199977874756 -0.18024253845214844
8.789816856384277 6.578022003173828 -0.17952702939510345
8.738154411315918 6.596950531005859 -0.17777536809444427
8.706010818481445 6.601092338562012 -0.17732509970664978
8.65428638458252 6.591036796569824 -0.17596940696239471
8.638738632202148 6.6075663566589355 -0.17585645616054535
8.608633995056152 6.613642692565918 -0.1748669594526291
8.58546257019043 6.624311447143555 -0.1746753454208374
8.541131019592285 6.618428707122803 -0.17339381575584412
8.520712852478027 6.631693363189697 -0.17267906665802002
8.47243881225586 6.622493267059326 -0.1719076931476593
8.453652381896973 6.636115550994873 -0.17114832997322083
8.424208641052246 6.6420440673828125 -0.17083801329135895
8.392890930175781 6.6457343101501465 -0.1698300689458847
8.352615356445312 6.642091274261475 -0.16864264011383057
8.322364807128906 6.647106170654297 -0.16831794381141663
8.29652214050293 6.654712200164795 -0.16742467880249023
8.27059555053711 6.662908554077148 -0.16661196947097778
8.237096786499023 6.664249420166016 -0.16614317893981934
8.210226058959961 6.67074728012085 -0.16523480415344238
8.182592391967773 6.677364349365234 -0.1649644523859024
8.161153793334961 6.688131332397461 -0.16416685283184052
8.114606857299805 6.678920745849609 -0.1628761887550354
8.097715377807617 6.693346977233887 -0.1628158986568451
8.057267189025879 6.688107013702393 -0.1616429090499878
8.041056632995605 6.703622817993164 -0.1610346883535385
8.016060829162598 6.711122035980225 -0.1607425957918167
7.982463359832764 6.71121883392334 -0.15971195697784424
7.9508490562438965 6.713590145111084 -0.15936502814292908
7.924655914306641 6.719784736633301 -0.15848655998706818
7.892508506774902 6.720730304718018 -0.15748833119869232
7.872443675994873 6.7327094078063965 -0.15737494826316833
7.8310136795043945 6.725464344024658 -0.15619531273841858
7.8022003173828125 6.729640483856201 -0.15527798235416412
7.771955966949463 6.731823444366455 -0.15495456755161285
7.753842830657959 6.744348049163818 -0.15424400568008423
7.718205451965332 6.742273330688477 -0.15319526195526123
7.684108257293701 6.740745544433594 -0.15279658138751984
7.667859077453613 6.754700660705566 -0.15323595702648163
7.638406276702881 6.757789611816406 -0.1523132175207138
7.610017776489258 6.760879039764404 -0.15140436589717865
7.590728282928467 6.771979808807373 -0.15130028128623962
7.552575588226318 6.766972064971924 -0.1502087563276291
7.53009557723999 6.775054454803467 -0.149422287940979
7.475931167602539 6.783509254455566 -0.14829695224761963
7.459579944610596 6.7969512939453125 -0.14763492345809937
7.425612449645996 6.795090675354004 -0.1472511887550354
7.397243022918701 6.797388076782227 -0.14635349810123444
7.341320991516113 6.803247451782227 -0.14520227909088135
7.319925785064697 6.811710357666016 -0.14444799721240997
7.254510402679443 6.808069705963135 -0.14311455190181732
7.241163730621338 6.823860168457031 -0.1425222009420395
7.214242458343506 6.8276472091674805 -0.14167355000972748
7.18159818649292 6.82505989074707 -0.14124195277690887
7.1755690574646 6.8477253913879395 -0.14086447656154633
7.136001110076904 6.8391523361206055 -0.13977102935314178
7.104517459869385 6.837319374084473 -0.1393650770187378
7.08286714553833 6.845595359802246 -0.13869187235832214
7.069092273712158 6.860805034637451 -0.13809974491596222
7.0245842933654785 6.845974922180176 -0.13850483298301697
7.014184474945068 6.865021705627441 -0.13798817992210388
6.9917378425598145 6.871612071990967 -0.13722947239875793
6.9583892822265625 6.867282390594482 -0.1368541419506073
6.9300312995910645 6.868579864501953 -0.13598935306072235
6.914325714111328 6.8815178871154785 -0.1353655308485031
6.868796348571777 6.864635467529297 -0.13475309312343597
6.860860824584961 6.886063575744629 -0.13429199159145355
6.825508117675781 6.879073143005371 -0.13328778743743896
6.809421062469482 6.89215087890625 -0.1326684057712555
6.778657913208008 6.889646053314209 -0.13234825432300568
6.757347583770752 6.896554946899414 -0.131621852517128
6.726390838623047 6.89436149597168 -0.1307176649570465
6.711313247680664 6.907527446746826 -0.13070277869701385
6.681393623352051 6.906095504760742 -0.12981952726840973
6.660286903381348 6.913022994995117 -0.12910301983356476
6.638288974761963 6.918869495391846 -0.12836922705173492
6.620824813842773 6.93014669418335 -0.12831641733646393
6.586475372314453 6.922992706298828 -0.12734661996364594
6.561166763305664 6.925111770629883 -0.12655292451381683
6.544588088989258 6.937141418457031 -0.1259348839521408
6.509180545806885 6.928452491760254 -0.12553119659423828
6.485231876373291 6.931730270385742 -0.12476687133312225
6.4761834144592285 6.9517669677734375 -0.12429805099964142
6.444485664367676 6.946589469909668 -0.12492935359477997
6.425045013427734 6.95527982711792 -0.12432584166526794
6.3948869705200195 6.9516143798828125 -0.12395766377449036
6.378931999206543 6.963216304779053 -0.12335175275802612
6.3462347984313965 6.957209587097168 -0.12243082374334335
6.318079471588135 6.955374240875244 -0.12165739387273788
6.303943634033203 6.968814849853516 -0.12159913778305054
6.250369548797607 6.968355178833008 -0.11998787522315979
6.232068061828613 6.977026462554932 -0.11940701305866241
6.213275909423828 6.985968589782715 -0.11926880478858948
6.2002081871032715 7.000475883483887 -0.11872570216655731
6.148128509521484 7.000856399536133 -0.11721785366535187
6.126087188720703 7.005023956298828 -0.1170111894607544
6.105930805206299 7.012147426605225 -0.11634443700313568
6.075376987457275 7.006364345550537 -0.1154729500412941
6.054003715515137 7.011058330535889 -0.11477754265069962
6.027823448181152 7.010960578918457 -0.11406350135803223
6.00728178024292 7.016470432281494 -0.11388709396123886
5.9615559577941895 7.022714138031006 -0.11245524138212204
5.941404342651367 7.028487205505371 -0.11185094714164734
5.896991729736328 7.035835266113281 -0.11194434016942978
5.881826400756836 7.047396659851074 -0.11137359589338303
5.850878715515137 7.040738105773926 -0.11057481914758682
5.843556880950928 7.061787128448486 -0.11065172404050827
5.801570892333984 7.040744304656982 -0.10957591980695724
5.792956352233887 7.060970306396484 -0.10914047062397003
5.769559860229492 7.062289237976074 -0.10841885954141617
5.74247932434082 7.059770584106445 -0.10769856721162796
5.713223457336426 7.05375337600708 -0.10736347734928131
5.704741477966309 7.073241710662842 -0.10692483931779861
5.671820640563965 7.063149452209473 -0.10603635758161545
5.659377098083496 7.077788352966309 -0.10552608966827393
5.640203475952148 7.083898544311523 -0.10495126247406006
5.614945411682129 7.083076477050781 -0.10470031946897507
5.59419059753418 7.087154865264893 -0.10403697192668915
5.579608917236328 7.098924160003662 -0.10348834842443466
5.554070949554443 7.0975871086120605 -0.10274524241685867
5.533149242401123 7.101165294647217 -0.10214275121688843
5.504401206970215 7.094587802886963 -0.1018223911523819
5.497178554534912 7.116617202758789 -0.10142088681459427
5.469255447387695 7.110921382904053 -0.10063008219003677
5.4405317306518555 7.104831695556641 -0.09983334690332413
5.417953014373779 7.105945587158203 -0.09914503991603851
5.406987190246582 7.122169494628906 -0.09872965514659882
5.382794380187988 7.121841907501221 -0.09898904711008072
5.359375953674316 7.121531963348389 -0.0987691804766655
5.336655616760254 7.122859477996826 -0.09814699739217758
5.323488235473633 7.136198997497559 -0.09763425588607788
5.299952983856201 7.135498523712158 -0.09693129360675812
5.2787346839904785 7.138637542724609 -0.0962790846824646
5.262207508087158 7.147367477416992 -0.0957072377204895
5.239332675933838 7.147315979003906 -0.0950196236371994
5.212780475616455 7.1429443359375 -0.09481386095285416
5.19888973236084 7.155146598815918 -0.0942920371890068
5.177451133728027 7.156826019287109 -0.09363285452127457
5.155179023742676 7.158189296722412 -0.09296807646751404
5.127545356750488 7.151064872741699 -0.09219996631145477
5.115471839904785 7.165580749511719 -0.09171298146247864
5.094703197479248 7.168824195861816 -0.09113791584968567
5.075303554534912 7.173004150390625 -0.09099704772233963
5.038110733032227 7.184419631958008 -0.08980103582143784
5.008565902709961 7.173911094665527 -0.08900506794452667
4.972357749938965 7.186339855194092 -0.08783195167779922
4.951390266418457 7.187868595123291 -0.08725152909755707
4.906885147094727 7.187871932983398 -0.0864093005657196
4.892263889312744 7.198488235473633 -0.08635535091161728
4.876163482666016 7.207871437072754 -0.08581177890300751
4.854546546936035 7.208101272583008 -0.08522310107946396
4.835895538330078 7.212667465209961 -0.08462851494550705
4.813823223114014 7.213012218475342 -0.08398189395666122
4.7907257080078125 7.21076774597168 -0.08331131935119629
4.769164562225342 7.211690902709961 -0.08267654478549957
4.756458282470703 7.225020408630371 -0.08218789845705032
4.729041576385498 7.2159342765808105 -0.08144576847553253
4.7134833335876465 7.22581672668457 -0.08138498663902283
4.6868109703063965 7.21761417388916 -0.08071617782115936
4.6806159019470215 7.240928649902344 -0.08034186065196991
4.651989459991455 7.230475425720215 -0.07959055155515671
4.639552593231201 7.244138717651367 -0.07911000400781631
4.603063106536865 7.220975875854492 -0.07822677493095398
4.598907470703125 7.2477030754089355 -0.07788866758346558
4.574676513671875 7.242695331573486 -0.07720981538295746
4.558798789978027 7.251713275909424 -0.07667965441942215
4.542671203613281 7.2595601081848145 -0.07613971829414368
4.524383544921875 7.263813018798828 -0.07608536630868912
4.491793632507324 7.245937824249268 -0.07527721673250198
4.479897975921631 7.260348796844482 -0.07480926066637039
4.4633469581604 7.26723051071167 -0.07426392287015915
4.442693710327148 7.268373489379883 -0.07365845143795013
4.413321018218994 7.254106044769287 -0.07290253788232803
4.4052300453186035 7.274762153625488 -0.07255727052688599
4.383674621582031 7.274191856384277 -0.07193963974714279
4.366102695465088 7.2791595458984375 -0.07138055562973022
4.334911346435547 7.26216983795166 -0.07060690224170685
4.328083038330078 7.285152912139893 -0.0702255591750145
4.30699348449707 7.284035682678223 -0.06961195170879364
4.285092830657959 7.282347202301025 -0.06899279356002808
4.2698140144348145 7.291069030761719 -0.06847549974918365
4.258144378662109 7.305866718292236 -0.06853136420249939
4.226061820983887 7.286557674407959 -0.06775102764368057
4.213049411773682 7.298979759216309 -0.06727056950330734
4.191923141479492 7.297313690185547 -0.0666612759232521
4.181227207183838 7.314828395843506 -0.06622543931007385
4.154921531677246 7.3039469718933105 -0.06553569436073303
4.144608497619629 7.321126937866211 -0.06509921699762344
4.116180419921875 7.307277679443359 -0.06438560038805008
4.099019527435303 7.312257289886475 -0.06384243071079254
4.082348346710205 7.318197250366211 -0.06330858916044235
4.06964111328125 7.3320722579956055 -0.06284207105636597
4.052018165588379 7.336159706115723 -0.06229313462972641
4.02864408493042 7.330799579620361 -0.06166381388902664
4.012213706970215 7.336933135986328 -0.06119164824485779
3.9958925247192383 7.343245983123779 -0.060664765536785126
3.9654879570007324 7.324597358703613 -0.05993206053972244
3.951181411743164 7.3344855308532715 -0.05943722650408745
3.9169921875 7.333195209503174 -0.058355581015348434
14.096040725708008 -8.227592468261719 -0.2610229253768921
14.253969192504883 -6.897712230682373 -0.2743002772331238
14.246833801269531 -6.784054756164551 -0.2744070887565613
14.261293411254883 -6.681283473968506 -0.27568697929382324
14.267571449279785 -6.575162410736084 -0.27788156270980835
13.910881042480469 -6.339899063110352 -0.271340012550354
14.305395126342773 -6.4113898277282715 -0.28016334772109985
14.159724235534668 -5.168529033660889 -0.2832958996295929
14.144451141357422 -5.06241512298584 -0.2832653224468231
14.133034706115723 -5.025267601013184 -0.2837429940700531
14.130770683288574 -4.9575276374816895 -0.2840889096260071
14.108652114868164 -4.916910171508789 -0.28353968262672424
14.117213249206543 -4.886097431182861 -0.28431233763694763
14.09182071685791 -4.844586372375488 -0.2837997376918793
14.076789855957031 -4.773224830627441 -0.28399720788002014
14.078438758850098 -4.741232872009277 -0.283831387758255
13.961262702941895 -3.741731882095337 -0.28508567810058594
13.934924125671387 -3.6409339904785156 -0.28495433926582336
13.945509910583496 -3.550196409225464 -0.2855873703956604
13.930079460144043 -3.4838669300079346 -0.285065621137619
13.913175582885742 -3.44897723197937 -0.28535085916519165
13.928388595581055 -3.422083854675293 -0.28551650047302246
13.923968315124512 -3.3894734382629395 -0.28527671098709106
13.919817924499512 -3.3578805923461914 -0.2851453125476837
13.916028022766113 -3.3263230323791504 -0.2857019305229187
13.912210464477539 -3.2941079139709473 -0.2839261591434479
13.917113304138184 -3.264784097671509 -0.28398436307907104
13.897260665893555 -3.198439836502075 -0.28417351841926575
13.896754264831543 -3.1679718494415283 -0.28402793407440186
13.799942016601562 -2.512031078338623 -0.28303346037864685
13.793113708496094 -2.4213037490844727 -0.28343039751052856
13.776498794555664 -2.328439235687256 -0.28278017044067383
13.765329360961914 -2.267733097076416 -0.28320741653442383
13.766674041748047 -2.23785400390625 -0.28313636779785156
13.755322456359863 -2.177353858947754 -0.28356432914733887
13.754890441894531 -2.147270917892456 -0.2834598124027252
13.75161075592041 -2.1174402236938477 -0.28330111503601074
13.723563194274902 -2.0832149982452393 -0.282631516456604
13.725926399230957 -2.0544424057006836 -0.28259140253067017
13.73630142211914 -2.0267651081085205 -0.28356486558914185
13.72681713104248 -1.995508074760437 -0.28328144550323486
13.709073066711426 -1.963887333869934 -0.2828314006328583
13.715335845947266 -1.9356520175933838 -0.28287598490715027
13.721199989318848 -1.906687617301941 -0.28291255235671997
13.713595390319824 -1.8765369653701782 -0.2835197150707245
13.713302612304688 -1.8177906274795532 -0.2818509340286255
13.703906059265137 -1.7875207662582397 -0.28158068656921387
13.52078914642334 -1.1607474088668823 -0.27972155809402466
13.491632461547852 -1.0728473663330078 -0.27823880314826965
13.475641250610352 -1.01448392868042 -0.2778184115886688
13.478904724121094 -0.9858691096305847 -0.2778421640396118
13.46596908569336 -0.956741213798523 -0.2775338888168335
13.47113037109375 -0.9290157556533813 -0.27833250164985657
13.456138610839844 -0.8991954326629639 -0.27798211574554443
13.439521789550781 -0.8699832558631897 -0.27769237756729126
13.451908111572266 -0.8427565693855286 -0.2779119312763214
13.453645706176758 -0.8141078352928162 -0.2779114544391632
13.43181037902832 -0.7847229242324829 -0.27742594480514526
13.43997573852539 -0.7564862370491028 -0.2775610387325287
13.437850952148438 -0.728303849697113 -0.27821555733680725
13.424463272094727 -0.6996412873268127 -0.2779087424278259
13.419260025024414 -0.6707199215888977 -0.27776968479156494
13.429729461669922 -0.6432157754898071 -0.2779577970504761
13.428163528442383 -0.6152134537696838 -0.2779892385005951
13.386983871459961 -0.5847630500793457 -0.27711161971092224
13.379417419433594 -0.5565263032913208 -0.27693092823028564
13.381410598754883 -0.528794527053833 -0.27694937586784363
13.369962692260742 -0.4997384548187256 -0.2766891121864319
13.377814292907715 -0.4722335934638977 -0.27755630016326904
13.356866836547852 -0.38743752241134644 -0.2763404846191406
10.577527046203613 5.833789348602295 -0.2581624984741211
10.54354476928711 5.90179443359375 -0.2574958801269531
9.493999481201172 6.328447341918945 -0.2296886444091797
9.386375427246094 6.342294692993164 -0.2273533046245575
9.322999954223633 6.356826305389404 -0.22577577829360962
9.278888702392578 6.354996204376221 -0.22494973242282867
9.215150833129883 6.368520736694336 -0.22344525158405304
9.1876220703125 6.377708435058594 -0.22241535782814026
9.125570297241211 6.391753196716309 -0.22088246047496796
9.086357116699219 6.392434597015381 -0.22025397419929504
9.014425277709961 6.398751735687256 -0.21848644316196442
8.985788345336914 6.406508922576904 -0.21751558780670166
8.907232284545898 6.407251358032227 -0.2161901295185089
8.817462921142578 6.427175998687744 -0.21373018622398376
8.726694107055664 6.445411682128906 -0.2118455171585083
7.965503215789795 6.5561065673828125 -0.19452206790447235
7.889059066772461 6.576814651489258 -0.19296398758888245
7.825930595397949 6.579524040222168 -0.19146287441253662
7.802481174468994 6.588219165802002 -0.19067826867103577
7.744782447814941 6.594845294952393 -0.18931546807289124
7.714603424072266 6.597538948059082 -0.18885144591331482
7.671231746673584 6.616584300994873 -0.1878516525030136
7.6279096603393555 6.606873035430908 -0.18657872080802917
7.6154890060424805 6.623915672302246 -0.1865430772304535
7.576009750366211 6.617966651916504 -0.18646623194217682
7.559061050415039 6.630867958068848 -0.18631936609745026
7.520498275756836 6.624797821044922 -0.1850956231355667
7.504465579986572 6.639108180999756 -0.1850491166114807
7.470870018005371 6.6370744705200195 -0.1839493364095688
7.420378684997559 6.64834451675415 -0.18278652429580688
7.393096923828125 6.651610374450684 -0.18245364725589752
7.3298163414001465 6.650744915008545 -0.1809769868850708
7.298398494720459 6.649997234344482 -0.17993982136249542
7.220836639404297 6.662886619567871 -0.17845672369003296
6.699921131134033 6.752408027648926 -0.16735242307186127
6.624494552612305 6.760872840881348 -0.16537024080753326
6.576446056365967 6.768624782562256 -0.164305180311203
6.557489395141602 6.777196884155273 -0.16367170214653015
6.500504016876221 6.775167942047119 -0.16238637268543243
6.484694480895996 6.7868266105651855 -0.16177043318748474
6.439441204071045 6.796541690826416 -0.1607828289270401
6.412052154541016 6.7958245277404785 -0.1603865921497345
6.3896050453186035 6.80098819732666 -0.15968027710914612
6.359131813049316 6.796855926513672 -0.16021794080734253
6.355411052703857 6.821939468383789 -0.15992245078086853
6.32994270324707 6.823028564453125 -0.1595751941204071
6.299376487731934 6.8184051513671875 -0.15865610539913177
6.270085334777832 6.815761566162109 -0.15771803259849548
6.2444844245910645 6.816360950469971 -0.15742941200733185
6.226622104644775 6.825244903564453 -0.15677279233932495
6.201350688934326 6.826684474945068 -0.15650293231010437
6.179088592529297 6.830697536468506 -0.15573696792125702
6.156282424926758 6.833939075469971 -0.1549571007490158
6.120969772338867 6.823997497558594 -0.15443480014801025
6.1048150062561035 6.834467887878418 -0.15382668375968933
6.083840370178223 6.83950138092041 -0.15365487337112427
6.064061164855957 6.846662998199463 -0.1529666781425476
6.035744667053223 6.843249797821045 -0.15205225348472595
5.996431827545166 6.8566718101501465 -0.1512327492237091
5.981251239776611 6.868022918701172 -0.15071523189544678
5.931220531463623 6.868770599365234 -0.1496274471282959
5.908890724182129 6.871687412261963 -0.14936217665672302
5.877394676208496 6.893573760986328 -0.14825530350208282
5.80084753036499 6.8910722732543945 -0.14674054086208344
5.550591945648193 6.941641807556152 -0.14051154255867004
5.480969429016113 6.943619728088379 -0.1392500251531601
5.4384918212890625 6.949013710021973 -0.1378871649503708
5.413330078125 6.947292804718018 -0.1375640332698822
5.39037561416626 6.94752311706543 -0.13686837255954742
5.378690242767334 6.962343692779541 -0.13640259206295013
5.356444835662842 6.964151382446289 -0.13615667819976807
5.332157135009766 6.962423801422119 -0.1354290246963501
5.29957914352417 6.949812412261963 -0.1344352513551712
5.292558670043945 6.971344470977783 -0.1345740109682083
5.275697708129883 6.979160308837891 -0.13397982716560364
5.256198406219482 6.984330654144287 -0.1333896666765213
5.225070953369141 6.973039627075195 -0.1329064667224884
5.211374282836914 6.985019683837891 -0.13239556550979614
5.1869659423828125 6.983280658721924 -0.1316806823015213
5.175254821777344 6.997804641723633 -0.13169415295124054
5.140832424163818 6.981616497039795 -0.1306566745042801
5.127913951873779 6.995222091674805 -0.1302356868982315
5.109662055969238 7.00074577331543 -0.1300831437110901
5.083299160003662 6.9959611892700195 -0.12932179868221283
5.066278457641602 7.003050804138184 -0.12873134016990662
5.0391645431518555 6.996097564697266 -0.12835285067558289
5.029823303222656 7.01467752456665 -0.1280284821987152
5.010011672973633 7.017755031585693 -0.1273670196533203
4.98201847076416 7.009357452392578 -0.12696796655654907
4.961663722991943 7.012293815612793 -0.12636253237724304
4.938765048980713 7.010741710662842 -0.12562693655490875
4.924562454223633 7.021586894989014 -0.12557849287986755
4.908796787261963 7.03090763092041 -0.12509405612945557
4.885234832763672 7.028288841247559 -0.12434396147727966
4.853460311889648 7.013587474822998 -0.12384606897830963
4.838718891143799 7.024202823638916 -0.123389333486557
4.818324089050293 7.025862693786621 -0.1222592368721962
4.808306694030762 7.042544841766357 -0.12231788784265518
4.788135051727295 7.045168876647949 -0.12166567146778107
4.771910190582275 7.05283784866333 -0.1211661621928215
4.725103378295898 7.047319412231445 -0.12015090137720108
4.7087531089782715 7.054644584655762 -0.11964995414018631
4.672840595245361 7.065097332000732 -0.11891758441925049
4.658635139465332 7.0754876136779785 -0.11846976727247238
4.615566253662109 7.074765205383301 -0.11755827814340591
4.584878444671631 7.059696674346924 -0.1166919618844986
4.556552410125732 7.08119010925293 -0.1157013475894928
4.527904510498047 7.068863868713379 -0.11534572392702103
4.49932336807251 7.0898051261901855 -0.11435219645500183
4.455713748931885 7.0868821144104 -0.11349081993103027
4.429848670959473 7.078299045562744 -0.11269403994083405
4.399418354034424 7.095954418182373 -0.11217186599969864
4.386281967163086 7.107659339904785 -0.11170264333486557
4.350449085235596 7.116482734680176 -0.11008249223232269
4.327975749969482 7.112847328186035 -0.10943467170000076
4.299132823944092 7.09955358505249 -0.10858125984668732
4.282864570617676 7.10592794418335 -0.10848618298768997
4.269400596618652 7.117828845977783 -0.10807926952838898
4.249959468841553 7.118974685668945 -0.10745515674352646
4.228085994720459 7.115845680236816 -0.10677019506692886
4.207236289978027 7.115213871002197 -0.10662642121315002
4.179786682128906 7.102502822875977 -0.10580141842365265
4.170827865600586 7.121045112609863 -0.1054452434182167
4.153414249420166 7.126067161560059 -0.10538866370916367
4.134393692016602 7.127501010894775 -0.1047791987657547
4.123706340789795 7.143189430236816 -0.10438136756420135
9.416855812072754 6.74336051940918 -0.13345742225646973
9.341679573059082 6.749223709106445 -0.13209033012390137
9.295270919799805 6.745096206665039 -0.13163144886493683
9.22874927520752 6.756339073181152 -0.1303931027650833
9.204182624816895 6.767736911773682 -0.1295471042394638
9.145956039428711 6.784450054168701 -0.128433495759964
9.105079650878906 6.7834649085998535 -0.12805674970149994
9.03209400177002 6.788427352905273 -0.12674137949943542
8.927201271057129 6.797833442687988 -0.1251816600561142
8.827044486999512 6.809658527374268 -0.12309010326862335
7.875460624694824 6.937387943267822 -0.10683704167604446
7.827847957611084 6.954211235046387 -0.10594847053289413
7.767940521240234 6.929886341094971 -0.10476748645305634
7.726977825164795 6.952004909515381 -0.10397471487522125
7.705147743225098 6.96135139465332 -0.10380446165800095
7.6628336906433105 6.981959819793701 -0.10299696028232574
7.621776103973389 6.9735517501831055 -0.10207901895046234
7.602526664733887 6.985074996948242 -0.10194551944732666
7.560168266296387 6.975903034210205 -0.10101839900016785
7.5441575050354 6.990170955657959 -0.10204440355300903
7.507349491119385 6.985170841217041 -0.10111656785011292
7.4772162437438965 6.986897945404053 -0.10090966522693634
7.460818767547607 7.000729560852051 -0.10026165097951889
7.3983588218688965 7.000849723815918 -0.09919420629739761
7.380031108856201 7.012688636779785 -0.0991448312997818
7.3146443367004395 7.0093159675598145 -0.09804264456033707
7.283170700073242 7.008302688598633 -0.09719891846179962
7.232210636138916 7.018069267272949 -0.09629706293344498
7.206669330596924 7.022476673126221 -0.09560587257146835
6.6643500328063965 7.092652320861816 -0.08692429214715958
6.600985050201416 7.11431360244751 -0.0854954868555069
6.553006172180176 7.12252950668335 -0.08467119187116623
6.517067909240723 7.113035678863525 -0.08380740880966187
6.469619274139404 7.1212286949157715 -0.0829952210187912
6.454627990722656 7.134418487548828 -0.08292701840400696
6.406454563140869 7.141395568847656 -0.08158880472183228
6.374886989593506 7.135941982269287 -0.08137477189302444
6.325822830200195 7.141327857971191 -0.08048385381698608
6.299008369445801 7.141637325286865 -0.08085276186466217
6.295170783996582 7.167311668395996 -0.08093038201332092
6.25833797454834 7.155269622802734 -0.08006621152162552
6.233524322509766 7.157598972320557 -0.0794292539358139
6.211998462677002 7.162939071655273 -0.0792805403470993
6.18533182144165 7.16216516494751 -0.07855100184679031
6.170672416687012 7.176124095916748 -0.07856040447950363
6.136451244354248 7.166356086730957 -0.0777379646897316
6.116217136383057 7.173587799072266 -0.07716288417577744
6.085415363311768 7.167634963989258 -0.07689869403839111
6.074436664581299 7.184870719909668 -0.07637357711791992
6.044364929199219 7.180257797241211 -0.07567998766899109
6.019068717956543 7.180498123168945 -0.07548478245735168
5.992216110229492 7.178670406341553 -0.07482790946960449
5.95435905456543 7.1946940422058105 -0.07409998029470444
5.9379353523254395 7.205239772796631 -0.07357627153396606
5.886550426483154 7.204495429992676 -0.07274708896875381
5.859999656677246 7.20245361328125 -0.07203539460897446
5.820898532867432 7.216261863708496 -0.07136271148920059
5.767225742340088 7.24242639541626 -0.07063417136669159
5.686868667602539 7.23438024520874 -0.06901878863573074
5.543761730194092 7.237912178039551 -0.06621741503477097
5.493425369262695 7.2671895027160645 -0.06505345553159714
5.4312214851379395 7.279586315155029 -0.06374913454055786
5.36029577255249 7.279560089111328 -0.06234872341156006
5.322380542755127 7.292191505432129 -0.061713576316833496
5.293492794036865 7.284307479858398 -0.061003509908914566
5.244728088378906 7.281491279602051 -0.06024719029664993
5.2340192794799805 7.298512935638428 -0.059750188142061234
5.205087661743164 7.290066242218018 -0.05904538184404373
5.185369968414307 7.29535436630249 -0.058936409652233124
5.158281326293945 7.289229393005371 -0.05831670016050339
5.152254581451416 7.312849044799805 -0.057874251157045364
5.1305766105651855 7.315222263336182 -0.05774575099349022
5.1095476150512695 7.317492485046387 -0.057195186614990234
5.080090045928955 7.307671546936035 -0.056492384523153305
5.058620452880859 7.309951305389404 -0.05636546015739441
5.037270545959473 7.311479568481445 -0.055815644562244415
5.022760391235352 7.323005199432373 -0.055281639099121094
4.99985933303833 7.322997570037842 -0.05514082312583923
4.978763103485107 7.324801921844482 -0.054595425724983215
4.958626747131348 7.328695774078369 -0.05400684475898743
4.940273284912109 7.334316253662109 -0.05343319848179817
4.916773319244385 7.332328796386719 -0.05334312841296196
4.901330947875977 7.3430562019348145 -0.05280763655900955
4.875530242919922 7.3373308181762695 -0.05215505510568619
4.855123996734619 7.339727401733398 -0.05209857225418091
4.837069034576416 7.346381187438965 -0.051536425948143005
4.8180832862854 7.350712299346924 -0.05096019059419632
4.794274806976318 7.347709655761719 -0.05087050423026085
4.771482944488525 7.346917152404785 -0.05025884509086609
4.7504777908325195 7.348021507263184 -0.049664806574583054
4.736955165863037 7.360561370849609 -0.048734478652477264
4.714071750640869 7.35939359664917 -0.048600271344184875
4.69089412689209 7.3568878173828125 -0.047985486686229706
4.64946174621582 7.359991073608398 -0.04734719172120094
4.633031845092773 7.3679118156433105 -0.04680405929684639
4.596721649169922 7.378835201263428 -0.04616114869713783
4.576632976531982 7.380783557891846 -0.04564383253455162
4.538100719451904 7.387931823730469 -0.044510483741760254
4.509655952453613 7.375901222229004 -0.04438045620918274
4.475337505340576 7.389519691467285 -0.04329445958137512
4.420509338378906 7.403631687164307 -0.04216139018535614
4.379570484161377 7.4057464599609375 -0.041541941463947296
4.356915473937988 7.402454853057861 -0.04095028340816498
4.316563606262207 7.4050612449646 -0.04033990204334259
4.3034491539001465 7.417901992797852 -0.03983794152736664
4.2612833976745605 7.417008399963379 -0.03782203420996666
4.246825218200684 7.427484035491943 -0.037772633135318756
4.197719573974609 7.413887023925781 -0.036572009325027466
4.188717842102051 7.433928489685059 -0.036165740340948105
4.169737815856934 7.437346935272217 -0.03608143702149391
4.149524688720703 7.437434673309326 -0.03552011027932167
4.125054836273193 7.430721282958984 -0.034984517842531204
4.1155171394348145 7.45004940032959 -0.03497796878218651
4.087700843811035 7.4361114501953125 -0.03435446321964264
4.070451259613037 7.442229747772217 -0.033824142068624496
4.049489498138428 7.440659523010254 -0.03331974521279335
4.0265092849731445 7.435140609741211 -0.033199746161699295
4.014888763427734 7.45153284072876 -0.032718900591135025
11.036033630371094 6.1774678230285645 -0.22603099048137665
10.956262588500977 6.223596096038818 -0.2244255542755127
10.854640007019043 6.256452560424805 -0.22237856686115265
9.443978309631348 6.468064308166504 -0.1940872073173523
9.341978073120117 6.484857082366943 -0.1921314299106598
9.27962589263916 6.49965763092041 -0.19071805477142334
9.244755744934082 6.503872394561768 -0.1902785450220108
9.174782752990723 6.512578964233398 -0.18871504068374634
9.12125301361084 6.503089427947998 -0.18789106607437134
9.055459976196289 6.5138773918151855 -0.18641826510429382
9.036779403686523 6.5289387702941895 -0.18631219863891602
8.97488784790039 6.541925430297852 -0.18492397665977478
8.932106971740723 6.539169788360596 -0.1836463063955307
8.856598854064941 6.541357040405273 -0.1826595664024353
7.9176344871521 6.684715747833252 -0.1648038625717163
7.831600666046143 6.696859836578369 -0.16269828379154205
7.772764682769775 6.703423976898193 -0.16199199855327606
7.741708755493164 6.705440521240234 -0.16101698577404022
7.672426223754883 6.7014570236206055 -0.15960204601287842
7.656834602355957 6.7166361808776855 -0.1595052182674408
7.633518218994141 6.724265098571777 -0.15930892527103424
7.599173069000244 6.722160339355469 -0.15826480090618134
7.578535079956055 6.732724189758301 -0.1581333726644516
7.551033973693848 6.736382007598877 -0.15723279118537903
