VERSION .7
FIELDS x y z
SIZE 4 4 4
TYPE F F F
COUNT 1 1 1
WIDTH 835
HEIGHT 1
VIEWPOINT 0 0 0 1 0 0 0
POINTS 835
DATA ascii
11.418323516845703 5.563565731048584 0.06375119090080261
10.362375259399414 5.626893043518066 0.05941448360681534
10.248083114624023 5.648540496826172 0.0589318722486496
10.195343971252441 5.647430419921875 0.05871050804853439
10.116337776184082 5.659132957458496 0.058405905961990356
10.072413444519043 5.662376403808594 0.05818717181682587
10.021467208862305 5.661603927612305 0.05796022713184357
9.969907760620117 5.659801483154297 0.0577397346496582
9.92541217803955 5.66214656829834 0.05873018875718117
9.886205673217773 5.667469501495361 0.058569349348545074
9.844477653503418 5.671060562133789 0.05838947743177414
9.803064346313477 5.674330711364746 0.058218952268362045
9.758316040039062 5.675957679748535 0.058004118502140045
9.721052169799805 5.681648254394531 0.057867489755153656
9.684225082397461 5.687580108642578 0.057734422385692596
9.629501342773438 5.682348251342773 0.05746544152498245
9.608587265014648 5.697256565093994 0.05710918456315994
9.566583633422852 5.699675559997559 0.05720902606844902
9.473536491394043 5.697977066040039 0.056518830358982086
9.444853782653809 5.7079057693481445 0.056424371898174286
9.348265647888184 5.703419208526611 0.05562542751431465
9.318696022033691 5.711948394775391 0.0554829016327858
9.242754936218262 5.719089508056641 0.05519808828830719
9.189413070678711 5.712488174438477 0.05494890362024307
9.121298789978027 5.723544120788574 0.05468762293457985
8.467491149902344 5.770205974578857 0.05246691405773163
8.433365821838379 5.772615432739258 0.05234526842832565
8.366251945495605 5.778567790985107 0.052056651562452316
8.316513061523438 5.769742012023926 0.05183970183134079
8.26494026184082 5.785674095153809 0.05166998133063316
8.229459762573242 5.786319732666016 0.05185667425394058
8.16711139678955 5.794034004211426 0.051355279982089996
8.13425064086914 5.796133995056152 0.052000753581523895
8.092222213745117 5.792290210723877 0.05180247873067856
8.072976112365723 5.803889274597168 0.05178166553378105
8.024169921875 5.794410228729248 0.05152090638875961
8.005499839782715 5.806673049926758 0.051469989120960236
7.9673380851745605 5.804264068603516 0.05131261795759201
7.937814712524414 5.808753967285156 0.0512324795126915
7.8951826095581055 5.8027520179748535 0.05101390555500984
7.8688645362854 5.808597564697266 0.05091080814599991
7.837993621826172 5.811717987060547 0.050804510712623596
7.814533233642578 5.819494247436523 0.050753720104694366
7.781033992767334 5.819688320159912 0.0509403720498085
7.752302169799805 5.824065208435059 0.05085259675979614
7.714439868927002 5.820703506469727 0.05067314952611923
7.690467834472656 5.828011512756348 0.05024326965212822
7.651480674743652 5.823929786682129 0.05008446052670479
7.62689208984375 5.830251693725586 0.0500168651342392
7.596212387084961 5.832550048828125 0.04989440739154816
7.571711540222168 5.838753700256348 0.049798768013715744
7.531365871429443 5.832604885101318 0.049594469368457794
7.472329139709473 5.837392330169678 0.04938632249832153
7.386065483093262 5.8451433181762695 0.049304649233818054
7.298922538757324 5.851177215576172 0.0492737703025341
7.215690612792969 5.859769821166992 0.04898315295577049
7.0523600578308105 5.876112937927246 0.04843631386756897
6.960541725158691 5.874136924743652 0.04775877296924591
6.900429725646973 5.873037815093994 0.04783588647842407
6.8845295906066895 5.884490013122559 0.047799114137887955
6.8265380859375 5.884855270385742 0.04757561534643173
6.797850131988525 5.884758949279785 0.04743169620633125
6.749523162841797 5.8928327560424805 0.0472555011510849
6.725770950317383 5.896736145019531 0.04741118103265762
6.6955885887146 5.8956193923950195 0.047299593687057495
6.668525218963623 5.896402359008789 0.047194890677928925
6.6516265869140625 5.906101226806641 0.047166623175144196
6.619109153747559 5.90256404876709 0.04734265059232712
6.588326454162598 5.899703502655029 0.047201767563819885
6.562105178833008 5.9012250900268555 0.04690060019493103
6.547978401184082 5.913450717926025 0.04687432944774628
6.512207984924316 5.905729293823242 0.04673970490694046
6.490388870239258 5.910953521728516 0.046636391431093216
6.46275520324707 5.910674095153809 0.04654063656926155
6.43269157409668 5.907739639282227 0.04641380161046982
6.413086891174316 5.9150390625 0.04636300355195999
6.392827033996582 5.920951843261719 0.04627759009599686
6.366339683532715 5.921011447906494 0.046498626470565796
6.342399597167969 5.924065589904785 0.046403151005506516
6.31692361831665 5.924862384796143 0.046338558197021484
6.293181419372559 5.927609920501709 0.04623081535100937
6.2604660987854 5.921665191650391 0.04608248174190521
6.242598533630371 5.929359436035156 0.046074796468019485
6.218843460083008 5.931811332702637 0.04599514603614807
6.19504976272583 5.934022426605225 0.04587247967720032
6.1616339683532715 5.926582336425781 0.046043530106544495
6.149209499359131 5.939666748046875 0.0460411012172699
6.119415283203125 5.935790061950684 0.045904725790023804
6.095991134643555 5.937670707702637 0.04581078141927719
6.038393974304199 5.931331157684326 0.04556805267930031
6.024472236633301 5.942690849304199 0.04555755481123924
5.980744361877441 5.949039459228516 0.04521099478006363
5.908749580383301 5.952212333679199 0.04522436112165451
5.84263801574707 5.960090637207031 0.04500948637723923
5.773257732391357 5.963857173919678 0.04503163322806358
5.73413610458374 5.973580837249756 0.04495258629322052
5.703742027282715 5.9669599533081055 0.04480898380279541
5.653802871704102 5.964499473571777 0.04462079703807831
5.634051322937012 5.968727111816406 0.044553883373737335
5.594335556030273 5.976572036743164 0.044726788997650146
5.570055961608887 5.975748062133789 0.044445037841796875
5.520590782165527 5.9726080894470215 0.04421582818031311
5.5074615478515625 5.983573913574219 0.0442083366215229
5.4857683181762695 5.985308647155762 0.04415604844689369
5.4586944580078125 5.98063850402832 0.044033825397491455
5.442688941955566 5.988320350646973 0.04429591819643974
5.415406703948975 5.9836273193359375 0.04415437951683998
5.394736289978027 5.986018180847168 0.044122423976659775
5.37443733215332 5.988862037658691 0.044041864573955536
5.3506760597229 5.987333297729492 0.04393969848752022
5.337164878845215 5.997525215148926 0.04393123835325241
5.308516502380371 5.9907450675964355 0.04382189363241196
5.291593551635742 5.996982574462891 0.04376779496669769
5.262240409851074 5.9887213706970215 0.043916087597608566
5.258852005004883 6.010400772094727 0.04398912936449051
5.223932266235352 5.99586296081543 0.04381710663437843
5.206453800201416 6.000898361206055 0.043751850724220276
5.184365272521973 6.000979423522949 0.04369135946035385
5.166991233825684 6.0063300132751465 0.04363209009170532
5.145502090454102 6.006947040557861 0.043573543429374695
5.127147197723389 6.010721206665039 0.04380185157060623
5.105447769165039 6.010812759399414 0.04372521489858627
5.0820722579956055 6.008949279785156 0.04362766444683075
5.057565689086914 6.005516052246094 0.043347325176000595
5.043332099914551 6.013899326324463 0.04331202805042267
5.025432586669922 6.018308162689209 0.04327177256345749
5.0044355392456055 6.018819808959961 0.04319712147116661
4.985307216644287 6.021620750427246 0.043161675333976746
4.957976341247559 6.013972282409668 0.04327505826950073
4.944734573364258 6.023649215698242 0.04329114407300949
4.9209489822387695 6.020537376403809 0.043185506016016006
4.903501510620117 6.02466344833374 0.04316522181034088
4.877485752105713 6.018916606903076 0.043031517416238785
4.864984512329102 6.029025077819824 0.043031517416238785
4.822170257568359 6.027734756469727 0.043161094188690186
4.804868221282959 6.031723976135254 0.04311559349298477
4.764849662780762 6.033452033996582 0.04296381026506424
4.749019622802734 6.0391316413879395 0.04294620081782341
4.707426071166992 6.038402557373047 0.04278075695037842
4.670912742614746 6.043887138366699 0.04297590255737305
4.6479644775390625 6.040057182312012 0.042873550206422806
4.611994743347168 6.045825004577637 0.042767394334077835
4.593303680419922 6.047307014465332 0.04270682856440544
4.547550678253174 6.039709568023682 0.042306363582611084
4.537654876708984 6.052664756774902 0.04260575771331787
4.520135879516602 6.056210041046143 0.042769476771354675
4.495397567749023 6.049213409423828 0.042459480464458466
4.472006797790527 6.044219493865967 0.0423513799905777
4.458386421203613 6.052486419677734 0.042338281869888306
4.437528610229492 6.050424098968506 0.042267486453056335
4.4270100593566895 6.062749862670898 0.04228542745113373
4.399592399597168 6.051980018615723 0.042428337037563324
4.384191989898682 6.057183742523193 0.04239117354154587
4.369570732116699 6.064214706420898 0.04237779974937439
4.346314430236816 6.058407783508301 0.042267050594091415
4.330920219421387 6.0634765625 0.04226133972406387
4.311123847961426 6.063103675842285 0.04216965287923813
4.2974724769592285 6.070540428161621 0.042158134281635284
4.279393672943115 6.072011470794678 0.04208794981241226
4.2615885734558105 6.073932647705078 0.04232791066169739
4.246718883514404 6.079533576965332 0.04229436069726944
4.223219871520996 6.073489189147949 0.04220173880457878
4.198583602905273 6.064870834350586 0.04207228869199753
4.1859025955200195 6.073446273803711 0.0420888215303421
4.170923233032227 6.079465389251709 0.0420389249920845
4.146491050720215 6.0708208084106445 0.04195329546928406
4.130111217498779 6.074200630187988 0.04218236729502678
4.112408638000488 6.0757036209106445 0.04211709648370743
4.097440719604492 6.080735206604004 0.0420677587389946
4.0807976722717285 6.083577632904053 0.042051251977682114
4.066041469573975 6.089320182800293 0.04201940447092056
4.049595832824707 6.09202766418457 0.04199037700891495
4.019711017608643 6.075181007385254 0.041802093386650085
4.006855487823486 6.0831451416015625 0.042074382305145264
3.9913792610168457 6.0871100425720215 0.042038414627313614
3.97170352935791 6.085413932800293 0.04196683689951897
3.9551150798797607 6.087559700012207 0.041940800845623016
3.9444587230682373 6.099640846252441 0.04196194186806679
3.9204554557800293 6.090202331542969 0.04180554673075676
3.9049177169799805 6.093811988830566 0.04181070998311043
3.887474536895752 6.095215797424316 0.04174608737230301
3.874298095703125 6.102452278137207 0.04175578057765961
3.8629345893859863 6.112550258636475 0.04174022749066353
3.829988718032837 6.0891828536987305 0.04179117828607559
3.8216514587402344 6.103996276855469 0.0418442077934742
3.7997913360595703 6.097176551818848 0.04175872355699539
3.7861032485961914 6.10422420501709 0.041732363402843475
3.763554334640503 6.096076011657715 0.04163074493408203
3.7438292503356934 6.093206882476807 0.0415659137070179
3.729372501373291 6.098013401031494 0.041964203119277954
3.720155715942383 6.111400127410889 0.04199524223804474
3.6981112957000732 6.104508876800537 0.0419064499437809
3.687178134918213 6.115060806274414 0.04193199798464775
3.664350986480713 6.106175899505615 0.04180194437503815
3.6531736850738525 6.11677360534668 0.04181359335780144
3.629265308380127 6.10548734664917 0.041948702186346054
3.6150870323181152 6.111320495605469 0.04192420840263367
3.5990142822265625 6.113064289093018 0.0418928787112236
3.581754684448242 6.11272668838501 0.0418521873652935
3.5736584663391113 6.128889083862305 0.04191059619188309
3.5530452728271484 6.122700214385986 0.04180915653705597
3.532046318054199 6.116213798522949 0.04195773974061012
3.5098977088928223 6.107452869415283 0.04184369370341301
3.504225969314575 6.126979827880859 0.041695915162563324
3.4885623455047607 6.129575729370117 0.04164039343595505
3.4696617126464844 6.1262688636779785 0.041830021888017654
3.452517032623291 6.125606536865234 0.041777364909648895
3.4306387901306152 6.117303848266602 0.04167807474732399
3.4182639122009277 6.124996185302734 0.041664041578769684
3.3988256454467773 6.119975566864014 0.04160388559103012
3.3874855041503906 6.130373954772949 0.04185512661933899
3.377011775970459 6.141491889953613 0.04187770187854767
3.3580942153930664 6.137734889984131 0.04179715737700462
3.336104154586792 6.128081321716309 0.042058542370796204
3.320253849029541 6.129220008850098 0.04199667274951935
3.30464768409729 6.13127326965332 0.04200070723891258
23.138742446899414 0.006401988677680492 0.06745658069849014
23.110191345214844 0.055763207376003265 0.06733360141515732
23.082069396972656 0.10359594970941544 0.06722541898488998
23.03139877319336 0.1511649787425995 0.06703699380159378
22.989009857177734 0.2477111518383026 0.06685806065797806
22.945812225341797 0.3915261924266815 0.06658100336790085
22.45761489868164 1.186124563217163 0.0643625408411026
22.416996002197266 1.2306342124938965 0.06420020759105682
22.35665512084961 1.3217811584472656 0.06402486562728882
22.250301361083984 1.4559154510498047 0.06311789900064468
22.178913116455078 1.5443453788757324 0.06272047758102417
22.14752960205078 1.589080810546875 0.06267186999320984
22.08479881286621 1.6780964136123657 0.06176234036684036
22.066139221191406 1.7227421998977661 0.06165783479809761
22.024761199951172 1.7655038833618164 0.061503149569034576
21.994659423828125 1.8103866577148438 0.06141861900687218
21.974567413330078 1.8546515703201294 0.06135547533631325
21.94460105895996 1.8986167907714844 0.06060900539159775
21.9112548828125 1.9422770738601685 0.0605119913816452
21.882305145263672 1.985486626625061 0.061837855726480484
21.856834411621094 2.0302600860595703 0.06112142652273178
21.833955764770508 2.0738449096679688 0.06098918616771698
21.817367553710938 2.1179630756378174 0.060854606330394745
21.765777587890625 2.1598989963531494 0.060783080756664276
21.730194091796875 2.2480998039245605 0.06065110117197037
21.697261810302734 2.2909340858459473 0.060564134269952774
21.67495346069336 2.3340694904327393 0.05992908403277397
21.59813690185547 2.463247299194336 0.05838717147707939
21.520742416381836 2.5462775230407715 0.05818358436226845
21.489116668701172 2.5877652168273926 0.0580575093626976
21.434478759765625 2.672811985015869 0.05659761279821396
21.349781036376953 2.798664093017578 0.056394174695014954
21.273174285888672 2.925377130508423 0.05614703521132469
21.202743530273438 3.0516252517700195 0.05672584846615791
21.110504150390625 3.174652338027954 0.055825427174568176
21.051128387451172 3.3011879920959473 0.05557040125131607
20.994060516357422 3.3821730613708496 0.054835401475429535
20.985225677490234 3.4261586666107178 0.05487080663442612
20.919553756713867 3.505949020385742 0.05236857756972313
20.8927001953125 3.546038866043091 0.05225098878145218
20.833377838134766 3.6263012886047363 0.052148155868053436
20.82027244567871 3.668551445007324 0.051524996757507324
20.78749656677246 3.7078661918640137 0.050709068775177
20.769573211669922 3.7498717308044434 0.05065040662884712
20.73952865600586 3.788905143737793 0.05059940367937088
20.71063804626465 3.8286519050598145 0.05051502585411072
20.69528579711914 3.870957851409912 0.05051799491047859
20.673076629638672 3.9112234115600586 0.05042745918035507
20.64191436767578 3.9510207176208496 0.05037979036569595
20.613191604614258 3.989884376525879 0.05169719085097313
20.58737564086914 4.029821395874023 0.05035248398780823
20.562639236450195 4.070016860961914 0.05025169998407364
20.52753257751465 4.107353210449219 0.05021937936544418
20.50225257873535 4.147153854370117 0.05011891573667526
20.487407684326172 4.189136505126953 0.05012485012412071
20.465585708618164 4.228939056396484 0.05008454993367195
20.429786682128906 4.267068386077881 0.05001705884933472
20.364839553833008 4.297627925872803 0.04975002259016037
20.279827117919922 4.324251174926758 0.048768844455480576
20.220901489257812 4.356287002563477 0.048439737409353256
20.147462844848633 4.384238243103027 0.04530049115419388
20.09762954711914 4.4176716804504395 0.0449521504342556
20.016555786132812 4.444127559661865 0.044598471373319626
19.943954467773438 4.4714579582214355 0.04426658898591995
19.770034790039062 4.51999568939209 0.04365551471710205
19.64413833618164 4.534128665924072 0.04273708164691925
19.409217834472656 4.5660858154296875 0.042213667184114456
19.275386810302734 4.577384948730469 0.04142756015062332
18.921005249023438 4.619075298309326 0.04064910486340523
18.677104949951172 4.642965316772461 0.041452061384916306
18.352283477783203 4.6849141120910645 0.03953764587640762
18.014272689819336 4.719452381134033 0.03880738466978073
17.69510841369629 4.755560874938965 0.038157977163791656
17.477977752685547 4.775577545166016 0.035259731113910675
17.380748748779297 4.788435459136963 0.03506183251738548
17.188386917114258 4.812777042388916 0.03474893420934677
17.073789596557617 4.819552421569824 0.03453247249126434
16.96436309814453 4.826695919036865 0.033843640238046646
16.881940841674805 4.841626167297363 0.0336323007941246
16.788251876831055 4.853107452392578 0.03286232054233551
16.682769775390625 4.8606343269348145 0.03261952102184296
16.58728790283203 4.870800018310547 0.032515160739421844
16.485124588012695 4.877982139587402 0.032294757664203644
16.389907836914062 4.887297630310059 0.03211161494255066
16.296432495117188 4.8968825340271 0.0330674909055233
16.20470428466797 4.906007289886475 0.03244602307677269
16.1022891998291 4.911971569061279 0.03225570172071457
16.015277862548828 4.922381401062012 0.03211633116006851
15.920969009399414 4.930044174194336 0.03190039098262787
15.845638275146484 4.943373680114746 0.03177283704280853
15.758441925048828 4.9520792961120605 0.03159744292497635
15.671991348266602 4.961129188537598 0.03142084926366806
15.57394790649414 4.966264247894287 0.030812302604317665
15.500720977783203 4.978375434875488 0.03007599711418152
15.409638404846191 4.984875202178955 0.029914570972323418
15.323076248168945 4.992606163024902 0.028908921405673027
15.23376178741455 4.9989471435546875 0.028796471655368805
15.160329818725586 5.010303020477295 0.028576282784342766
15.082225799560547 5.019230365753174 0.028109557926654816
14.994022369384766 5.024906158447266 0.027913067489862442
14.909562110900879 5.031612873077393 0.027798186987638474
14.83710765838623 5.041481971740723 0.027657752856612206
14.75521469116211 5.048273086547852 0.027529824525117874
14.607962608337402 5.06627893447876 0.027295347303152084
14.516997337341309 5.068937301635742 0.027118783444166183
14.365374565124512 5.083970069885254 0.026460330933332443
14.154060363769531 5.109535217285156 0.02660941891372204
14.002368927001953 5.121531963348389 0.026348581537604332
13.938623428344727 5.131036758422852 0.02622344344854355
13.788859367370605 5.14194917678833 0.025598499923944473
13.575881958007812 5.159972667694092 0.02483530342578888
13.373029708862305 5.179320335388184 0.024117901921272278
13.317937850952148 5.190321922302246 0.024038024246692657
13.236907958984375 5.1908135414123535 0.0239107683300972
13.183552742004395 5.2020087242126465 0.02384800836443901
13.113460540771484 5.205827713012695 0.02371857315301895
13.04150390625 5.209016799926758 0.02324194833636284
12.984431266784668 5.218012809753418 0.023145070299506187
12.911712646484375 5.219937324523926 0.022549033164978027
12.861814498901367 5.231239318847656 0.022436434403061867
12.787351608276367 5.232422351837158 0.02235492318868637
12.729909896850586 5.240178108215332 0.02223999798297882
12.667213439941406 5.245136737823486 0.02313326671719551
12.606498718261719 5.2511820793151855 0.022603727877140045
12.54353141784668 5.255914688110352 0.022535528987646103
12.476888656616211 5.258964538574219 0.02244291640818119
12.421833038330078 5.266143798828125 0.02234276756644249
12.357186317443848 5.269400596618652 0.022232800722122192
12.292465209960938 5.272481918334961 0.0221470408141613
12.237380981445312 5.279331207275391 0.02205815538764
12.181631088256836 5.2852911949157715 0.021622775122523308
12.1311616897583 5.293835163116455 0.021565627306699753
12.062265396118164 5.29397439956665 0.02176334150135517
12.012896537780762 5.302563667297363 0.02167552337050438
11.952459335327148 5.305549621582031 0.021612409502267838
11.891817092895508 5.308574676513672 0.021175595000386238
11.836698532104492 5.313948631286621 0.02110254392027855
11.772632598876953 5.314941883087158 0.020559998229146004
11.723760604858398 5.322193145751953 0.020435400307178497
11.659809112548828 5.322861671447754 0.020378723740577698
11.61750602722168 5.3330793380737305 0.020330822095274925
11.504898071289062 5.339795112609863 0.019821519032120705
11.453662872314453 5.345298767089844 0.019710522145032883
11.339241027832031 5.3498053550720215 0.019553784281015396
11.279739379882812 5.350741386413574 0.020363228395581245
11.17954158782959 5.3610029220581055 0.019785046577453613
11.13083267211914 5.366083145141602 0.019367765635252
11.025433540344238 5.372612953186035 0.019241003319621086
10.930305480957031 5.383337497711182 0.019074702635407448
10.882198333740234 5.3877339363098145 0.01898532547056675
10.787059783935547 5.397314071655273 0.01919541135430336
10.732625961303711 5.397955417633057 0.019106414169073105
10.63016128540039 5.402633190155029 0.01897057518362999
10.585332870483398 5.407519340515137 0.018888192251324654
10.489557266235352 5.414416790008545 0.01844205893576145
10.447336196899414 5.420572280883789 0.018389638513326645
10.394170761108398 5.42073917388916 0.01832355186343193
10.354696273803711 5.427515029907227 0.018252823501825333
10.315336227416992 5.434660911560059 0.017797086387872696
10.253973007202148 5.429890155792236 0.01773012802004814
10.212555885314941 5.435581207275391 0.017659027129411697
10.171544075012207 5.44087028503418 0.017294496297836304
10.117210388183594 5.439180374145508 0.01805925741791725
10.07448959350586 5.443646430969238 0.01755986362695694
10.029619216918945 5.446661472320557 0.01748579926788807
9.994525909423828 5.45449161529541 0.01747826673090458
9.939836502075195 5.451896667480469 0.01738903298974037
9.902692794799805 5.458623886108398 0.017373131588101387
9.857831954956055 5.460598945617676 0.016988221555948257
9.81267261505127 5.462674140930176 0.01691056601703167
9.772937774658203 5.4674859046936035 0.01683979481458664
9.738175392150879 5.475050926208496 0.01677563786506653
9.691787719726562 5.475805282592773 0.017342228442430496
9.653718948364258 5.480755805969238 0.017281677573919296
9.602924346923828 5.478744983673096 0.01720559410750866
9.57137680053711 5.487436771392822 0.017181847244501114
9.525045394897461 5.487168312072754 0.01683230698108673
9.484514236450195 5.490508079528809 0.016771310940384865
9.457958221435547 5.501701354980469 0.016725590452551842
9.401098251342773 5.494767665863037 0.016636375337839127
9.372809410095215 5.505129814147949 0.016659336164593697
9.33279037475586 5.507704734802246 0.016536248847842216
9.281126976013184 5.503654479980469 0.016489392146468163
9.242780685424805 5.507199287414551 0.01577390730381012
9.22142219543457 5.520434856414795 0.015749411657452583
9.177360534667969 5.520397186279297 0.01566370017826557
9.134746551513672 5.520936012268066 0.016026891767978668
9.061663627624512 5.528677940368652 0.015932098031044006
9.015679359436035 5.526651382446289 0.0158388614654541
8.948619842529297 5.5375261306762695 0.015518593601882458
8.906282424926758 5.536919593811035 0.015443856827914715
8.833587646484375 5.543442726135254 0.015384984202682972
8.800666809082031 5.548272132873535 0.015324008651077747
8.757460594177246 5.547211647033691 0.015529578551650047
8.713151931762695 5.5445146560668945 0.015455188229680061
8.646371841430664 5.553317070007324 0.01538549829274416
8.615117073059082 5.558528900146484 0.015061521902680397
8.555603981018066 5.571301460266113 0.014640582725405693
8.50586223602295 5.564080238342285 0.014583209529519081
8.448282241821289 5.577358722686768 0.014506954699754715
8.399928092956543 5.570499420166016 0.014496621675789356
8.378092765808105 5.581825256347656 0.014168688096106052
8.326496124267578 5.572432994842529 0.014097615145146847
8.302952766418457 5.582080364227295 0.014110630378127098
8.27103042602539 5.585888862609863 0.01443091593682766
8.24155044555664 5.590917587280273 0.014354333281517029
8.209511756896973 5.594517230987549 0.014322413131594658
8.179208755493164 5.599069595336914 0.014024505391716957
8.134383201599121 5.593630790710449 0.013969083316624165
8.101534843444824 5.5961503982543945 0.013901936821639538
8.0731201171875 5.60130500793457 0.013923170045018196
8.034942626953125 5.599971771240234 0.013868261128664017
8.00257682800293 5.602433681488037 0.013813961297273636
7.965546607971191 5.601177215576172 0.013513505458831787
7.939143657684326 5.6076860427856445 0.013767819851636887
7.909492015838623 5.611690521240234 0.013718849048018456
7.876297950744629 5.6127471923828125 0.013665839098393917
7.852063179016113 5.620808124542236 0.013675016351044178
7.81822395324707 5.621159076690674 0.013372533023357391
7.778353691101074 5.617431640625 0.013304673135280609
7.7521071434021 5.623297691345215 0.013280459679663181
7.707041263580322 5.615053176879883 0.013224906288087368
7.686023712158203 5.624608039855957 0.013205867260694504
7.657685279846191 5.628614902496338 0.013170777820050716
7.629694938659668 5.632465362548828 0.013158622197806835
7.590583324432373 5.628683567047119 0.012867646291851997
7.5649213790893555 5.6340227127075195 0.012845535762608051
7.5320611000061035 5.633888244628906 0.012456860393285751
7.514110565185547 5.645534515380859 0.013121524825692177
7.472804546356201 5.638799667358398 0.012751651927828789
7.458430290222168 5.652693748474121 0.01247826125472784
7.422237396240234 5.649855136871338 0.012408404611051083
7.392132759094238 5.6512064933776855 0.012425791472196579
7.361387729644775 5.652356147766113 0.012353169731795788
7.330644607543945 5.653273582458496 0.012360676191747189
7.267766952514648 5.653753280639648 0.012287357822060585
7.247727394104004 5.662345886230469 0.011994034051895142
7.192450523376465 5.668100357055664 0.011962969787418842
7.167611122131348 5.672676086425781 0.01168763730674982
7.131455421447754 5.668880462646484 0.011636637151241302
7.100726127624512 5.668539047241211 0.011646424420177937
7.076473236083984 5.673261642456055 0.011608329601585865
7.05714225769043 5.682571887969971 0.01159619353711605
7.032703399658203 5.686990261077881 0.011590614914894104
6.960583686828613 5.677319526672363 0.011275893077254295
6.9373779296875 5.682406425476074 0.01124938391149044
6.8762898445129395 5.680925369262695 0.011208181269466877
6.853794097900391 5.686312675476074 0.01112631056457758
6.818446159362793 5.681621551513672 0.010884121991693974
6.796963691711426 5.687660217285156 0.010875866748392582
6.774021625518799 5.692404747009277 0.01083774957805872
6.746715545654297 5.694093704223633 0.010812600143253803
6.712186336517334 5.688843727111816 0.010800176300108433
6.699838161468506 5.702718257904053 0.010770296677947044
6.664612770080566 5.696926116943359 0.010761024430394173
6.635735034942627 5.696115970611572 0.01048093568533659
6.607956886291504 5.696833610534668 0.010465533472597599
6.586101531982422 5.701860427856445 0.010464882478117943
6.560791969299316 5.704216003417969 0.010211385786533356
6.532809734344482 5.704033851623535 0.009945526719093323
6.5047125816345215 5.703333377838135 0.009912016801536083
6.489053726196289 5.713871002197266 0.00989499781280756
6.455489158630371 5.708439350128174 0.009883260354399681
6.441659927368164 5.720075607299805 0.009867461398243904
6.417666435241699 5.723335266113281 0.009863493032753468
6.385592460632324 5.718565940856934 0.009578323923051357
6.3704423904418945 5.728865623474121 0.009598993696272373
6.337086200714111 5.7234015464782715 0.009561553597450256
6.321000099182129 5.732734203338623 0.009560409933328629
6.297403335571289 5.735602378845215 0.009530154056847095
6.255765438079834 5.721771717071533 0.00950442161411047
6.243795394897461 5.7346649169921875 0.009254087693989277
6.224002361297607 5.741045951843262 0.009291654452681541
6.198207378387451 5.741105079650879 0.009235616773366928
6.166581630706787 5.73563289642334 0.009204238653182983
6.145737648010254 5.740780830383301 0.009218407794833183
6.119067192077637 5.739692687988281 0.009173884987831116
6.097724914550781 5.743507385253906 0.008961140178143978
6.063657760620117 5.735913276672363 0.008921819739043713
6.049408435821533 5.7462687492370605 0.008908769115805626
5.997475624084473 5.745179176330566 0.008868454024195671
5.982570171356201 5.754755973815918 0.008231956511735916
5.959200382232666 5.7568359375 0.00820031575858593
5.92814302444458 5.750663757324219 0.008184041827917099
5.886380195617676 5.758466720581055 0.0079331174492836
5.867356777191162 5.763733863830566 0.007919736206531525
5.8292999267578125 5.750870227813721 0.007912853732705116
5.81380558013916 5.7594404220581055 0.007872488349676132
5.797337532043457 5.767012596130371 0.007896549068391323
5.773341655731201 5.767732620239258 0.007886428385972977
5.743983268737793 5.762268543243408 0.007832520641386509
5.722231864929199 5.764322280883789 0.007629687897861004
5.702337265014648 5.768877029418945 0.00763475988060236
5.677150726318359 5.7672858238220215 0.007577324286103249
5.6600446701049805 5.774233818054199 0.00786724966019392
5.635629653930664 5.773541450500488 0.007862166501581669
5.608192443847656 5.769335746765137 0.007609114516526461
5.596072673797607 5.781528472900391 0.007612563669681549
5.568033218383789 5.776498794555664 0.007588679902255535
5.551063537597656 5.782863616943359 0.007553153671324253
5.523504734039307 5.77881383895874 0.007565231993794441
5.511771202087402 5.7905473709106445 0.007552342489361763
5.485109806060791 5.78653621673584 0.007528903894126415
5.4612579345703125 5.786079406738281 0.007316043600440025
5.441520690917969 5.789189338684082 0.006896725855767727
5.412533760070801 5.782756805419922 0.006389678921550512
5.396707534790039 5.790184020996094 0.006376821082085371
5.383691787719727 5.80030632019043 0.0063656894490122795
5.361041069030762 5.8007049560546875 0.006374218501150608
5.330310821533203 5.791520118713379 0.006331309676170349
5.317934036254883 5.8026018142700195 0.006343112327158451
5.2976603507995605 5.804917812347412 0.006120438687503338
5.26839542388916 5.796965599060059 0.006111107766628265
5.253400802612305 5.80533504486084 0.006119876634329557
5.231250762939453 5.805026054382324 0.006094353273510933
5.205004692077637 5.800058364868164 0.006069561466574669
5.189139366149902 5.8072896003723145 0.006062619853764772
5.173147201538086 5.813628196716309 0.006053755059838295
5.144937992095947 5.8061442375183105 0.0061250836588442326
5.1329193115234375 5.817570686340332 0.006108197383582592
5.107579231262207 5.813122272491455 0.006111762952059507
5.088510036468506 5.816128730773926 0.0060914563946425915
5.065860271453857 5.814847469329834 0.006095299497246742
5.043607234954834 5.8136186599731445 0.00606130063533783
5.022180080413818 5.813965320587158 0.005876725539565086
5.002728462219238 5.815800189971924 0.005855238065123558
4.986150741577148 5.82091760635376 0.005850757472217083
4.964700698852539 5.821000099182129 0.005834180861711502
4.950796127319336 5.829154014587402 0.005242924205958843
4.923884391784668 5.8219099044799805 0.005228247959166765
4.905683517456055 5.8255839347839355 0.005222366191446781
4.888323783874512 5.829479217529297 0.005208283197134733
4.8449859619140625 5.827469348907471 0.004992728587239981
4.830069541931152 5.834113121032715 0.004991043359041214
4.813216209411621 5.839105129241943 0.004990130662918091
4.788077354431152 5.833230018615723 0.004976748488843441
4.751007080078125 5.838029861450195 0.004961478523910046
4.7390313148498535 5.8480610847473145 0.004959587939083576
4.713497638702393 5.842021942138672 0.0047654276713728905
4.684907913208008 5.831307411193848 0.004752291366457939
4.672379970550537 5.840496063232422 0.004999115597456694
4.649492263793945 5.837405681610107 0.004984792787581682
4.631854057312012 5.840088844299316 0.004989687353372574
4.61097526550293 5.8386101722717285 0.004999107681214809
4.5908427238464355 5.838717937469482 0.004971158690750599
4.576714992523193 5.845675468444824 0.004506404045969248
4.553207874298096 5.841316223144531 0.00476789940148592
4.526883602142334 5.8324666023254395 0.004494119435548782
4.517233848571777 5.845035076141357 0.004490502178668976
4.501945495605469 5.851044178009033 0.0044761598110198975
4.4823102951049805 5.850605487823486 0.004085218533873558
4.465816497802734 5.854200839996338 0.004098279867321253
4.44691801071167 5.855323791503906 0.003877471899613738
4.428213119506836 5.855885982513428 0.0038923469837754965
4.410579681396484 5.857795715332031 0.0038758430164307356
4.394279479980469 5.862165927886963 0.0038918876089155674
4.376415252685547 5.863648414611816 0.003872727509588003
4.34758996963501 5.851062774658203 0.0038562649860978127
4.335755348205566 5.860499382019043 0.003862790297716856
4.321719169616699 5.866952896118164 0.003665426978841424
4.307750701904297 5.874228000640869 0.0036777572240680456
4.280487060546875 5.862523078918457 0.0036615862045437098
4.261876106262207 5.863292694091797 0.003661633003503084
4.250550270080566 5.873299598693848 0.0036477819085121155
4.222783088684082 5.860499382019043 0.0038999563548713923
4.209285736083984 5.868157386779785 0.0038852842990309
4.1931843757629395 5.871398448944092 0.0037010947708040476
4.17561149597168 5.872520446777344 0.003694671206176281
4.162169933319092 5.8801751136779785 0.0036917682737112045
4.145540237426758 5.882530212402344 0.0036981916055083275
4.124870777130127 5.879072189331055 0.0036885777954012156
4.106252670288086 5.879208564758301 0.003666223492473364
4.089094638824463 5.880600452423096 0.003681899979710579
4.076766014099121 5.889673233032227 0.0036668386310338974
4.054842472076416 5.884055137634277 0.0032932234462350607
4.031888961791992 5.876811504364014 0.0032865493558347225
4.019325256347656 5.885411262512207 0.0032865493558347225
4.010763168334961 5.89912223815918 0.0032842950895428658
3.9860029220581055 5.888951301574707 0.0032938062213361263
3.9673943519592285 5.888517379760742 0.0032766603399068117
3.949432849884033 5.888190269470215 0.003282147692516446
3.937237024307251 5.896422386169434 0.0030850134789943695
3.920747756958008 5.898975372314453 0.0030823720153421164
3.8950464725494385 5.8867692947387695 0.003075620625168085
3.8761672973632812 5.8855180740356445 0.0030728932470083237
3.865908622741699 5.896544456481934 0.003055636305361986
3.842352867126465 5.887223243713379 0.003055178327485919
3.8271400928497314 5.891373634338379 0.003057533409446478
3.8069968223571777 5.8870720863342285 0.0028763420414179564
3.7956299781799316 5.8970842361450195 0.002880050567910075
3.769775390625 5.8837080001831055 0.0028702986892312765
3.763845920562744 5.9013776779174805 0.0028556298930197954
3.751216411590576 5.909382343292236 0.002858920255675912
3.7311487197875977 5.904815673828125 0.0028557772748172283
3.709660530090332 5.897876739501953 0.002863583154976368
3.7005906105041504 5.911438941955566 0.0028603277169167995
3.674497127532959 5.896930694580078 0.0026789952535182238
3.658980369567871 5.89926815032959 0.002667379565536976
3.646907329559326 5.907941818237305 0.0026690028607845306
3.6318840980529785 5.911013126373291 0.002659473568201065
3.6069133281707764 5.898585796356201 0.0026540374383330345
3.5957093238830566 5.907773971557617 0.0026445663534104824
3.570465564727783 5.893802642822266 0.0024675363674759865
3.5633738040924072 5.910551071166992 0.002459238050505519
3.551363468170166 5.918370723724365 0.0024600184988230467
3.534301996231079 5.91773796081543 0.0024635326117277145
3.5154917240142822 5.914909362792969 0.002460561692714691
3.4967360496520996 5.911248207092285 0.002451730892062187
3.479346752166748 5.910150527954102 0.0024490905925631523
3.4652793407440186 5.914773941040039 0.002451446373015642
3.4529497623443604 5.921870231628418 0.002276974730193615
3.432507038116455 5.915817737579346 0.0022661681286990643
3.4186182022094727 5.9201483726501465 0.0025123259983956814
6.458374977111816 -12.211495399475098 0.027417849749326706
6.470365524291992 -12.172975540161133 0.02769085392355919
6.501223087310791 -12.168237686157227 0.027736883610486984
6.527325630187988 -12.156330108642578 0.02725008688867092
6.556639194488525 -12.149330139160156 0.027274226769804955
6.5822954177856445 -12.135799407958984 0.027621153742074966
6.620428562164307 -12.145895957946777 0.027650047093629837
6.665389060974121 -12.167200088500977 0.02776424214243889
6.69842004776001 -12.166764259338379 0.02776486799120903
6.731513977050781 -12.166028022766113 0.028666852042078972
6.763420104980469 -12.163301467895508 0.028707725927233696
6.800335884094238 -12.170159339904785 0.028718452900648117
6.825151443481445 -12.154254913330078 0.028715364634990692
6.861691474914551 -12.15942096710205 0.029141627252101898
6.895383834838867 -12.160099029541016 0.02919076941907406
6.9288434982299805 -12.159222602844238 0.029187878593802452
6.957472324371338 -12.150054931640625 0.029236149042844772
6.989532947540283 -12.147515296936035 0.029598092660307884
7.02366828918457 -12.146739959716797 0.029645387083292007
7.058820724487305 -12.149282455444336 0.029673468321561813
7.126565456390381 -12.147815704345703 0.028887508437037468
7.159486770629883 -12.146108627319336 0.029289953410625458
7.222228050231934 -12.135428428649902 0.029336167499423027
7.257498264312744 -12.137310028076172 0.02936333231627941
7.9611968994140625 -12.072795867919922 0.03153333067893982
8.032804489135742 -12.070466995239258 0.03158891201019287
8.061750411987305 -12.059627532958984 0.03161698579788208
8.143128395080566 -12.071022033691406 0.032108791172504425
8.179584503173828 -12.070955276489258 0.03214161843061447
8.24826431274414 -12.062604904174805 0.03223620727658272
8.287521362304688 -12.065279006958008 0.03263632953166962
8.35520076751709 -12.055625915527344 0.03269036114215851
8.390525817871094 -12.052181243896484 0.03273448720574379
8.42453670501709 -12.046985626220703 0.03279070928692818
8.466537475585938 -12.052797317504883 0.03322026878595352
8.500700950622559 -12.048198699951172 0.0332646518945694
8.53818416595459 -12.047515869140625 0.03330542519688606
8.572182655334473 -12.041533470153809 0.03332735598087311
8.600126266479492 -12.02787971496582 0.033375319093465805
8.646673202514648 -12.039440155029297 0.0338112972676754
8.678750991821289 -12.03042984008789 0.03383437916636467
8.717329025268555 -12.030559539794922 0.03350607678294182
8.787871360778809 -12.021682739257812 0.03399328142404556
8.827873229980469 -12.023305892944336 0.03402191027998924
8.938920021057129 -12.015471458435059 0.03416338562965393
9.04909896850586 -12.005231857299805 0.03469499573111534
9.163217544555664 -11.99894905090332 0.03466527909040451
9.738100051879883 -11.951879501342773 0.03621085733175278
9.853740692138672 -11.93973445892334 0.03674180060625076
9.936355590820312 -11.937078475952148 0.03687159717082977
9.969358444213867 -11.926305770874023 0.03635631874203682
10.052833557128906 -11.923755645751953 0.03689102828502655
10.096076965332031 -11.92474365234375 0.03694503381848335
10.167970657348633 -11.907605171203613 0.03701506927609444
10.213764190673828 -11.911092758178711 0.03708840534090996
10.291866302490234 -11.900382995605469 0.037618592381477356
10.336793899536133 -11.901470184326172 0.037674978375434875
10.377007484436035 -11.897193908691406 0.03773263469338417
10.419668197631836 -11.8961763381958 0.03781270235776901
10.45464038848877 -11.88539981842041 0.037847135215997696
10.496101379394531 -11.882104873657227 0.0378958135843277
10.537089347839355 -11.877885818481445 0.038362231105566025
10.57754135131836 -11.873758316040039 0.03882063552737236
10.622991561889648 -11.874458312988281 0.03887651115655899
10.666257858276367 -11.872300148010254 0.038962945342063904
10.696832656860352 -11.856744766235352 0.03896406665444374
10.752291679382324 -11.86799430847168 0.03910212963819504
10.830167770385742 -11.853242874145508 0.039624929428100586
10.961612701416016 -11.846678733825684 0.039253562688827515
11.083608627319336 -11.828479766845703 0.03982318192720413
11.895184516906738 -11.770177841186523 0.04224293306469917
12.029167175292969 -11.754011154174805 0.04288392886519432
12.121471405029297 -11.744823455810547 0.043046481907367706
12.167764663696289 -11.74082088470459 0.043138228356838226
12.272727966308594 -11.742696762084961 0.043744686990976334
12.307931900024414 -11.727553367614746 0.04377656802535057
12.349494934082031 -11.717523574829102 0.043833665549755096
12.407479286193848 -11.723109245300293 0.04398326203227043
12.447668075561523 -11.712284088134766 0.04401472583413124
12.497657775878906 -11.709688186645508 0.044103920459747314
12.546760559082031 -11.706294059753418 0.04416295886039734
12.595052719116211 -11.701725006103516 0.04428959637880325
12.643289566040039 -11.697148323059082 0.04478494077920914
12.695026397705078 -11.696213722229004 0.044260282069444656
12.73731517791748 -11.685568809509277 0.0452394001185894
12.789234161376953 -11.68381404876709 0.04536513239145279
12.884740829467773 -11.67249584197998 0.04592118412256241
12.938507080078125 -11.671810150146484 0.04602289944887161
13.044095993041992 -11.668399810791016 0.04623676463961601
13.087289810180664 -11.657638549804688 0.04634091258049011
13.18896484375 -11.64896011352539 0.04696018621325493
13.344789505004883 -11.63807487487793 0.047276124358177185
13.50611686706543 -11.630096435546875 0.046938661485910416
14.460906982421875 -11.530364990234375 0.050406478345394135
14.630313873291016 -11.515737533569336 0.050718821585178375
14.695930480957031 -11.518075942993164 0.05086953192949295
14.794260025024414 -11.494895935058594 0.05152839422225952
14.856084823608398 -11.492729187011719 0.05167894810438156
14.91267204284668 -11.486509323120117 0.05177631601691246
14.96780014038086 -11.479561805725098 0.05190473049879074
15.022464752197266 -11.471210479736328 0.052015163004398346
15.085512161254883 -11.469263076782227 0.052149295806884766
15.140868186950684 -11.461845397949219 0.05224625766277313
15.205942153930664 -11.460700988769531 0.05286725237965584
15.256668090820312 -11.448755264282227 0.05295635387301445
15.313480377197266 -11.441791534423828 0.05407257750630379
15.381610870361328 -11.441575050354004 0.054217349737882614
15.436956405639648 -11.433059692382812 0.054265424609184265
15.507607460021973 -11.43478012084961 0.05379471927881241
15.568568229675293 -11.429319381713867 0.053882699459791183
15.62413215637207 -11.420289993286133 0.053991515189409256
15.678247451782227 -11.40915298461914 0.05415089800953865
15.741246223449707 -11.40449333190918 0.0542713962495327
15.857494354248047 -11.387802124023438 0.05447901785373688
15.927380561828613 -11.387351036071777 0.055194295942783356
16.041654586791992 -11.367266654968262 0.05540098249912262
16.105838775634766 -11.362614631652832 0.055523667484521866
16.228195190429688 -11.346879959106445 0.055795956403017044
16.290748596191406 -11.340356826782227 0.05594976246356964
17.48368263244629 -11.214832305908203 0.05881814658641815
17.618757247924805 -11.197027206420898 0.05912957713007927
17.702106475830078 -11.198492050170898 0.05989491939544678
17.834630966186523 -11.177440643310547 0.060197778046131134
17.899478912353516 -11.166414260864258 0.06039295345544815
18.05283546447754 -11.156744003295898 0.060734909027814865
18.127742767333984 -11.150232315063477 0.06089216470718384
18.198162078857422 -11.140918731689453 0.06102771684527397
18.270143508911133 -11.132927894592285 0.061137329787015915
18.34381675720215 -11.124795913696289 0.06136674806475639
18.417251586914062 -11.116477966308594 0.061527032405138016
18.49262237548828 -11.109678268432617 0.06165569648146629
18.556140899658203 -11.094606399536133 0.06180927902460098
18.63202667236328 -11.086909294128418 0.061993733048439026
18.703086853027344 -11.076703071594238 0.06214239075779915
18.769351959228516 -11.061857223510742 0.06153006851673126
18.864416122436523 -11.065202713012695 0.061736952513456345
18.946876525878906 -11.059889793395996 0.061904314905405045
19.0135440826416 -11.045316696166992 0.06208342686295509
19.090381622314453 -11.037031173706055 0.062266118824481964
19.162565231323242 -11.024866104125977 0.06245527043938637
19.24648666381836 -11.01939582824707 0.06256487965583801
19.397186279296875 -10.998128890991211 0.06358811259269714
19.483417510986328 -10.99299430847168 0.0637768805027008
19.716291427612305 -10.961555480957031 0.06510315090417862
21.24529266357422 -10.781999588012695 0.06645862758159637
21.686689376831055 -10.721210479736328 0.06835877895355225
21.962844848632812 -10.686445236206055 0.06893886625766754
22.06528091430664 -10.679716110229492 0.06926468014717102
22.151948928833008 -10.663315773010254 0.06854227930307388
22.24245834350586 -10.650086402893066 0.0693889856338501
22.344322204589844 -10.641919136047363 0.06962528079748154
22.43437957763672 -10.626073837280273 0.06983853131532669
22.528060913085938 -10.613264083862305 0.06818018108606339
22.613323211669922 -10.595169067382812 0.06836964935064316
22.7342529296875 -10.59364128112793 0.06868933886289597
22.836406707763672 -10.5836181640625 0.06891046464443207
22.933496475219727 -10.56987190246582 0.06914477795362473
23.03400421142578 -10.55758285522461 0.06937171518802643
23.115158081054688 -10.536788940429688 0.0695672333240509
23.22376823425293 -10.526434898376465 0.06979793310165405
23.32381820678711 -10.513493537902832 0.07005178928375244
23.41775894165039 -10.49642562866211 0.07025957852602005
23.523113250732422 -10.484357833862305 0.0695919618010521
23.636756896972656 -10.476269721984863 0.06989509612321854
23.84092903137207 -10.446857452392578 0.07099255174398422
23.941539764404297 -10.431774139404297 0.0721646398305893
24.48029136657715 -10.362113952636719 0.07343723624944687
24.819307327270508 -10.322114944458008 0.07429353892803192
25.135921478271484 -10.2689208984375 0.07202870398759842
25.720062255859375 -9.943998336791992 0.074746273458004
25.837879180908203 -9.803292274475098 0.07571548968553543
25.966585159301758 -9.66583251953125 0.07766555994749069
26.026432037353516 -9.563512802124023 0.07736575603485107
26.063610076904297 -9.51583480834961 0.07779337465763092
26.14805793762207 -9.422062873840332 0.0785360112786293
26.18393325805664 -9.373645782470703 0.0787988007068634
26.293804168701172 -9.288244247436523 0.07731102406978607
26.330656051635742 -9.239850997924805 0.07767549157142639
26.371334075927734 -9.190902709960938 0.07802429795265198
26.461254119873047 -9.098268508911133 0.0787140280008316
26.487136840820312 -9.044934272766113 0.0790330097079277
26.529314041137695 -8.997909545898438 0.07851649820804596
18.269773483276367 -6.110817909240723 0.04881148785352707
18.252910614013672 -6.063091278076172 0.04871527850627899
18.258750915527344 -6.021753311157227 0.049190402030944824
18.24933433532715 -5.976686477661133 0.049144066870212555
18.24745750427246 -5.934171199798584 0.04908818006515503
18.239177703857422 -5.888424873352051 0.04905979707837105
18.233882904052734 -5.844961166381836 0.04969288781285286
18.211055755615234 -5.753182888031006 0.04975467920303345
18.33606719970703 -5.750860214233398 0.05057954415678978
18.43893814086914 -5.697947025299072 0.051276013255119324
23.61840057373047 -7.136341094970703 0.08807166665792465
18.08782958984375 -5.341246604919434 0.04688357189297676
18.227832794189453 -5.009674072265625 0.047138504683971405
18.40389633178711 -4.933844566345215 0.04902281239628792
18.432260513305664 -4.817453384399414 0.049206286668777466
18.19305419921875 -4.6329345703125 0.04684407263994217
18.114185333251953 -4.531704902648926 0.04683960601687431
18.111255645751953 -4.491055488586426 0.04679631441831589
18.113250732421875 -4.450989723205566 0.04678194597363472
18.105979919433594 -4.408890724182129 0.046741336584091187
18.095014572143555 -4.3664631843566895 0.04670367017388344
18.095842361450195 -4.32577657699585 0.046030882745981216
18.087190628051758 -4.284048557281494 0.04599463939666748
18.14459800720215 -4.257899284362793 0.046124715358018875
