VERSION .7
FIELDS x y z
SIZE 4 4 4
TYPE F F F
COUNT 1 1 1
WIDTH 825
HEIGHT 1
VIEWPOINT 0 0 0 1 0 0 0
POINTS 825
DATA ascii
7.749228477478027 -10.329217910766602 -0.1697491556406021
7.781406402587891 -10.327394485473633 -0.1699846386909485
7.851131916046143 -10.329136848449707 -0.17214041948318481
7.875683784484863 -10.316926002502441 -0.17220939695835114
8.486931800842285 -10.287464141845703 -0.18634426593780518
8.542092323303223 -10.26594352722168 -0.18742001056671143
8.582576751708984 -10.271171569824219 -0.1882125437259674
8.65570068359375 -10.270465850830078 -0.19013124704360962
8.686837196350098 -10.264110565185547 -0.19072145223617554
8.749634742736816 -10.25045394897461 -0.19242137670516968
8.788322448730469 -10.252614974975586 -0.19280390441417694
8.876587867736816 -10.267755508422852 -0.19499611854553223
8.905572891235352 -10.257489204406738 -0.1956080198287964
8.946630477905273 -10.261110305786133 -0.1968664675951004
8.97187614440918 -10.247057914733887 -0.19695395231246948
9.016693115234375 -10.25454044342041 -0.19829632341861725
9.043033599853516 -10.240985870361328 -0.1987820863723755
9.090431213378906 -10.251705169677734 -0.19981074333190918
9.12842082977295 -10.25035285949707 -0.20100195705890656
9.158235549926758 -10.24096393585205 -0.2015724778175354
9.192848205566406 -10.236837387084961 -0.20194080471992493
9.238304138183594 -10.243350982666016 -0.20245781540870667
9.270851135253906 -10.236644744873047 -0.2035483717918396
9.311357498168945 -10.237905502319336 -0.20480802655220032
9.335472106933594 -10.221151351928711 -0.2048644721508026
9.382351875305176 -10.229766845703125 -0.2062746286392212
9.411258697509766 -10.217950820922852 -0.2064359188079834
9.462541580200195 -10.230371475219727 -0.20793943107128143
9.491409301757812 -10.218957901000977 -0.20849435031414032
9.57179069519043 -10.218854904174805 -0.2106337696313858
9.679058074951172 -10.204036712646484 -0.2128276526927948
9.791566848754883 -10.193532943725586 -0.2152213156223297
10.267279624938965 -10.16314697265625 -0.22486576437950134
10.39834976196289 -10.164264678955078 -0.22810789942741394
10.477092742919922 -10.155304908752441 -0.22978579998016357
10.518495559692383 -10.153185844421387 -0.23112379014492035
10.605268478393555 -10.151015281677246 -0.232985258102417
10.644109725952148 -10.145952224731445 -0.23337551951408386
10.733663558959961 -10.145383834838867 -0.23530182242393494
10.763362884521484 -10.131246566772461 -0.23639389872550964
10.844648361206055 -10.121960639953613 -0.23814645409584045
10.89053726196289 -10.12191104888916 -0.23959273099899292
10.940267562866211 -10.125333786010742 -0.24021780490875244
10.97979736328125 -10.119697570800781 -0.2415357232093811
11.06247329711914 -10.110064506530762 -0.24333059787750244
11.098058700561523 -10.1003999710083 -0.24231834709644318
11.143241882324219 -10.098085403442383 -0.2432514876127243
11.192623138427734 -10.100613594055176 -0.2443724274635315
11.232526779174805 -10.093734741210938 -0.24519853293895721
11.277167320251465 -10.091064453125 -0.246211975812912
11.326448440551758 -10.092914581298828 -0.24725230038166046
11.408093452453613 -10.079795837402344 -0.2490350753068924
11.456174850463867 -10.080022811889648 -0.25055912137031555
11.547050476074219 -10.07402229309082 -0.2525520920753479
11.599265098571777 -10.077260971069336 -0.25374698638916016
11.690895080566406 -10.070784568786621 -0.25576338171958923
11.829673767089844 -10.061473846435547 -0.25879061222076416
12.250007629394531 -10.025808334350586 -0.26668769121170044
12.401622772216797 -10.02037239074707 -0.2701151967048645
12.54395866394043 -10.005692481994629 -0.2732657194137573
12.646523475646973 -10.000648498535156 -0.2755644619464874
12.694558143615723 -9.995887756347656 -0.27669572830200195
12.787084579467773 -9.981790542602539 -0.2787845730781555
12.832189559936523 -9.974212646484375 -0.28030824661254883
12.900075912475586 -9.94011116027832 -0.2818700075149536
12.909134864807129 -9.904462814331055 -0.28161925077438354
12.937322616577148 -9.839810371398926 -0.28231990337371826
12.9274263381958 -9.789325714111328 -0.282642662525177
12.947309494018555 -9.761611938476562 -0.2826279401779175
12.966795921325684 -9.73416519165039 -0.28360170125961304
12.983033180236816 -9.703619003295898 -0.2835088074207306
12.989827156066895 -9.666187286376953 -0.28222429752349854
12.980088233947754 -9.617155075073242 -0.28202491998672485
12.987696647644043 -9.579882621765137 -0.2822844088077545
12.999689102172852 -9.547139167785645 -0.2825593948364258
13.018930435180664 -9.519743919372559 -0.28308674693107605
13.006025314331055 -9.467735290527344 -0.28236550092697144
13.021825790405273 -9.437955856323242 -0.28326481580734253
13.03013801574707 -9.360532760620117 -0.28356534242630005
13.059106826782227 -9.340320587158203 -0.2837725877761841
13.05951976776123 -9.257728576660156 -0.2839096188545227
13.069406509399414 -9.22404670715332 -0.2846844792366028
13.079227447509766 -9.148702621459961 -0.28503113985061646
13.094539642333984 -9.037349700927734 -0.28509265184402466
13.181593894958496 -8.733928680419922 -0.2866719961166382
13.198796272277832 -8.626416206359863 -0.28725871443748474
13.228006362915039 -8.52730941772461 -0.28768277168273926
13.25786304473877 -8.467733383178711 -0.28851500153541565
13.250473976135254 -8.424349784851074 -0.28849828243255615
13.267141342163086 -8.356698036193848 -0.28904974460601807
13.291439056396484 -8.255749702453613 -0.2898290157318115
13.278557777404785 -8.209611892700195 -0.289176344871521
13.29741096496582 -8.182561874389648 -0.289733350276947
13.283422470092773 -8.135494232177734 -0.2894846498966217
13.297574043273926 -8.105653762817383 -0.2899414300918579
13.29783821105957 -8.067512512207031 -0.29000547528266907
13.309951782226562 -8.037120819091797 -0.2904258966445923
13.301751136779785 -7.993941783905029 -0.2903063893318176
13.323774337768555 -7.969089031219482 -0.29032835364341736
13.322078704833984 -7.930585861206055 -0.2904513478279114
13.322412490844727 -7.892288684844971 -0.29051777720451355
13.334653854370117 -7.824956893920898 -0.29101794958114624
13.353728294372559 -7.7607316970825195 -0.29123517870903015
13.368646621704102 -7.694269180297852 -0.2917941212654114
13.376019477844238 -7.6616034507751465 -0.2920316457748413
13.38221263885498 -7.590481758117676 -0.29240506887435913
13.388750076293945 -7.557509422302246 -0.29271969199180603
13.40694808959961 -7.493504047393799 -0.2928466498851776
13.408007621765137 -7.383859634399414 -0.2932984232902527
13.454761505126953 -7.18958044052124 -0.2945929765701294
13.475074768066406 -7.091897487640381 -0.2958245575428009
13.484126091003418 -6.988766670227051 -0.2959810495376587
13.511396408081055 -6.895489692687988 -0.29654499888420105
13.524280548095703 -6.830428123474121 -0.2971203923225403
13.518133163452148 -6.79215145111084 -0.2971823811531067
13.537306785583496 -6.730532169342041 -0.2973939776420593
13.51646900177002 -6.685224533081055 -0.297550767660141
13.496105194091797 -6.639772891998291 -0.2968050241470337
13.556609153747559 -6.6341657638549805 -0.2978160083293915
13.556291580200195 -6.599177360534668 -0.2984285354614258
13.550270080566406 -6.560476303100586 -0.2979835867881775
13.564027786254883 -6.532425880432129 -0.29849326610565186
13.562423706054688 -6.496454238891602 -0.2985679507255554
13.538421630859375 -6.449996471405029 -0.2977466881275177
13.549179077148438 -6.420654296875 -0.29859718680381775
13.545431137084961 -6.383481025695801 -0.2982139587402344
13.53372573852539 -6.343674659729004 -0.2993971109390259
13.543241500854492 -6.3138885498046875 -0.2998203933238983
13.53486442565918 -6.274820804595947 -0.29933953285217285
13.529836654663086 -6.169450759887695 -0.29968327283859253
13.51181411743164 -6.1273956298828125 -0.2990035116672516
13.516542434692383 -6.061039447784424 -0.29944154620170593
13.507162094116211 -6.023198127746582 -0.29945504665374756
13.522067070007324 -5.9617018699646 -0.2996324300765991
13.526930809020996 -5.8625569343566895 -0.29981935024261475
13.528545379638672 -5.561641216278076 -0.3001461327075958
13.548828125 -5.37185001373291 -0.30214792490005493
13.557537078857422 -5.3093414306640625 -0.3027302622795105
13.542457580566406 -5.271048545837402 -0.3021472990512848
13.55842399597168 -5.2116193771362305 -0.3028995990753174
13.558990478515625 -5.179568290710449 -0.30267131328582764
13.568071365356445 -5.150275707244873 -0.303514301776886
13.574132919311523 -5.119948387145996 -0.3034099042415619
13.558478355407715 -5.081930160522461 -0.30282479524612427
13.562959671020508 -5.050592422485352 -0.30356839299201965
13.572517395019531 -5.022104263305664 -0.30354827642440796
13.567283630371094 -4.987667083740234 -0.30319660902023315
13.557414054870605 -4.951703071594238 -0.3036213517189026
13.563915252685547 -4.922199249267578 -0.30353844165802
13.580020904541016 -4.831646919250488 -0.3040873408317566
13.583763122558594 -4.800312042236328 -0.30394649505615234
13.578279495239258 -4.766700744628906 -0.30496320128440857
13.567829132080078 -4.698945999145508 -0.30476370453834534
13.580583572387695 -4.671821594238281 -0.30522507429122925
13.56714916229248 -4.603394508361816 -0.30496764183044434
13.564207077026367 -4.5710296630859375 -0.30508407950401306
13.583805084228516 -4.514019966125488 -0.3050934076309204
13.557415008544922 -4.410803318023682 -0.3047374486923218
13.560611724853516 -4.223145961761475 -0.30532222986221313
13.54902458190918 -4.126280307769775 -0.3053390383720398
13.535686492919922 -4.0294084548950195 -0.3053230941295624
13.528478622436523 -3.934849739074707 -0.3055430054664612
13.552343368530273 -3.879962921142578 -0.3060997724533081
13.523194313049316 -3.8412718772888184 -0.30572813749313354
13.538777351379395 -3.784154176712036 -0.3057195544242859
13.533504486083984 -3.7524189949035645 -0.3058105707168579
13.522638320922852 -3.6881494522094727 -0.3056814968585968
13.509891510009766 -3.654568910598755 -0.3056071698665619
13.520907402038574 -3.6265692710876465 -0.3056792914867401
13.526668548583984 -3.59804105758667 -0.3061099052429199
13.53759765625 -3.570399284362793 -0.30618757009506226
13.518060684204102 -3.5348615646362305 -0.30596065521240234
13.509366989135742 -3.502652883529663 -0.30606818199157715
13.519655227661133 -3.4745147228240967 -0.306132435798645
13.509912490844727 -3.442139148712158 -0.3057481646537781
13.508671760559082 -3.4119858741760254 -0.30594444274902344
13.516751289367676 -3.3833260536193848 -0.30642932653427124
13.521194458007812 -3.3546366691589355 -0.30637234449386597
13.509720802307129 -3.2914555072784424 -0.30617809295654297
13.522710800170898 -3.2649078369140625 -0.30563467741012573
13.51063060760498 -3.201836109161377 -0.30590203404426575
13.503490447998047 -3.1705617904663086 -0.3055894374847412
13.490852355957031 -3.107705593109131 -0.30538707971572876
13.512174606323242 -3.023292064666748 -0.3058978319168091
13.489609718322754 -2.8397746086120605 -0.30577218532562256
13.494915008544922 -2.752410888671875 -0.30595657229423523
13.477176666259766 -2.660654067993164 -0.3060076832771301
13.480534553527832 -2.6023807525634766 -0.3058320879936218
13.466646194458008 -2.5707244873046875 -0.3057749271392822
13.480855941772461 -2.485703229904175 -0.3046003580093384
13.467187881469727 -2.4534478187561035 -0.3046302795410156
13.46370792388916 -2.423957347869873 -0.30443716049194336
13.482126235961914 -2.3983993530273438 -0.30474016070365906
13.478008270263672 -2.3679747581481934 -0.30491018295288086
13.48301887512207 -2.340022087097168 -0.30491307377815247
13.476446151733398 -2.3092360496520996 -0.3051096200942993
13.48397445678711 -2.2817325592041016 -0.3051721155643463
13.464305877685547 -2.2496728897094727 -0.30462104082107544
13.457149505615234 -2.218937873840332 -0.3047274351119995
13.472219467163086 -2.1927149295806885 -0.30496495962142944
13.453392028808594 -2.1610021591186523 -0.3044366240501404
13.46839714050293 -2.133908987045288 -0.305128276348114
13.451667785644531 -2.102651834487915 -0.3046501576900482
13.432762145996094 -2.070690631866455 -0.304121732711792
13.447158813476562 -2.0439693927764893 -0.3047257661819458
13.434687614440918 -2.013559103012085 -0.30434781312942505
13.440335273742676 -1.9565672874450684 -0.30474090576171875
13.429311752319336 -1.9265124797821045 -0.3043992817401886
13.402734756469727 -1.8651278018951416 -0.30399003624916077
13.369558334350586 -1.7749077081680298 -0.3014885187149048
13.335805892944336 -1.4574074745178223 -0.30152392387390137
13.317184448242188 -1.4274128675460815 -0.3010351061820984
13.333442687988281 -1.3723828792572021 -0.30126968026161194
13.298334121704102 -1.3408857583999634 -0.30041468143463135
13.297045707702637 -1.2842111587524414 -0.30070459842681885
13.293327331542969 -1.256014347076416 -0.3009294271469116
13.28915023803711 -1.226982831954956 -0.3007768392562866
13.282994270324707 -1.1986198425292969 -0.30058103799819946
13.288793563842773 -1.1713467836380005 -0.3006564974784851
13.253593444824219 -1.139716625213623 -0.29825669527053833
13.251209259033203 -1.1118144989013672 -0.2981497645378113
13.278250694274902 -1.0855231285095215 -0.2987070679664612
13.263664245605469 -1.0566271543502808 -0.29832619428634644
13.2767333984375 -1.029945969581604 -0.2990174889564514
13.257468223571777 -0.9999645948410034 -0.2985360026359558
13.266946792602539 -0.9729956388473511 -0.2987036108970642
13.252277374267578 -0.9442747831344604 -0.2986961007118225
13.2456693649292 -0.9153691530227661 -0.2985000014305115
13.244283676147461 -0.8876621723175049 -0.298422634601593
13.232662200927734 -0.8584919571876526 -0.29812169075012207
13.241268157958984 -0.8314599990844727 -0.2982768416404724
13.231852531433105 -0.8033051490783691 -0.29802751541137695
13.233501434326172 -0.77503502368927 -0.29846861958503723
13.218228340148926 -0.7466198801994324 -0.29808494448661804
13.219799995422363 -0.7191902995109558 -0.29808884859085083
13.212587356567383 -0.663001537322998 -0.29822856187820435
13.194293975830078 -0.5789525508880615 -0.2977255582809448
13.127050399780273 -0.2720128893852234 -0.2952578067779541
13.144186973571777 -0.18970951437950134 -0.29597556591033936
13.129119873046875 -0.16224130988121033 -0.2956306040287018
13.11700439453125 -0.10684474557638168 -0.29534274339675903
13.129354476928711 -0.07969842106103897 -0.2956134080886841
13.108463287353516 -0.05156800150871277 -0.2951412796974182
13.115804672241211 -0.02437838353216648 -0.29530757665634155
15.132482528686523 0.09840995073318481 -0.21691292524337769
15.108466148376465 0.16188712418079376 -0.2165791094303131
15.12651538848877 0.19347535073757172 -0.21684306859970093
15.11178207397461 0.25694307684898376 -0.2166443020105362
15.081814765930176 0.4461660385131836 -0.21678069233894348
15.05617904663086 0.4766813814640045 -0.21642522513866425
15.05461597442627 0.508826494216919 -0.2164178490638733
15.037040710449219 0.5394750237464905 -0.216179758310318
15.037984848022461 0.5707584619522095 -0.21621264517307281
15.029916763305664 0.6026084423065186 -0.2161133736371994
15.030143737792969 0.6338607668876648 -0.21613487601280212
15.007261276245117 0.6650150418281555 -0.21574130654335022
15.00467586517334 0.6961021423339844 -0.21572428941726685
15.008200645446777 0.7274803519248962 -0.2157939374446869
14.988336563110352 0.7586143016815186 -0.2155291587114334
14.981681823730469 0.7894505262374878 -0.2154577076435089
14.983494758605957 0.852837324142456 -0.2155323028564453
14.981311798095703 0.8839067220687866 -0.21552705764770508
14.988653182983398 0.9476997256278992 -0.21569019556045532
14.954046249389648 0.9766726493835449 -0.21522298455238342
14.92732048034668 1.0380780696868896 -0.21489721536636353
14.920459747314453 1.1318962574005127 -0.2148963212966919
14.892891883850098 1.3192404508590698 -0.2147226482629776
14.887937545776367 1.413184642791748 -0.21510232985019684
14.883260726928711 1.4760109186172485 -0.21512287855148315
14.861014366149902 1.5049540996551514 -0.21484628319740295
14.83810043334961 1.5657908916473389 -0.2146071344614029
14.831295013427734 1.5962002277374268 -0.21455666422843933
14.822858810424805 1.6584696769714355 -0.21453288197517395
14.811418533325195 1.6883180141448975 -0.21441707015037537
14.805021286010742 1.719635009765625 -0.21437858045101166
14.800086975097656 1.7501964569091797 -0.21435824036598206
14.792376518249512 1.780418872833252 -0.21430006623268127
14.795154571533203 1.8128255605697632 -0.2143964022397995
14.786006927490234 1.8428566455841064 -0.21431751549243927
14.794990539550781 1.8751635551452637 -0.21409016847610474
14.757343292236328 1.9024322032928467 -0.2136036455631256
14.760478019714355 1.9339847564697266 -0.21370726823806763
14.761366844177246 1.9661853313446045 -0.2137797474861145
14.74289321899414 1.9948704242706299 -0.21357175707817078
14.736289024353027 2.0251259803771973 -0.21353529393672943
14.73358154296875 2.0568325519561768 -0.21356089413166046
14.713767051696777 2.0852043628692627 -0.2133360505104065
14.685840606689453 2.1443750858306885 -0.2142924964427948
14.646570205688477 2.1696927547454834 -0.21378441154956818
14.630331039428711 2.2302937507629395 -0.2131890058517456
14.597965240478516 2.2563672065734863 -0.21278512477874756
14.572907447814941 2.3153738975524902 -0.21215113997459412
14.561180114746094 2.407457113265991 -0.2121964693069458
14.513667106628418 2.493436813354492 -0.21172884106636047
14.42574691772461 2.666388988494873 -0.21043148636817932
14.403345108032227 2.7250285148620605 -0.20986446738243103
14.391327857971191 2.7537007331848145 -0.2097720503807068
14.373346328735352 2.8130593299865723 -0.20968085527420044
14.353830337524414 2.8401801586151123 -0.21110360324382782
14.353861808776855 2.8715662956237793 -0.21119198203086853
14.3487548828125 2.9020237922668457 -0.21120575070381165
14.32137393951416 2.927433967590332 -0.2108917236328125
14.3180513381958 2.9586336612701416 -0.21053005754947662
14.30787467956543 2.9875028133392334 -0.21047276258468628
14.290824890136719 3.0149054527282715 -0.21031340956687927
14.278667449951172 3.0442161560058594 -0.21022792160511017
14.236465454101562 3.0661184787750244 -0.20970040559768677
14.239439964294434 3.0981061458587646 -0.20983971655368805
14.228960037231445 3.127263069152832 -0.2092968225479126
14.22566032409668 3.1574995517730713 -0.2093425691127777
14.212761878967285 3.186509132385254 -0.2092519998550415
14.196419715881348 3.2138004302978516 -0.20870770514011383
14.19588851928711 3.24507737159729 -0.20879894495010376
14.171768188476562 3.271022081375122 -0.20854583382606506
14.171417236328125 3.301931619644165 -0.2086397409439087
14.174965858459473 3.3346989154815674 -0.20879743993282318
14.140142440795898 3.3574891090393066 -0.20790249109268188
14.129463195800781 3.385943651199341 -0.2078479826450348
14.118609428405762 3.446279525756836 -0.20749907195568085
14.11225700378418 3.4761903285980225 -0.2075112760066986
14.079485893249512 3.5306615829467773 -0.20893612504005432
14.045534133911133 3.6161491870880127 -0.20827946066856384
14.001607894897461 3.699265718460083 -0.20756913721561432
13.95588493347168 3.84436297416687 -0.20659580826759338
13.900733947753906 3.923855781555176 -0.20614278316497803
13.895818710327148 3.953620433807373 -0.20619165897369385
13.859786987304688 4.006539821624756 -0.20502400398254395
13.864330291748047 4.0390472412109375 -0.20521458983421326
13.852424621582031 4.067200660705566 -0.20516568422317505
13.819507598876953 4.089205741882324 -0.20480500161647797
13.806676864624023 4.116588592529297 -0.20474013686180115
13.782106399536133 4.140841960906982 -0.20450511574745178
13.797083854675293 4.177079677581787 -0.20397670567035675
13.765636444091797 4.198763370513916 -0.20451954007148743
13.753189086914062 4.2271013259887695 -0.2044660449028015
13.731000900268555 4.2514872550964355 -0.2042692005634308
13.731371879577637 4.283267021179199 -0.20440638065338135
13.715838432312012 4.310177803039551 -0.20430943369865417
13.694365501403809 4.335091590881348 -0.20373070240020752
13.679201126098633 4.3620452880859375 -0.20316250622272491
13.678752899169922 4.393196105957031 -0.20328858494758606
13.669378280639648 4.42191743850708 -0.2032870054244995
13.663260459899902 4.451783180236816 -0.20333921909332275
13.65262222290039 4.479678630828857 -0.2029184103012085
13.653931617736816 4.512439727783203 -0.20259910821914673
13.633296966552734 4.537023544311523 -0.20243239402770996
13.6218843460083 4.565065383911133 -0.20240819454193115
13.609806060791016 4.592959403991699 -0.20237013697624207
13.60476303100586 4.62272834777832 -0.20203837752342224
13.585640907287598 4.648120880126953 -0.2014222890138626
13.573854446411133 4.707616806030273 -0.2015368640422821
13.55306339263916 4.732357978820801 -0.2013760209083557
13.532645225524902 4.7892632484436035 -0.20049411058425903
13.49639892578125 4.872122764587402 -0.20048783719539642
13.474955558776855 4.928624153137207 -0.1999971866607666
13.47111701965332 4.958940029144287 -0.2000926434993744
13.441947937011719 5.012584209442139 -0.19957318902015686
13.402738571166992 5.094674110412598 -0.19859032332897186
13.378767967224121 5.149640083312988 -0.198553204536438
13.381595611572266 5.183150291442871 -0.19827812910079956
13.337918281555176 5.198088645935059 -0.19739434123039246
13.353275299072266 5.236446380615234 -0.19778358936309814
13.328603744506836 5.259223937988281 -0.19758111238479614
13.313051223754883 5.2850422859191895 -0.19703473150730133
13.315540313720703 5.318471908569336 -0.19684003293514252
13.307171821594238 5.347692489624023 -0.1968810260295868
13.29626750946045 5.375812530517578 -0.19688740372657776
13.286388397216797 5.404440879821777 -0.19643110036849976
13.269793510437012 5.429811477661133 -0.19595584273338318
13.260923385620117 5.458765983581543 -0.19599471986293793
13.232440948486328 5.479698181152344 -0.19574248790740967
13.224106788635254 5.508852958679199 -0.19531449675559998
13.220460891723633 5.539557933807373 -0.19511160254478455
13.224515914916992 5.574065685272217 -0.19446837902069092
13.190055847167969 5.592236042022705 -0.19413414597511292
13.192510604858398 5.626123428344727 -0.1943444311618805
13.183554649353027 5.654665946960449 -0.19398699700832367
13.153671264648438 5.674627304077148 -0.1932453215122223
13.135380744934082 5.699618339538574 -0.1931527554988861
13.116628646850586 5.724287986755371 -0.19305358827114105
13.108911514282227 5.753854274749756 -0.19272074103355408
13.090927124023438 5.778390407562256 -0.1921558976173401
13.068127632141113 5.8011932373046875 -0.1919998824596405
13.068428993225098 5.834342002868652 -0.19218461215496063
13.043466567993164 5.855690956115723 -0.19112300872802734
13.041101455688477 5.887611389160156 -0.19126932322978973
13.051240921020508 5.925349235534668 -0.19160087406635284
13.036300659179688 5.951662063598633 -0.19116684794425964
12.938164710998535 6.005434036254883 -0.18980301916599274
12.827831268310547 6.020012855529785 -0.1876896619796753
12.783300399780273 6.031516075134277 -0.18722084164619446
12.669478416442871 6.043177604675293 -0.1850680410861969
12.51169204711914 6.064758777618408 -0.1821557581424713
12.41173267364502 6.080991268157959 -0.18022798001766205
12.372718811035156 6.094258785247803 -0.17984852194786072
12.254902839660645 6.099985599517822 -0.17766819894313812
12.205223083496094 6.107399940490723 -0.17713549733161926
12.162368774414062 6.11754846572876 -0.17669734358787537
12.107709884643555 6.121993541717529 -0.1752612590789795
12.06658935546875 6.133182048797607 -0.17485330998897552
12.005611419677734 6.1339921951293945 -0.17415522038936615
11.965766906738281 6.14548397064209 -0.17294317483901978
11.91999340057373 6.1532697677612305 -0.17246589064598083
11.868431091308594 6.158298015594482 -0.1719077229499817
11.81363296508789 6.161513328552246 -0.17048853635787964
11.758541107177734 6.164268493652344 -0.1698789894580841
11.720181465148926 6.175198554992676 -0.16950950026512146
11.675949096679688 6.183380603790283 -0.16869041323661804
11.622015953063965 6.186149597167969 -0.1676623821258545
11.590599060058594 6.200822830200195 -0.1673971712589264
11.524502754211426 6.196258068084717 -0.16662782430648804
11.487804412841797 6.207704544067383 -0.16548871994018555
11.429391860961914 6.207309722900391 -0.16374915838241577
11.397336959838867 6.220563888549805 -0.16347584128379822
11.349854469299316 6.226153373718262 -0.16255301237106323
11.305187225341797 6.232205390930176 -0.1617392897605896
11.253826141357422 6.2347869873046875 -0.16119220852851868
11.22116756439209 6.247651100158691 -0.16048872470855713
11.173371315002441 6.251448631286621 -0.15963232517242432
11.129449844360352 6.25764274597168 -0.1591932475566864
11.0774507522583 6.259181976318359 -0.15821309387683868
11.033147811889648 6.264390468597412 -0.15741178393363953
10.999204635620117 6.275742530822754 -0.15669676661491394
10.960472106933594 6.2843122482299805 -0.1563313752412796
10.902688980102539 6.2816853523254395 -0.15534555912017822
10.780675888061523 6.30198860168457 -0.15340393781661987
10.701639175415039 6.316405296325684 -0.15224766731262207
10.655433654785156 6.318985939025879 -0.1514304280281067
10.557734489440918 6.321298599243164 -0.14966756105422974
10.447127342224121 6.344634056091309 -0.1479150950908661
10.361080169677734 6.35225772857666 -0.14565828442573547
10.319498062133789 6.356739521026611 -0.14485885202884674
10.25322151184082 6.375161170959473 -0.1439647525548935
10.210585594177246 6.378541946411133 -0.1431547999382019
10.138971328735352 6.392853736877441 -0.14179036021232605
10.082698822021484 6.38712215423584 -0.14119206368923187
10.057809829711914 6.401035785675049 -0.14069943130016327
10.012453079223633 6.401870250701904 -0.13985903561115265
9.979171752929688 6.40980339050293 -0.1395791918039322
9.938859939575195 6.41347599029541 -0.13848179578781128
9.906232833862305 6.422045707702637 -0.13821664452552795
9.850103378295898 6.415119171142578 -0.13729232549667358
9.825716018676758 6.428315162658691 -0.13675066828727722
9.781457901000977 6.428851127624512 -0.13632047176361084
9.756271362304688 6.441719055175781 -0.13544446229934692
9.711379051208496 6.441055774688721 -0.13500717282295227
9.67950439453125 6.449343204498291 -0.13475489616394043
9.641390800476074 6.45326566696167 -0.13370384275913239
9.600109100341797 6.45498514175415 -0.13332068920135498
9.565678596496582 6.461088180541992 -0.13232335448265076
9.536161422729492 6.4700093269348145 -0.13210216164588928
9.49040412902832 6.468225479125977 -0.13095341622829437
9.468364715576172 6.482409477233887 -0.13045886158943176
9.418149948120117 6.477236747741699 -0.12963776290416718
9.396707534790039 6.491254806518555 -0.12952616810798645
9.344388961791992 6.484185218811035 -0.12829826772212982
9.326634407043457 6.501039505004883 -0.1282442808151245
9.288089752197266 6.502854347229004 -0.1275230348110199
9.260791778564453 6.5128068923950195 -0.12701688706874847
9.209619522094727 6.505882740020752 -0.12612973153591156
9.183551788330078 6.516462326049805 -0.12564696371555328
9.077253341674805 6.527218818664551 -0.12406924366950989
9.015857696533203 6.540848731994629 -0.12292454391717911
8.97356128692627 6.538629055023193 -0.12253466248512268
8.912965774536133 6.552118301391602 -0.12140874564647675
8.817312240600586 6.5675859451293945 -0.11962752044200897
8.749112129211426 6.57425594329834 -0.11840859055519104
8.714994430541992 6.57696008682251 -0.11746633797883987
8.652277946472168 6.587004661560059 -0.11663256585597992
8.619077682495117 6.590478897094727 -0.11637018620967865
8.554624557495117 6.598020076751709 -0.11521250009536743
8.537332534790039 6.613436698913574 -0.11516673862934113
8.488957405090332 6.604576110839844 -0.11404462158679962
8.465672492980957 6.614706039428711 -0.11391797661781311
8.43166732788086 6.616814136505127 -0.11299261450767517
8.389237403869629 6.612072944641113 -0.1126098781824112
8.36680793762207 6.623042106628418 -0.11214170604944229
8.342353820800781 6.632268905639648 -0.11170381307601929
8.305778503417969 6.6313676834106445 -0.11104482412338257
8.275238037109375 6.635601997375488 -0.11052823811769485
8.247110366821289 6.641592025756836 -0.10998746752738953
8.225823402404785 6.652636528015137 -0.10959278792142868
8.181124687194824 6.645065784454346 -0.10883446037769318
8.166391372680664 6.661652565002441 -0.10853143036365509
8.127907752990723 6.658849716186523 -0.10820683091878891
8.108715057373047 6.671673774719238 -0.10749690979719162
8.062883377075195 6.662071228027344 -0.10707074403762817
8.043941497802734 6.675009727478027 -0.10636993497610092
7.996431827545166 6.664030075073242 -0.10592365264892578
7.977444648742676 6.676308631896973 -0.10580042749643326
7.943700313568115 6.676597595214844 -0.10519600659608841
7.920775413513184 6.685803413391113 -0.10478983074426651
7.888449668884277 6.687051296234131 -0.10420504212379456
7.857094764709473 6.688920497894287 -0.1039765328168869
7.833585739135742 6.696993827819824 -0.10356217622756958
7.802845478057861 6.699240684509277 -0.10300086438655853
7.769967555999756 6.69944953918457 -0.10212643444538116
7.755765914916992 6.715314865112305 -0.10212263464927673
7.717575550079346 6.711148262023926 -0.10152354836463928
7.700042247772217 6.7240142822265625 -0.10113722831010818
7.633822441101074 6.723062038421631 -0.1000170111656189
7.606083393096924 6.726710319519043 -0.09921581298112869
7.5459184646606445 6.730348110198975 -0.09851816296577454
7.52231502532959 6.737377166748047 -0.09805736690759659
7.46814489364624 6.745755672454834 -0.0971057116985321
7.438024520874023 6.7466301918029785 -0.0966176986694336
7.421777725219727 6.760849952697754 -0.0962601825594902
7.378941059112549 6.749899387359619 -0.09527580440044403
7.3331451416015625 6.76495361328125 -0.09444252401590347
7.3052978515625 6.767377853393555 -0.09454214572906494
7.24530029296875 6.768719673156738 -0.09352793544530869
7.220623970031738 6.774233341217041 -0.09306531399488449
7.207467555999756 6.790445327758789 -0.09280359745025635
7.170945167541504 6.784181594848633 -0.09218698740005493
7.1465678215026855 6.789729595184326 -0.0917830765247345
7.1175537109375 6.790700912475586 -0.09126697480678558
7.096859931945801 6.79914665222168 -0.09058243036270142
7.064424514770508 6.7970733642578125 -0.09035356342792511
7.03559684753418 6.79750919342041 -0.08956792950630188
7.009605407714844 6.801031589508057 -0.08941938728094101
6.986025810241699 6.806734085083008 -0.0887056291103363
6.955187797546387 6.804880142211914 -0.08849318325519562
6.938663005828857 6.817404747009277 -0.08787184953689575
6.909780502319336 6.817646026611328 -0.08768746256828308
6.887834548950195 6.824258804321289 -0.0869966372847557
6.851411819458008 6.81723690032959 -0.08645114302635193
6.839603424072266 6.833792209625244 -0.08616003394126892
6.809764862060547 6.832276821136475 -0.0856933668255806
6.7886881828308105 6.840292930603027 -0.0852925181388855
6.758150100708008 6.837845802307129 -0.08450010418891907
6.738834857940674 6.847116470336914 -0.08443892002105713
6.707923889160156 6.8444414138793945 -0.08364678919315338
6.678650856018066 6.842921733856201 -0.08399169147014618
6.652032852172852 6.844841957092285 -0.08357484638690948
6.638920783996582 6.859774589538574 -0.083271324634552
6.607061862945557 6.8557209968566895 -0.08247217535972595
6.584400177001953 6.861025810241699 -0.08236994594335556
6.5547404289245605 6.858553409576416 -0.08159581571817398
6.542191982269287 6.874382972717285 -0.08135639131069183
6.511964321136475 6.871499061584473 -0.08084572851657867
6.490795135498047 6.877692222595215 -0.080496646463871
6.46340274810791 6.878043174743652 -0.08002538233995438
6.443385124206543 6.885317802429199 -0.07969158887863159
6.404707431793213 6.872518062591553 -0.07907860726118088
6.3880391120910645 6.884058952331543 -0.07848009467124939
6.363327980041504 6.886033058166504 -0.07809107005596161
6.313465595245361 6.8900651931762695 -0.07726395130157471
6.3031325340271 6.9075117111206055 -0.077002614736557
6.2683820724487305 6.898970603942871 -0.0764985978603363
6.246441841125488 6.903553485870361 -0.07609671354293823
6.218287467956543 6.901169300079346 -0.07536052167415619
6.198535442352295 6.908869743347168 -0.07504130899906158
6.170810699462891 6.906749248504639 -0.07457181811332703
6.146588325500488 6.908438682556152 -0.07419443130493164
6.123439788818359 6.9120988845825195 -0.0737864077091217
6.1071062088012695 6.922550678253174 -0.0737631618976593
6.0712127685546875 6.9115705490112305 -0.07350736856460571
6.052933692932129 6.919670104980469 -0.0728987604379654
6.0263519287109375 6.918200492858887 -0.07249590009450912
6.0111260414123535 6.930558204650879 -0.07218636572360992
5.983151435852051 6.927295684814453 -0.07146362960338593
5.977357387542725 6.950155258178711 -0.07156962901353836
5.9370622634887695 6.932741165161133 -0.0707048773765564
5.9285125732421875 6.951906681060791 -0.07051979005336761
5.8933892250061035 6.9406962394714355 -0.06997545063495636
5.878304481506348 6.952120304107666 -0.06941182166337967
5.854723930358887 6.953446865081787 -0.06930430233478546
5.832401275634766 6.957046031951904 -0.06866171956062317
5.807345390319824 6.956429481506348 -0.06828385591506958
5.792848587036133 6.96887731552124 -0.06798600405454636
5.764723777770996 6.964788436889648 -0.06727583706378937
5.744961261749268 6.970309734344482 -0.06721422076225281
5.716084003448486 6.965538024902344 -0.0664995089173317
5.7025227546691895 6.978492736816406 -0.06625905632972717
5.680274963378906 6.980782985687256 -0.06587091088294983
5.657958507537842 6.98377799987793 -0.06523578613996506
5.633790016174316 6.983526229858398 -0.0648733526468277
5.6207170486450195 6.996983528137207 -0.06459254771471024
5.588932037353516 6.987938404083252 -0.0641496554017067
5.56431770324707 6.986838340759277 -0.06403328478336334
5.547357559204102 6.995759010314941 -0.0634622797369957
5.530627250671387 7.0048699378967285 -0.06343955546617508
5.496740341186523 6.991733074188232 -0.06267450749874115
5.480226516723633 7.001460075378418 -0.0624086931347847
5.455371856689453 6.999584197998047 -0.061996594071388245
5.412659645080566 7.005431652069092 -0.06105883792042732
5.395334243774414 7.013040065765381 -0.06073392555117607
5.367659568786621 7.007993698120117 -0.06005200743675232
5.3525543212890625 7.018394947052002 -0.06004584580659866
5.326085567474365 7.0138258934021 -0.05937468260526657
5.311129570007324 7.025239944458008 -0.05883730202913284
5.283719539642334 7.019216537475586 -0.05869479104876518
5.272258758544922 7.034324645996094 -0.05819316580891609
5.2439985275268555 7.027853012084961 -0.05780237913131714
5.231602668762207 7.041680335998535 -0.057535991072654724
5.187228202819824 7.04372501373291 -0.05659570172429085
5.161247730255127 7.038992881774902 -0.05618222430348396
5.142271041870117 7.044621467590332 -0.055607132613658905
5.124213218688965 7.05056095123291 -0.0553266704082489
5.106570243835449 7.057032585144043 -0.055005285888910294
5.080744743347168 7.053017616271973 -0.05435847491025925
5.063676357269287 7.060171127319336 -0.05437871813774109
5.039041519165039 7.056698322296143 -0.053983718156814575
5.026968002319336 7.071684837341309 -0.05348650738596916
4.999695777893066 7.0643181800842285 -0.05311095714569092
4.977812767028809 7.065357685089111 -0.05275208503007889
4.955303192138672 7.064499855041504 -0.05242791771888733
4.944450855255127 7.080235958099365 -0.05194147676229477
4.92434024810791 7.083626747131348 -0.051603153347969055
4.8995280265808105 7.079234600067139 -0.0512569360435009
4.877626419067383 7.079440116882324 -0.0506591722369194
4.865241050720215 7.093347549438477 -0.05040011554956436
4.834050178527832 7.0793232917785645 -0.04999013617634773
4.824708938598633 7.098155498504639 -0.049526333808898926
4.7943315505981445 7.085044860839844 -0.049081653356552124
4.78495979309082 7.102907657623291 -0.0488978773355484
4.7594757080078125 7.097752571105957 -0.04827031493186951
4.73813533782959 7.097725868225098 -0.04792041331529617
4.718635082244873 7.100379943847656 -0.04763451963663101
4.702038764953613 7.108301162719727 -0.047099702060222626
4.678765296936035 7.105116367340088 -0.04673226177692413
4.6646881103515625 7.116791248321533 -0.04650648683309555
4.640180587768555 7.111545562744141 -0.045890264213085175
4.626217365264893 7.122397422790527 -0.04561694711446762
4.594765663146973 7.107166290283203 -0.044939860701560974
4.583745002746582 7.122493743896484 -0.045022040605545044
4.5617594718933105 7.120759963989258 -0.044433608651161194
4.538887977600098 7.118491172790527 -0.04384273663163185
4.518865585327148 7.119638442993164 -0.04379269480705261
4.5060319900512695 7.132089138031006 -0.0432979092001915
4.480794429779053 7.125807762145996 -0.04268772900104523
4.464767932891846 7.1331281661987305 -0.042676154524087906
4.447732448577881 7.139780521392822 -0.04214577376842499
4.42694091796875 7.139372825622559 -0.041575491428375244
4.405438423156738 7.137726783752441 -0.04100009426474571
4.386423110961914 7.1410040855407715 -0.04096568375825882
4.369314193725586 7.146361351013184 -0.04043357074260712
4.356096267700195 7.158077239990234 -0.03993697464466095
4.332364559173584 7.153447151184082 -0.03985905274748802
4.310996055603027 7.151615619659424 -0.039289526641368866
4.288085460662842 7.148099899291992 -0.03871048986911774
4.276144981384277 7.161844253540039 -0.0387367308139801
4.2526092529296875 7.156123161315918 -0.03815046697854996
4.242103099822998 7.17329216003418 -0.03768494725227356
4.22054386138916 7.170758247375488 -0.03734920173883438
4.2083001136779785 7.184017658233643 -0.03714113309979439
4.177164554595947 7.165922164916992 -0.036494530737400055
4.165419101715088 7.1799774169921875 -0.03601570799946785
4.144900321960449 7.178890228271484 -0.03596678748726845
4.121094703674316 7.173002243041992 -0.03515780717134476
4.108546257019043 7.185641288757324 -0.034949205815792084
4.084973335266113 7.179965496063232 -0.03437251225113869
4.068660259246826 7.185946464538574 -0.03408578038215637
4.050030708312988 7.187793254852295 -0.03382460027933121
4.026879787445068 7.182538986206055 -0.03325815498828888
4.014960289001465 7.196247100830078 -0.03300905227661133
3.9927473068237305 7.191468238830566 -0.03244766220450401
3.9792065620422363 7.20329475402832 -0.032232798635959625
3.957669258117676 7.19956636428833 -0.03167835995554924
3.939835548400879 7.202490329742432 -0.03138205409049988
3.9235644340515137 7.209280490875244 -0.03114575333893299
3.900132179260254 7.201780319213867 -0.03058101236820221
3.877927303314209 7.197453498840332 -0.030254535377025604
5.933544158935547 -10.417947769165039 -0.029937170445919037
5.964033126831055 -10.420328140258789 -0.03031340055167675
5.995192527770996 -10.423860549926758 -0.03109409287571907
6.019547462463379 -10.416132926940918 -0.03144387528300285
6.056685924530029 -10.429574966430664 -0.03192288801074028
6.087308883666992 -10.431730270385742 -0.03270723298192024
6.111675262451172 -10.422942161560059 -0.03305686637759209
6.131470680236816 -10.407144546508789 -0.0334475040435791
6.172410488128662 -10.426433563232422 -0.03428959846496582
6.194033145904541 -10.41281509399414 -0.03462596610188484
6.221026420593262 -10.408971786499023 -0.035058774054050446
6.24678897857666 -10.402334213256836 -0.03582058101892471
6.286616802215576 -10.4188232421875 -0.0362614244222641
6.310935974121094 -10.410226821899414 -0.036681920289993286
6.332882881164551 -10.39704418182373 -0.03742535039782524
6.367824077606201 -10.404964447021484 -0.03783884271979332
6.397254943847656 -10.403852462768555 -0.038292475044727325
6.424871921539307 -10.400333404541016 -0.03907463699579239
6.450576305389404 -10.392868995666504 -0.0394362136721611
6.5748772621154785 -10.397430419921875 -0.041913952678442
6.661766052246094 -10.389663696289062 -0.04355797916650772
6.7584228515625 -10.395991325378418 -0.04527541622519493
6.839839935302734 -10.3778715133667 -0.04689943045377731
7.309382915496826 -10.364578247070312 -0.05559725686907768
7.397359371185303 -10.350554466247559 -0.05732417106628418
7.461907386779785 -10.34846305847168 -0.05826358497142792
7.496686935424805 -10.351350784301758 -0.05914872884750366
7.563486099243164 -10.35153579711914 -0.06011325865983963
7.585668563842773 -10.336795806884766 -0.06090135872364044
7.624660491943359 -10.344133377075195 -0.06146574392914772
7.6495280265808105 -10.332304954528809 -0.06185021996498108
7.677639007568359 -10.325401306152344 -0.06268952041864395
7.710837364196777 -10.324512481689453 -0.06278056651353836
7.74904727935791 -10.330290794372559 -0.0637049674987793
7.7775115966796875 -10.323535919189453 -0.06455029547214508
7.8131914138793945 -10.324928283691406 -0.06466301530599594
7.837738037109375 -10.312821388244629 -0.0654802918434143
7.8743181228637695 -10.3157320022583 -0.066035196185112
7.906501770019531 -10.312854766845703 -0.06648382544517517
7.949454307556152 -10.32443618774414 -0.0674600899219513
7.977592945098877 -10.315914154052734 -0.06751556694507599
8.002388000488281 -10.303129196166992 -0.0687708705663681
8.08189582824707 -10.316116333007812 -0.06988245248794556
8.107222557067871 -10.303735733032227 -0.07071362435817719
8.17202377319336 -10.296566009521484 -0.07170233130455017
8.213891983032227 -10.305328369140625 -0.07188206166028976
8.311960220336914 -10.29491138458252 -0.07378716766834259
8.378671646118164 -10.288583755493164 -0.0756145790219307
9.157926559448242 -10.241874694824219 -0.08881539106369019
9.229551315307617 -10.23490047454834 -0.09031558036804199
9.270546913146973 -10.237565994262695 -0.09096784889698029
9.293643951416016 -10.219110488891602 -0.09182266891002655
9.339730262756348 -10.227068901062012 -0.09206893295049667
9.369396209716797 -10.216211318969727 -0.09299439191818237
9.40622329711914 -10.213165283203125 -0.09353260695934296
9.450685501098633 -10.218806266784668 -0.09422598779201508
9.48351764678955 -10.211030960083008 -0.09472642838954926
9.524887084960938 -10.212419509887695 -0.09538924694061279
9.557680130004883 -10.205039024353027 -0.09635842591524124
9.600317001342773 -10.207343101501465 -0.09696054458618164
9.642692565917969 -10.2092924118042 -0.09763796627521515
9.676712036132812 -10.202812194824219 -0.0981593132019043
9.717988967895508 -10.202593803405762 -0.09843267500400543
9.75037670135498 -10.19415283203125 -0.09893865883350372
9.793753623962402 -10.196377754211426 -0.09963022172451019
9.82682991027832 -10.187840461730957 -0.10061264783143997
9.870737075805664 -10.19095230102539 -0.10084493458271027
9.907747268676758 -10.186101913452148 -0.10187119245529175
9.956171035766602 -10.192909240722656 -0.10254421830177307
10.035181045532227 -10.187610626220703 -0.10426358878612518
10.068780899047852 -10.179381370544434 -0.10439314693212509
10.148711204528809 -10.174129486083984 -0.10565371066331863
10.186538696289062 -10.169755935668945 -0.10670614242553711
10.303466796875 -10.15796184539795 -0.10902610421180725
10.936128616333008 -10.12274169921875 -0.11824323982000351
11.011734962463379 -10.106950759887695 -0.11951178312301636
11.058448791503906 -10.107625961303711 -0.12070532143115997
11.192224502563477 -10.101492881774902 -0.12239023298025131
11.288524627685547 -10.102466583251953 -0.1243228018283844
11.321005821228027 -10.089303970336914 -0.12495370209217072
11.366790771484375 -10.086624145507812 -0.126148521900177
11.408239364624023 -10.081165313720703 -0.12637609243392944
11.459619522094727 -10.083620071411133 -0.12764118611812592
11.497721672058105 -10.074323654174805 -0.12782931327819824
11.557855606079102 -10.084691047668457 -0.12920120358467102
11.592337608337402 -10.071809768676758 -0.1293489933013916
11.64678955078125 -10.076213836669922 -0.13065990805625916
11.683805465698242 -10.065919876098633 -0.13084053993225098
11.742718696594238 -10.073050498962402 -0.1303146332502365
11.784893989562988 -10.066854476928711 -0.1310652196407318
11.833914756774902 -10.066326141357422 -0.1318102329969406
11.869522094726562 -10.052989959716797 -0.13248401880264282
11.92459487915039 -10.057212829589844 -0.13329949975013733
11.968156814575195 -10.0508451461792 -0.134068563580513
12.01578140258789 -10.04782485961914 -0.13480070233345032
12.054664611816406 -10.0379056930542 -0.13552424311637878
12.113784790039062 -10.043392181396484 -0.13638493418693542
12.15022087097168 -10.0311279296875 -0.13708439469337463
12.299701690673828 -10.02518081665039 -0.13946662843227386
12.442316055297852 -10.011898040771484 -0.14231687784194946
13.212370872497559 -9.962722778320312 -0.15306192636489868
13.315106391906738 -9.952508926391602 -0.1547800898551941
13.366666793823242 -9.947879791259766 -0.15560223162174225
13.451604843139648 -9.92333984375 -0.15712344646453857
13.527420043945312 -9.935985565185547 -0.15832588076591492
13.638676643371582 -9.929550170898438 -0.16016678512096405
13.751333236694336 -9.923229217529297 -0.1620328426361084
13.80037784576416 -9.915135383605957 -0.16236767172813416
13.842008590698242 -9.900863647460938 -0.1636502593755722
13.89927864074707 -9.89770793914795 -0.16408070921897888
13.96506118774414 -9.900940895080566 -0.16565951704978943
14.008729934692383 -9.887584686279297 -0.1659296751022339
14.078926086425781 -9.892837524414062 -0.16756495833396912
14.127313613891602 -9.883109092712402 -0.16627103090286255
14.192103385925293 -9.883346557617188 -0.16735965013504028
14.241509437561035 -9.873929977416992 -0.16818194091320038
14.292545318603516 -9.865461349487305 -0.16911976039409637
14.354674339294434 -9.863136291503906 -0.17008943855762482
14.413668632507324 -9.859701156616211 -0.17112597823143005
14.465482711791992 -9.850439071655273 -0.17149417102336884
14.533137321472168 -9.851837158203125 -0.17312189936637878
14.592772483825684 -9.848125457763672 -0.17358890175819397
14.708869934082031 -9.836573600769043 -0.17555539309978485
15.077964782714844 -9.811315536499023 -0.18176807463169098
15.409412384033203 -9.482892990112305 -0.187744602560997
15.433050155639648 -9.364187240600586 -0.1884135603904724
15.451178550720215 -9.286385536193848 -0.18925616145133972
15.460077285766602 -9.248117446899414 -0.18962687253952026
15.461397171020508 -9.160715103149414 -0.1902654469013214
15.476434707641602 -9.126285552978516 -0.19081765413284302
15.485219955444336 -9.086938858032227 -0.19118210673332214
15.488985061645508 -9.045989990234375 -0.19099624454975128
15.511646270751953 -8.971830368041992 -0.19190171360969543
15.51506519317627 -8.930891990661621 -0.19231298565864563
15.528495788574219 -8.895084381103516 -0.1927408128976822
15.527067184448242 -8.8509521484375 -0.19249126315116882
15.549520492553711 -8.821048736572266 -0.1936337649822235
15.549918174743652 -8.77741813659668 -0.1934044063091278
15.56637191772461 -8.744160652160645 -0.19398021697998047
15.56063175201416 -8.698505401611328 -0.1940712332725525
15.582199096679688 -8.666924476623535 -0.19470560550689697
15.591506004333496 -8.62978458404541 -0.19459763169288635
15.59990119934082 -8.591508865356445 -0.19496753811836243
15.59909439086914 -8.548362731933594 -0.19532626867294312
15.619743347167969 -8.517579078674316 -0.1958554983139038
15.640298843383789 -8.44352912902832 -0.1962592899799347
15.657087326049805 -8.325901985168457 -0.19738087058067322
15.679624557495117 -8.211860656738281 -0.19808952510356903
15.701783180236816 -8.098090171813965 -0.1993914544582367
15.737616539001465 -7.743195056915283 -0.20261213183403015
15.773008346557617 -7.637824058532715 -0.20351536571979523
15.776876449584961 -7.557840347290039 -0.20373719930648804
15.792262077331543 -7.524957656860352 -0.20421555638313293
15.813714981079102 -7.453624725341797 -0.20515413582324982
15.808242797851562 -7.410989761352539 -0.204881489276886
15.822519302368164 -7.336562156677246 -0.2057294249534607
15.837002754211426 -7.3033857345581055 -0.20572009682655334
15.838546752929688 -7.2631072998046875 -0.20660120248794556
15.844449043273926 -7.226057052612305 -0.2064805030822754
15.859607696533203 -7.192610263824463 -0.20647981762886047
15.862682342529297 -7.153827667236328 -0.20738759636878967
15.853650093078613 -7.110200881958008 -0.2070767879486084
