VERSION .7
FIELDS x y z
SIZE 4 4 4
TYPE F F F
COUNT 1 1 1
WIDTH 819
HEIGHT 1
VIEWPOINT 0 0 0 1 0 0 0
POINTS 819
DATA ascii
15.195773124694824 -9.352120399475098 0.004505198448896408
15.265999794006348 -9.351716995239258 0.003810473019257188
15.318897247314453 -9.339176177978516 0.0038188896141946316
15.513108253479004 -9.324312210083008 0.0034620168153196573
15.577615737915039 -9.319135665893555 0.0027485722675919533
15.702336311340332 -9.304177284240723 0.0023770942352712154
15.76538372039795 -9.297386169433594 0.0023860095534473658
15.827054977416992 -9.288244247436523 0.0016641634283587337
15.899189949035645 -9.286273002624512 0.0016658297972753644
15.97425651550293 -9.284862518310547 0.0012764740968123078
16.019426345825195 -9.266242980957031 0.0012807931052520871
16.09130096435547 -9.2633056640625 0.0005470553878694773
16.16506004333496 -9.259846687316895 0.0005480239633470774
16.225177764892578 -9.249617576599121 0.0005516568198800087
16.28565788269043 -9.239370346069336 0.000154091976583004
16.36281967163086 -9.236997604370117 0.00015056622214615345
16.41755485534668 -9.223020553588867 -0.0005935761146247387
16.49017333984375 -9.217987060546875 -0.0005968038458377123
16.559505462646484 -9.211233139038086 -0.000598835526034236
16.64942169189453 -9.216059684753418 -0.0010052549187093973
16.709102630615234 -9.202520370483398 -0.001006593694910407
16.784807205200195 -9.198867797851562 -0.0017743764910846949
16.836362838745117 -9.181741714477539 -0.0017749196849763393
16.923006057739258 -9.182144165039062 -0.0021922574378550053
16.98333168029785 -9.169307708740234 -0.0021970439702272415
17.05631446838379 -9.162176132202148 -0.0029740254394710064
17.114131927490234 -9.147052764892578 -0.002980409190058708
17.200843811035156 -9.147557258605957 -0.0029942814726382494
17.261180877685547 -9.132865905761719 -0.002999642863869667
17.338830947875977 -9.12747573852539 -0.003425776492804289
17.426532745361328 -9.126626014709473 -0.0026596682146191597
17.570796966552734 -9.108978271484375 -0.0034594046883285046
17.653549194335938 -9.104558944702148 -0.0038988757878541946
17.72064208984375 -9.092180252075195 -0.0039091333746910095
17.808231353759766 -9.090486526489258 -0.003924478776752949
17.86714744567871 -9.072500228881836 -0.004730000160634518
17.96398162841797 -9.074828147888184 -0.004752956796437502
18.110424041748047 -9.053274154663086 -0.00520967785269022
18.187580108642578 -9.044717788696289 -0.005227281711995602
18.35784149169922 -9.033157348632812 -0.006079247687011957
18.425987243652344 -9.019243240356445 -0.006531655788421631
18.675277709960938 -8.996176719665527 -0.007420265581458807
18.746112823486328 -8.981010437011719 -0.007438172586262226
18.793806076049805 -8.955955505371094 -0.007445685099810362
18.852046966552734 -8.886480331420898 -0.007878262549638748
18.901241302490234 -8.861776351928711 -0.008707072585821152
18.97403335571289 -8.798624038696289 -0.007052816450595856
18.98994255065918 -8.757258415222168 -0.007043533958494663
19.04339599609375 -8.73353385925293 -0.007504225242882967
19.078474044799805 -8.701746940612793 -0.008327641524374485
19.107593536376953 -8.666266441345215 -0.008332276716828346
19.097518920898438 -8.613459587097168 -0.008321026340126991
19.117847442626953 -8.574930191040039 -0.008325912989675999
19.13347053527832 -8.53288745880127 -0.008778058923780918
19.144540786743164 -8.490238189697266 -0.009599250741302967
19.151771545410156 -8.397104263305664 -0.009583661332726479
19.160873413085938 -8.353732109069824 -0.009578474797308445
19.167354583740234 -8.308368682861328 -0.009574009105563164
19.171260833740234 -8.262351036071777 -0.010838965885341167
19.19562530517578 -8.22566032409668 -0.010844087228178978
19.202566146850586 -8.180618286132812 -0.010838199406862259
19.218246459960938 -8.139728546142578 -0.010835373774170876
19.226768493652344 -8.09543228149414 -0.010832676663994789
19.23941421508789 -8.053302764892578 -0.011284440755844116
19.22821617126465 -8.001762390136719 -0.012085143476724625
19.253284454345703 -7.964474678039551 -0.012091382406651974
19.266925811767578 -7.922842979431152 -0.012090046890079975
19.262283325195312 -7.873357772827148 -0.01207682304084301
19.26772117614746 -7.828956604003906 -0.012069987133145332
19.265674591064453 -7.781095504760742 -0.011240341700613499
19.284961700439453 -7.7414960861206055 -0.011241987347602844
19.290754318237305 -7.6968913078308105 -0.01123880222439766
19.305105209350586 -7.656216621398926 -0.01168872881680727
19.3311767578125 -7.619290351867676 -0.011694722808897495
19.332565307617188 -7.573040008544922 -0.012503226287662983
19.341697692871094 -7.482816696166992 -0.012490164488554
19.37026596069336 -7.447691917419434 -0.012498557567596436
19.368267059326172 -7.353447914123535 -0.012924415059387684
19.381298065185547 -7.312413215637207 -0.013736920431256294
19.405160903930664 -7.228207588195801 -0.013733722269535065
19.412067413330078 -7.184942245483398 -0.013726908713579178
19.41707992553711 -7.093965530395508 -0.014967347495257854
19.427663803100586 -7.00523567199707 -0.014955559745430946
19.400239944458008 -6.949887275695801 -0.014921937137842178
19.418121337890625 -6.818001747131348 -0.016166044399142265
19.402210235595703 -6.721621036529541 -0.014431817457079887
19.37753677368164 -6.667214393615723 -0.014841407537460327
19.383098602294922 -6.62370491027832 -0.014829573221504688
19.395797729492188 -6.583125114440918 -0.014834120869636536
19.41139030456543 -6.54267692565918 -0.014835762791335583
19.422054290771484 -6.500950336456299 -0.01563689485192299
19.418691635131836 -6.454195976257324 -0.015625668689608574
19.470497131347656 -6.426575660705566 -0.01610410213470459
19.484893798828125 -6.340454578399658 -0.016093507409095764
19.512405395507812 -6.304189682006836 -0.01610569842159748
19.521337509155273 -6.26236629486084 -0.01610274612903595
19.54254913330078 -6.2236247062683105 -0.016917407512664795
19.564117431640625 -6.185340404510498 -0.016923630610108376
19.56624412536621 -6.140532493591309 -0.017361227422952652
19.572219848632812 -6.097821235656738 -0.017354600131511688
19.596572875976562 -6.014986038208008 -0.017353512346744537
19.611732482910156 -5.974671363830566 -0.018162228167057037
19.61849594116211 -5.931425094604492 -0.01815776526927948
19.648704528808594 -5.896083831787109 -0.01817585527896881
19.648860931396484 -5.851248741149902 -0.018608085811138153
19.646127700805664 -5.805236339569092 -0.018593348562717438
19.63328742980957 -5.757169246673584 -0.018566764891147614
19.65188217163086 -5.717898368835449 -0.018130114302039146
19.45050811767578 -5.614727973937988 -0.017899010330438614
19.675642013549805 -5.4126667976379395 -0.019318200647830963
19.668800354003906 -5.3664445877075195 -0.019298367202281952
19.657459259033203 -5.274503707885742 -0.02006440982222557
19.348892211914062 -5.148689270019531 -0.01984051614999771
19.558792114257812 -5.116438865661621 -0.01996675133705139
19.582061767578125 -4.991210460662842 -0.020357048138976097
19.588075637817383 -4.904983997344971 -0.021134067326784134
19.574308395385742 -4.857574939727783 -0.021109208464622498
19.52843475341797 -4.759787082672119 -0.021484635770320892
19.53714942932129 -4.718166828155518 -0.021482955664396286
19.533180236816406 -4.631048202514648 -0.02138008363544941
19.519046783447266 -4.584125518798828 -0.02135051041841507
19.530797958374023 -4.544139862060547 -0.02135392650961876
19.510387420654297 -4.495477676391602 -0.02175591140985489
19.521333694458008 -4.455358505249023 -0.021761789917945862
19.510875701904297 -4.409949779510498 -0.02173367515206337
19.4940185546875 -4.3628339767456055 -0.02170654572546482
19.494491577148438 -4.320478439331055 -0.02169533632695675
19.500452041625977 -4.2789201736450195 -0.022480713203549385
19.489519119262695 -4.2333455085754395 -0.022455967962741852
19.50372314453125 -4.1936235427856445 -0.022897036746144295
19.487674713134766 -4.1470794677734375 -0.022867422550916672
19.484277725219727 -4.104110240936279 -0.022854143753647804
19.46847915649414 -4.058167457580566 -0.02282470278441906
19.466562271118164 -4.014835357666016 -0.02280854620039463
19.463802337646484 -3.972174644470215 -0.023577474057674408
19.471920013427734 -3.930521011352539 -0.02358226105570793
19.474224090576172 -3.888944625854492 -0.023572124540805817
19.470651626586914 -3.845792531967163 -0.023988503962755203
19.459182739257812 -3.8007922172546387 -0.023970864713191986
19.459415435791016 -3.758932113647461 -0.023957686498761177
19.466876983642578 -3.718048095703125 -0.023959020152688026
19.451637268066406 -3.67252254486084 -0.02392682619392872
19.445980072021484 -3.629678249359131 -0.02468791976571083
19.41379165649414 -3.5391273498535156 -0.024979710578918457
19.424671173095703 -3.4994773864746094 -0.024979332461953163
19.397783279418945 -3.4103519916534424 -0.02493487298488617
19.376365661621094 -3.3647170066833496 -0.025671372190117836
19.39230728149414 -3.242032527923584 -0.02609093487262726
19.37635040283203 -3.1555399894714355 -0.026049025356769562
19.34372329711914 -3.0255208015441895 -0.02674930728971958
19.31043243408203 -2.895289897918701 -0.027101773768663406
19.312007904052734 -2.813194751739502 -0.02708755061030388
19.298263549804688 -2.769531726837158 -0.027064252644777298
19.299285888671875 -2.687551736831665 -0.027043139562010765
19.29302215576172 -2.645103931427002 -0.027032257989048958
19.29314422607422 -2.604342460632324 -0.02779444120824337
19.273935317993164 -2.559838056564331 -0.029629070311784744
19.263656616210938 -2.517803192138672 -0.029608413577079773
19.266674041748047 -2.4775431156158447 -0.029607370495796204
19.270748138427734 -2.4362306594848633 -0.030025459825992584
19.276081085205078 -2.3962745666503906 -0.030027154833078384
19.25176239013672 -2.3522703647613525 -0.029978696256875992
19.2489013671875 -2.310620069503784 -0.029970578849315643
19.244827270507812 -2.2696290016174316 -0.02995467744767666
19.25922966003418 -2.229623556137085 -0.030732469633221626
19.242992401123047 -2.1872854232788086 -0.030699754133820534
19.259197235107422 -2.1482315063476562 -0.030726995319128036
19.247596740722656 -2.1057395935058594 -0.030703751370310783
19.24028778076172 -2.064544677734375 -0.03067736327648163
19.240833282470703 -2.023036241531372 -0.030674010515213013
19.241647720336914 -1.9827587604522705 -0.031088516116142273
19.230754852294922 -1.9413137435913086 -0.03105938248336315
19.23771858215332 -1.9005110263824463 -0.031061258167028427
19.238588333129883 -1.8602914810180664 -0.03105921670794487
19.241979598999023 -1.8199028968811035 -0.031059376895427704
19.23037338256836 -1.777785301208496 -0.031798042356967926
19.234264373779297 -1.7378965616226196 -0.03179844468832016
19.222543716430664 -1.6552531719207764 -0.03176427632570267
19.20711326599121 -1.6137771606445312 -0.03173824027180672
19.201356887817383 -1.5318858623504639 -0.03399477154016495
19.21575164794922 -1.4929108619689941 -0.034015119075775146
19.185441970825195 -1.3688567876815796 -0.034355130046606064
19.165748596191406 -1.1653685569763184 -0.035048313438892365
19.11797332763672 -1.0411205291748047 -0.03495802357792854
19.081092834472656 -0.918840765953064 -0.03528595715761185
19.057945251464844 -0.797672688961029 -0.035238705575466156
19.052480697631836 -0.7170787453651428 -0.03522605448961258
19.045202255249023 -0.6772297620773315 -0.035201892256736755
19.02478790283203 -0.6369763016700745 -0.03591981157660484
19.040199279785156 -0.596775472164154 -0.03710440173745155
19.01683235168457 -0.5565432906150818 -0.03705338388681412
19.006071090698242 -0.5167556405067444 -0.03777915984392166
19.004032135009766 -0.47607505321502686 -0.037783924490213394
18.99940299987793 -0.43650907278060913 -0.03776746615767479
18.993074417114258 -0.3957703113555908 -0.03776031732559204
18.980873107910156 -0.35611122846603394 -0.03773995861411095
18.986026763916016 -0.31679633259773254 -0.03773840144276619
18.967966079711914 -0.2759650945663452 -0.03770224750041962
18.945262908935547 -0.23631282150745392 -0.037649005651474
18.968740463256836 -0.1960785686969757 -0.037699755281209946
18.952558517456055 -0.1565779745578766 -0.0380697101354599
18.946191787719727 -0.11720560491085052 -0.03806915879249573
18.930580139160156 -0.07666786015033722 -0.03803781792521477
18.9334774017334 -0.03738885372877121 -0.03803732618689537
17.639013290405273 0.003611283376812935 -0.09189330041408539
17.627635955810547 0.041265714913606644 -0.09183427691459656
17.59992218017578 0.07772447168827057 -0.09169046580791473
17.62349510192871 0.11509647965431213 -0.0925089567899704
17.59246063232422 0.15178430080413818 -0.09234751760959625
17.582965850830078 0.18819350004196167 -0.09229953587055206
17.585739135742188 0.22541546821594238 -0.09231637418270111
17.571258544921875 0.26208046078681946 -0.09155020117759705
17.571014404296875 0.2985495924949646 -0.09155212342739105
17.56679916381836 0.33601653575897217 -0.09153328835964203
17.553651809692383 0.3722074031829834 -0.09146887063980103
17.516597747802734 0.5918313264846802 -0.09168556332588196
17.520639419555664 0.6294416189193726 -0.09240522235631943
17.488887786865234 0.6646432876586914 -0.0922447070479393
17.483198165893555 0.7381747961044312 -0.09223030507564545
17.486160278320312 0.774654746055603 -0.09225389361381531
17.461946487426758 0.8836063742637634 -0.09215380996465683
17.415695190429688 1.395843267440796 -0.09177327901124954
17.42339515686035 1.4328556060791016 -0.0918293297290802
17.398296356201172 1.504584550857544 -0.09241833537817001
17.403656005859375 1.5414409637451172 -0.09246419370174408
17.4005069732666 1.6150460243225098 -0.09248310327529907
17.40066146850586 1.6514878273010254 -0.09250129759311676
17.389129638671875 1.687882661819458 -0.0924583226442337
17.39792251586914 1.7251882553100586 -0.09252484142780304
17.383216857910156 1.760165810585022 -0.09246586263179779
17.3846378326416 1.7978355884552002 -0.09249238669872284
17.373458862304688 1.8331265449523926 -0.09245331585407257
17.37041664123535 1.8699557781219482 -0.0928342193365097
17.359018325805664 1.905556321144104 -0.09279489517211914
17.35880470275879 1.94199800491333 -0.09281415492296219
17.346973419189453 1.9782042503356934 -0.0923977643251419
17.343040466308594 2.0142228603363037 -0.0917091816663742
17.330528259277344 2.0492281913757324 -0.0916658267378807
17.333553314208984 2.087141275405884 -0.09170478582382202
17.32215690612793 2.122246265411377 -0.0916680246591568
17.321392059326172 2.158646583557129 -0.09168650209903717
17.319122314453125 2.195945978164673 -0.09169965237379074
17.307092666625977 2.230923652648926 -0.09166069328784943
17.288097381591797 2.26603102684021 -0.09158644825220108
17.271883010864258 2.3003733158111572 -0.09152427315711975
17.274890899658203 2.337268352508545 -0.09156523644924164
17.26252555847168 2.3731584548950195 -0.09152683615684509
17.245956420898438 2.4073565006256104 -0.0914652943611145
17.24022102355957 2.443040370941162 -0.09146162867546082
17.200050354003906 2.5112836360931396 -0.0919906422495842
17.1347599029541 2.6118698120117188 -0.09210053086280823
17.135101318359375 2.72225284576416 -0.09219048172235489
17.092697143554688 2.8264896869659424 -0.09168489277362823
16.943159103393555 3.0951404571533203 -0.09114833176136017
16.94097900390625 3.1310853958129883 -0.09117172658443451
16.916330337524414 3.2002625465393066 -0.09110984951257706
16.90043830871582 3.2335970401763916 -0.09105958044528961
16.868534088134766 3.3011934757232666 -0.09096205234527588
16.853233337402344 3.3345277309417725 -0.09091706573963165
16.820819854736328 3.3650941848754883 -0.09078006446361542
16.787900924682617 3.395131826400757 -0.09100942313671112
16.768508911132812 3.427445888519287 -0.09094126522541046
16.760910034179688 3.463210105895996 -0.0909399688243866
16.746299743652344 3.4964420795440674 -0.09090036153793335
16.721004486083984 3.5273892879486084 -0.09080305695533752
16.713275909423828 3.56306791305542 -0.09080222249031067
16.68695068359375 3.5936741828918457 -0.09069853276014328
16.66796112060547 3.6264843940734863 -0.09027062356472015
16.66022491455078 3.661402940750122 -0.09027008712291718
16.648447036743164 3.6950483322143555 -0.09024730324745178
16.61103057861328 3.723994255065918 -0.09008778631687164
16.602691650390625 3.7583279609680176 -0.09075818955898285
16.576841354370117 3.78865647315979 -0.0899871438741684
16.560806274414062 3.822235107421875 -0.09061673283576965
16.534170150756836 3.8522439002990723 -0.09051419049501419
16.518505096435547 3.885441541671753 -0.09047341346740723
16.510395050048828 3.920083999633789 -0.09047380089759827
16.472909927368164 3.9473133087158203 -0.09031327813863754
16.43693733215332 4.011965751647949 -0.0902075469493866
16.42452621459961 4.045069217681885 -0.09018513560295105
16.377601623535156 4.10674524307251 -0.09002180397510529
16.365001678466797 4.140389442443848 -0.09000031650066376
16.319534301757812 4.2014031410217285 -0.08984550833702087
16.278913497924805 4.300246715545654 -0.08976899087429047
16.216259002685547 4.393627166748047 -0.08957526087760925
16.17561912536621 4.491959095001221 -0.08950456976890564
16.124584197998047 4.587538719177246 -0.08938053250312805
16.071611404418945 4.645345687866211 -0.08919401466846466
16.05821990966797 4.677978038787842 -0.08917376399040222
16.01273536682129 4.737977504730225 -0.08903152495622635
15.988191604614258 4.766820430755615 -0.08894970268011093
15.958061218261719 4.831110000610352 -0.0888945460319519
15.946849822998047 4.863864898681641 -0.08888807147741318
15.90526294708252 4.887969970703125 -0.08871413767337799
15.907305717468262 4.9251227378845215 -0.0887821614742279
15.882477760314941 4.953577995300293 -0.08870109915733337
15.875946044921875 4.988405227661133 -0.08872350305318832
15.854734420776367 5.0182881355285645 -0.08866356313228607
15.843690872192383 5.051680564880371 -0.08866134285926819
15.818742752075195 5.080286979675293 -0.08858056366443634
15.80035400390625 5.110576629638672 -0.08853738009929657
15.785356521606445 5.1426262855529785 -0.08815805613994598
15.767126083374023 5.17327880859375 -0.0881166160106659
15.749874114990234 5.203845977783203 -0.08808036893606186
15.730859756469727 5.234488487243652 -0.08803573995828629
15.71039867401123 5.264291286468506 -0.08798280358314514
15.704865455627441 5.298711776733398 -0.08801320195198059
15.686766624450684 5.329584121704102 -0.08797474950551987
15.652294158935547 5.3545026779174805 -0.08784418553113937
15.636019706726074 5.385898590087891 -0.08781658113002777
15.624821662902832 5.418713569641113 -0.08781729638576508
15.609621047973633 5.4497575759887695 -0.08779524266719818
15.593633651733398 5.481200218200684 -0.08777032047510147
15.582279205322266 5.513942718505859 -0.08777128159999847
15.589300155639648 5.552855491638184 -0.08787555247545242
15.544137954711914 5.610649585723877 -0.08775340020656586
15.531084060668945 5.643090724945068 -0.08774687349796295
15.496639251708984 5.7038702964782715 -0.08768594264984131
15.46295166015625 5.728631973266602 -0.08756369352340698
15.442813873291016 5.794551849365234 -0.08758577704429626
15.398226737976074 5.88921594619751 -0.08719000965356827
15.339430809020996 5.977535247802734 -0.08772194385528564
15.295360565185547 6.071393013000488 -0.08703330159187317
15.235795974731445 6.122149467468262 -0.08684026449918747
15.227499008178711 6.155927658081055 -0.08686570823192596
15.195932388305664 6.217369079589844 -0.08683384209871292
15.182123184204102 6.248909950256348 -0.0868295207619667
15.150564193725586 6.310665130615234 -0.0868004783987999
15.119345664978027 6.334512710571289 -0.08669652044773102
15.104721069335938 6.365970611572266 -0.0866900384426117
15.086339950561523 6.395503520965576 -0.08666127920150757
15.05844497680664 6.420577049255371 -0.08657724410295486
15.036203384399414 6.448707580566406 -0.08652716875076294
15.020915985107422 6.4794697761535645 -0.08651786297559738
15.013294219970703 6.513875961303711 -0.08655312657356262
14.995325088500977 6.543088912963867 -0.08652748912572861
14.950380325317383 6.560823917388916 -0.08634737133979797
14.930295944213867 6.5897016525268555 -0.08631166815757751
14.889199256896973 6.608894348144531 -0.08615445345640182
14.8141450881958 6.612412452697754 -0.08579937368631363
14.744223594665527 6.618633270263672 -0.08547544479370117
14.681660652160645 6.627566814422607 -0.0851929634809494
14.616995811462402 6.63492488861084 -0.08489726483821869
14.544174194335938 6.639001846313477 -0.08455600589513779
14.480106353759766 6.6464762687683105 -0.08426418900489807
14.414426803588867 6.65327262878418 -0.08396368473768234
14.372004508972168 6.669904708862305 -0.08379733562469482
14.284794807434082 6.665865898132324 -0.08336988836526871
14.224335670471191 6.674323081970215 -0.08309929072856903
14.166178703308105 6.6833086013793945 -0.0828414037823677
14.106197357177734 6.690834999084473 -0.08257164061069489
14.02249526977539 6.687498092651367 -0.08216431736946106
13.973711967468262 6.700228214263916 -0.08163068443536758
13.902073860168457 6.7020769119262695 -0.08129444718360901
13.784239768981934 6.716281414031982 -0.08076924085617065
13.728424072265625 6.725050926208496 -0.08052533864974976
13.606922149658203 6.7360615730285645 -0.07997630536556244
13.527441024780273 6.732372760772705 -0.0795925036072731
13.404077529907227 6.7415571212768555 -0.07935283333063126
13.358174324035645 6.75324010848999 -0.07916402816772461
13.244489669799805 6.765950679779053 -0.07806741446256638
13.064070701599121 6.777680397033691 -0.07725358009338379
12.946586608886719 6.786080360412598 -0.07672716677188873
12.89310359954834 6.792189598083496 -0.07649357616901398
12.776250839233398 6.79952335357666 -0.07566137611865997
12.709920883178711 6.798454284667969 -0.0753527581691742
12.607172012329102 6.811587333679199 -0.07491233944892883
12.552101135253906 6.815867900848389 -0.07466985285282135
12.504691123962402 6.824408531188965 -0.07447370886802673
12.446901321411133 6.826776027679443 -0.07421445846557617
12.390506744384766 6.829329490661621 -0.07396233081817627
12.334863662719727 6.832713603973389 -0.07371645420789719
12.278667449951172 6.835264682769775 -0.07346604764461517
12.223808288574219 6.837991714477539 -0.07322236150503159
12.16720199584961 6.840152740478516 -0.07296975702047348
12.119149208068848 6.846614837646484 -0.07276782393455505
12.061403274536133 6.847682476043701 -0.07195641845464706
12.016241073608398 6.855055332183838 -0.07177169620990753
11.97866153717041 6.866941452026367 -0.07163307070732117
11.921392440795898 6.86765193939209 -0.07137729972600937
11.86841106414795 6.870308876037598 -0.071146160364151
11.82859992980957 6.880075454711914 -0.07099294662475586
11.761564254760742 6.874416351318359 -0.07067771255970001
11.713691711425781 6.879422664642334 -0.07047655433416367
11.668688774108887 6.886224269866943 -0.07029325515031815
11.622135162353516 6.891308784484863 -0.07009881734848022
11.56300163269043 6.889052391052246 -0.06982911378145218
11.525339126586914 6.899682998657227 -0.06968963891267776
11.478397369384766 6.90397834777832 -0.06949227303266525
11.433863639831543 6.909875869750977 -0.06931021064519882
11.36850643157959 6.90324592590332 -0.06900237500667572
11.335968017578125 6.916057109832764 -0.06889273226261139
11.27467155456543 6.911423683166504 -0.06860889494419098
11.240119934082031 6.922374725341797 -0.06848590821027756
11.188301086425781 6.922855854034424 -0.06825845688581467
11.139181137084961 6.925084114074707 -0.06804797798395157
11.052871704101562 6.93552303314209 -0.06690043956041336
10.997939109802246 6.9335150718688965 -0.06665655225515366
10.912823677062988 6.94425106048584 -0.06659257411956787
10.87511157989502 6.952002048492432 -0.06645037978887558
10.793458938598633 6.9640092849731445 -0.06613004207611084
10.746997833251953 6.96566104888916 -0.06593362987041473
10.6547269821167 6.969753265380859 -0.0647701621055603
10.566385269165039 6.975681304931641 -0.06441105902194977
10.527801513671875 6.981621742248535 -0.06426410377025604
10.449410438537598 6.993174076080322 -0.06396465003490448
10.401847839355469 6.992641448974609 -0.06376233696937561
10.316567420959473 6.998571395874023 -0.063419409096241
10.277921676635742 7.003863334655762 -0.06327188014984131
10.226125717163086 6.999687194824219 -0.06304242461919785
10.20223331451416 7.015066146850586 -0.06298636645078659
10.155967712402344 7.014657020568848 -0.06279123574495316
10.113285064697266 7.016816139221191 -0.06261923909187317
10.071727752685547 7.018990516662598 -0.06219092011451721
10.036947250366211 7.026059150695801 -0.06157957762479782
9.985867500305176 7.021817207336426 -0.061357177793979645
9.956986427307129 7.032750606536865 -0.061270054429769516
9.909664154052734 7.030788421630859 -0.06132858991622925
9.870193481445312 7.033621788024902 -0.06117493659257889
9.819859504699707 7.028841018676758 -0.06095394864678383
9.799965858459473 7.045994758605957 -0.06092183664441109
9.755777359008789 7.044981002807617 -0.06048296391963959
9.714239120483398 7.046017646789551 -0.06031674146652222
9.67052173614502 7.04556941986084 -0.05966103449463844
9.647018432617188 7.059452056884766 -0.059607550501823425
9.590558052062988 7.049330711364746 -0.05935067683458328
9.564257621765137 7.060616493225098 -0.05927831679582596
9.526463508605957 7.063619613647461 -0.05913639813661575
9.481742858886719 7.061588287353516 -0.05895181745290756
9.438451766967773 7.059844970703125 -0.05877375230193138
9.406084060668945 7.066434860229492 -0.05866377800703049
9.367780685424805 7.0687031745910645 -0.058517225086688995
9.327617645263672 7.068821907043457 -0.05835874751210213
9.291152954101562 7.071902275085449 -0.05797470360994339
9.264009475708008 7.082236289978027 -0.057898733764886856
9.225936889648438 7.08382511138916 -0.057753436267375946
9.190298080444336 7.08740758895874 -0.057624027132987976
9.138762474060059 7.077956199645996 -0.05693322792649269
9.073249816894531 7.088549613952637 -0.05671064555644989
9.00511646270752 7.096593856811523 -0.05647069215774536
8.956720352172852 7.0886335372924805 -0.05580585449934006
8.900328636169434 7.105169773101807 -0.05564022809267044
8.864452362060547 7.106698036193848 -0.05550680309534073
8.79698657989502 7.113677024841309 -0.055031079798936844
8.760271072387695 7.114104270935059 -0.0548943355679512
8.73281192779541 7.122817516326904 -0.05481702834367752
8.691977500915527 7.119599342346191 -0.05465354770421982
8.623668670654297 7.124542236328125 -0.05441152676939964
8.604198455810547 7.138550758361816 -0.054382242262363434
8.559298515319824 7.131648063659668 -0.05375007912516594
8.517123222351074 7.127079010009766 -0.053579363971948624
8.488409042358398 7.133053779602051 -0.05349169671535492
8.453289031982422 7.133831024169922 -0.053130052983760834
8.430448532104492 7.145138263702393 -0.05308125913143158
8.388690948486328 7.140021800994873 -0.05291236191987991
8.35683822631836 7.143444538116455 -0.052806705236434937
8.309591293334961 7.132954120635986 -0.052602484822273254
8.297619819641113 7.152945518493652 -0.05262087658047676
8.260939598083496 7.15183687210083 -0.05248362571001053
8.22806453704834 7.15330171585083 -0.05236861854791641
8.199108123779297 7.158938884735107 -0.05161779001355171
8.164417266845703 7.158562660217285 -0.05149282515048981
8.138893127441406 7.16641902923584 -0.05142620950937271
8.099640846252441 7.162325382232666 -0.05127379298210144
8.066483497619629 7.162888526916504 -0.05115797370672226
8.039434432983398 7.169069290161133 -0.05108106881380081
8.00947093963623 7.172818183898926 -0.05055956915020943
7.982266426086426 7.178360462188721 -0.05048191547393799
7.947770118713379 7.178106784820557 -0.05036105960607529
7.9108734130859375 7.174646377563477 -0.049994029104709625
7.888535022735596 7.1845855712890625 -0.049948081374168396
7.854879379272461 7.184385299682617 -0.04983121156692505
7.815927505493164 7.17860221862793 -0.049678366631269455
7.7842817306518555 7.179681777954102 -0.04957292228937149
7.7489094734191895 7.177446365356445 -0.049443792551755905
7.728615760803223 7.188505172729492 -0.04940992593765259
7.696120262145996 7.188432216644287 -0.04929801821708679
7.674989700317383 7.199149131774902 -0.04884207993745804
7.637696743011475 7.194022178649902 -0.048700302839279175
7.615048408508301 7.203451156616211 -0.04843004792928696
7.5823073387146 7.202353000640869 -0.04831688851118088
7.5139360427856445 7.19784688949585 -0.04807435721158981
7.497673034667969 7.212164402008057 -0.0480651780962944
7.462624549865723 7.209206581115723 -0.04730617627501488
7.4322428703308105 7.209733963012695 -0.04720836877822876
7.3798651695251465 7.219498634338379 -0.047068480402231216
7.344773292541504 7.215057373046875 -0.04693944752216339
7.287907123565674 7.219757080078125 -0.04676993936300278
7.266027450561523 7.228020191192627 -0.046725206077098846
7.228629112243652 7.2216057777404785 -0.04636741802096367
7.217914581298828 7.240891456604004 -0.04598782956600189
7.177656173706055 7.230453014373779 -0.04582713544368744
7.14888334274292 7.232303619384766 -0.0457417294383049
7.121954917907715 7.2350287437438965 -0.04566545784473419
7.086852073669434 7.2296247482299805 -0.04553796350955963
7.072854518890381 7.245937347412109 -0.045545510947704315
7.037871360778809 7.2400946617126465 -0.04541727155447006
7.009302616119385 7.241016387939453 -0.045330874621868134
6.9863128662109375 7.247878074645996 -0.04506742209196091
6.950342178344727 7.240572929382324 -0.04453340172767639
6.929936408996582 7.250253677368164 -0.04450170695781708
6.901942253112793 7.251031875610352 -0.044418398290872574
6.882488250732422 7.260705947875977 -0.04438956454396248
6.838481903076172 7.245217323303223 -0.04420547932386398
6.8323774337768555 7.268909454345703 -0.04426320642232895
6.783665657043457 7.248049736022949 -0.04344227910041809
6.763752460479736 7.256899833679199 -0.0434110164642334
6.74141788482666 7.26309871673584 -0.043364886194467545
6.710262298583984 7.260576248168945 -0.04326386749744415
6.685290336608887 7.263739585876465 -0.04319930076599121
6.6553215980529785 7.261672019958496 -0.043104540556669235
6.628684043884277 7.263388633728027 -0.04282214865088463
6.614345550537109 7.277953147888184 -0.042826972901821136
6.584934234619141 7.276762008666992 -0.04234690964221954
6.560512542724609 7.280083656311035 -0.042286649346351624
6.530442237854004 7.27702522277832 -0.04218992963433266
6.49992561340332 7.274221420288086 -0.042093537747859955
6.473336219787598 7.274791717529297 -0.04201897978782654
6.450709342956543 7.279727935791016 -0.041970182210206985
6.4251556396484375 7.282171249389648 -0.04169854894280434
6.3938798904418945 7.2771077156066895 -0.041593290865421295
6.376734733581543 7.288353443145752 -0.041195474565029144
6.351469993591309 7.290534019470215 -0.04113192856311798
6.3214497566223145 7.286550521850586 -0.04103579744696617
6.293818473815918 7.286087989807129 -0.040956415235996246
6.271918773651123 7.291266441345215 -0.04091279208660126
6.254921913146973 7.302103042602539 -0.04069643095135689
6.217733383178711 7.290152549743652 -0.040556035935878754
6.204763412475586 7.305596828460693 -0.04056988283991814
6.169954299926758 7.296144485473633 -0.04006380960345268
6.145686626434326 7.298109531402588 -0.03980244696140289
6.117824554443359 7.295697212219238 -0.03971967473626137
6.100305557250977 7.306450366973877 -0.03932766616344452
6.077201843261719 7.309558391571045 -0.03927740454673767
6.052596092224121 7.310770034790039 -0.03921625390648842
6.020577430725098 7.303803443908691 -0.039109423756599426
6.002485275268555 7.312721252441406 -0.03909074142575264
5.9591145515441895 7.322549819946289 -0.038807619363069534
5.926261901855469 7.313127517700195 -0.03831769898533821
5.911438941955566 7.326778888702393 -0.038323692977428436
5.872879981994629 7.309977054595947 -0.03817198798060417
5.860002517700195 7.325029373168945 -0.038186460733413696
5.832259178161621 7.322361946105957 -0.03810717910528183
5.810519695281982 7.326213836669922 -0.03806539624929428
5.785031795501709 7.325569152832031 -0.03780016303062439
5.762412071228027 7.328741073608398 -0.037753526121377945
5.741126537322998 7.332938194274902 -0.03734363615512848
5.718206882476807 7.33589506149292 -0.03729614242911339
5.6848320960998535 7.324375152587891 -0.037178169935941696
5.667229652404785 7.333062171936035 -0.03716204687952995
5.645343780517578 7.337084770202637 -0.03712121397256851
5.618959426879883 7.334234237670898 -0.03685101121664047
5.596706390380859 7.337280750274658 -0.036439601331949234
5.566596984863281 7.329622268676758 -0.03634456545114517
5.554991722106934 7.345942497253418 -0.03636717051267624
5.528027057647705 7.342836380004883 -0.0362933874130249
5.506083011627197 7.345361709594727 -0.03605423495173454
5.483609676361084 7.347100257873535 -0.0356418713927269
5.457093715667725 7.34425163269043 -0.03557131439447403
5.4375834465026855 7.34980583190918 -0.03554334118962288
5.413385391235352 7.349271774291992 -0.03548566997051239
5.394933700561523 7.356757164001465 -0.035466909408569336
5.363331317901611 7.345578193664551 -0.03516623377799988
5.351631164550781 7.362526893615723 -0.035192832350730896
5.327219009399414 7.3610124588012695 -0.03477085381746292
5.293142795562744 7.345974922180176 -0.0346478633582592
5.282916069030762 7.364903450012207 -0.03468331694602966
5.262932777404785 7.369285583496094 -0.03465242311358452
5.2344465255737305 7.361651420593262 -0.03456602618098259
5.208974838256836 7.359066009521484 -0.03431019186973572
5.187436580657959 7.360982894897461 -0.03426869213581085
5.173180103302002 7.374156951904297 -0.033919502049684525
5.145012855529785 7.366474628448486 -0.03383544087409973
5.126820087432861 7.37297248840332 -0.033816445618867874
5.106795310974121 7.377748489379883 -0.033787645399570465
5.087162971496582 7.382074356079102 -0.03356895223259926
5.033533096313477 7.370492935180664 -0.03306486830115318
5.018578052520752 7.381438255310059 -0.03306639567017555
4.97031307220459 7.377078056335449 -0.03259856253862381
4.954805374145508 7.387095928192139 -0.032408345490694046
4.9237189292907715 7.374755859375 -0.03230835497379303
4.915901184082031 7.396238327026367 -0.032358065247535706
4.886309623718262 7.384912490844727 -0.03226408734917641
4.8682541847229 7.391889572143555 -0.032248519361019135
4.846818447113037 7.392694473266602 -0.0318571962416172
4.829016208648682 7.399968147277832 -0.031843140721321106
4.8086042404174805 7.402207374572754 -0.031622666865587234
4.785065650939941 7.399539947509766 -0.03156881034374237
4.759174346923828 7.394094944000244 -0.031502317637205124
4.737798690795898 7.394556999206543 -0.031462162733078
4.719883441925049 7.400359630584717 -0.03144459426403046
4.700743198394775 7.405194282531738 -0.031073611229658127
4.674406051635742 7.397588729858398 -0.03081592172384262
4.65594482421875 7.4029998779296875 -0.0307962354272604
4.634945869445801 7.4040069580078125 -0.030759543180465698
4.611341953277588 7.40040397644043 -0.030706185847520828
4.592085838317871 7.404696464538574 -0.030683506280183792
4.569079875946045 7.401848793029785 -0.03028504177927971
4.551453590393066 7.408304691314697 -0.030271554365754128
4.5314226150512695 7.410487174987793 -0.030057452619075775
4.51032018661499 7.41048526763916 -0.03002028912305832
4.494872093200684 7.42039680480957 -0.02967553772032261
4.46454381942749 7.405317783355713 -0.029578980058431625
4.449906349182129 7.415798187255859 -0.029582493007183075
4.427928924560547 7.415030002593994 -0.02935868874192238
4.410923004150391 7.4214959144592285 -0.029347732663154602
4.390305519104004 7.421830177307129 -0.029314186424016953
4.367506980895996 7.419414520263672 -0.028924481943249702
4.34648323059082 7.4188737869262695 -0.028886141255497932
4.3311920166015625 7.428752422332764 -0.028888650238513947
4.305066108703613 7.419646263122559 -0.02863732911646366
4.293485641479492 7.435188293457031 -0.028662431985139847
10.534303665161133 -9.790563583374023 -0.04323670268058777
10.73150634765625 -9.765892028808594 -0.043930597603321075
10.8513765335083 -9.750970840454102 -0.0441708005964756
12.232176780700684 -9.630884170532227 -0.05093773081898689
12.382963180541992 -9.624117851257324 -0.0513140931725502
12.481849670410156 -9.616929054260254 -0.0518902912735939
12.528504371643066 -9.611509323120117 -0.05200056731700897
12.625574111938477 -9.60178279876709 -0.05286633223295212
12.6827392578125 -9.603781700134277 -0.05302230268716812
12.771245956420898 -9.586444854736328 -0.05322182923555374
12.822092056274414 -9.583075523376465 -0.05335095524787903
12.915998458862305 -9.568745613098145 -0.0539163276553154
13.074817657470703 -9.559685707092285 -0.05432606488466263
14.414304733276367 -9.419897079467773 -0.061276063323020935
14.588712692260742 -9.403524398803711 -0.06176476925611496
14.70516586303711 -9.391986846923828 -0.062462788075208664
14.771530151367188 -9.390446662902832 -0.06335647404193878
14.886937141418457 -9.376015663146973 -0.06368087232112885
14.943405151367188 -9.368324279785156 -0.06383922696113586
15.073542594909668 -9.361711502075195 -0.06422637403011322
15.12724494934082 -9.351619720458984 -0.06437242031097412
15.197905540466309 -9.35132122039795 -0.06567852199077606
15.244890213012695 -9.33583927154541 -0.06579631567001343
15.315616607666016 -9.335504531860352 -0.06601803004741669
15.37775993347168 -9.329221725463867 -0.06620123982429504
15.441160202026367 -9.323064804077148 -0.06638967990875244
15.504657745361328 -9.31755542755127 -0.06657920777797699
15.622037887573242 -9.298768043518066 -0.06730111688375473
15.693065643310547 -9.296546936035156 -0.06752236932516098
17.106998443603516 -9.141023635864258 -0.07458243519067764
17.180461883544922 -9.08747673034668 -0.07473520934581757
17.220346450805664 -9.062889099121094 -0.07482673227787018
17.2977237701416 -9.010793685913086 -0.07541701197624207
17.330184936523438 -8.982030868530273 -0.07547783851623535
17.376670837402344 -8.913490295410156 -0.07551833987236023
17.417320251464844 -8.887873649597168 -0.07638303935527802
17.501863479614258 -8.839178085327148 -0.07659140229225159
17.523923873901367 -8.80386734008789 -0.07660631835460663
17.54452133178711 -8.76818561553955 -0.07661581039428711
17.552230834960938 -8.726563453674316 -0.07699817419052124
17.562091827392578 -8.685203552246094 -0.07696113735437393
17.57240867614746 -8.644491195678711 -0.07692691683769226
17.590051651000977 -8.56135368347168 -0.07761197537183762
17.588254928588867 -8.515378952026367 -0.07752591371536255
17.602890014648438 -8.476569175720215 -0.0775112584233284
17.62241554260254 -8.440491676330566 -0.07751911133527756
17.632923126220703 -8.400583267211914 -0.07791563868522644
17.64723777770996 -8.36119556427002 -0.07790009677410126
17.655820846557617 -8.27570915222168 -0.0785491019487381
17.719013214111328 -8.079546928405762 -0.07844853401184082
17.833805084228516 -7.506363868713379 -0.08030703663825989
17.843765258789062 -7.467005729675293 -0.08028194308280945
17.880504608154297 -7.394045829772949 -0.08030642569065094
17.87270736694336 -7.347427845001221 -0.08020275831222534
17.883419036865234 -7.263938903808594 -0.08086860179901123
17.912548065185547 -7.144914150238037 -0.08079619705677032
17.926742553710938 -7.107491493225098 -0.08154914528131485
17.92872428894043 -7.021048545837402 -0.08184342831373215
17.931854248046875 -6.9793901443481445 -0.08179151266813278
17.94523811340332 -6.940492630004883 -0.0817849263548851
17.959688186645508 -6.903271675109863 -0.08178553730249405
17.96397590637207 -6.860910892486572 -0.08173805475234985
17.962268829345703 -6.8175811767578125 -0.0816655158996582
17.990259170532227 -6.785525321960449 -0.08248232305049896
17.98000717163086 -6.737821102142334 -0.08236899226903915
17.978076934814453 -6.694583415985107 -0.08229588717222214
17.997526168823242 -6.658884048461914 -0.08274109661579132
17.986360549926758 -6.611550331115723 -0.08262455463409424
18.005617141723633 -6.576247215270996 -0.08265066891908646
18.028593063354492 -6.498716354370117 -0.08262966573238373
18.03125 -6.457424640655518 -0.08258022367954254
18.066495895385742 -6.341746807098389 -0.08405976742506027
18.08782196044922 -6.264239311218262 -0.08403550088405609
18.09305191040039 -6.223588943481445 -0.08399990200996399
18.143795013427734 -6.0287909507751465 -0.08435217291116714
18.168195724487305 -5.825838088989258 -0.08492499589920044
18.19466209411621 -5.708432197570801 -0.0848790854215622
18.184711456298828 -5.6631035804748535 -0.08519305288791656
17.963035583496094 -5.511960983276367 -0.08476678282022476
18.17796516418457 -5.535885810852051 -0.08574055880308151
18.093460083007812 -5.468715190887451 -0.08528030663728714
18.14058494567871 -5.441126823425293 -0.0854518935084343
18.1810302734375 -5.412159442901611 -0.08517640829086304
18.191268920898438 -5.373704433441162 -0.08632904291152954
17.91754722595215 -5.2516703605651855 -0.08502298593521118
18.158466339111328 -5.280970573425293 -0.08606702834367752
18.126728057861328 -5.230966567993164 -0.0858611911535263
18.09836196899414 -5.18135404586792 -0.08567624539136887
18.111658096313477 -5.144089698791504 -0.08568806946277618
18.097810745239258 -5.098830223083496 -0.08557191491127014
18.10462760925293 -5.0597944259643555 -0.08555464446544647
18.11344337463379 -5.021756649017334 -0.08628059178590775
18.105056762695312 -4.9782328605651855 -0.08619196712970734
18.07791519165039 -4.93001651763916 -0.08642610907554626
18.078907012939453 -4.890002250671387 -0.08638334274291992
18.073558807373047 -4.847567558288574 -0.08630949258804321
18.0837345123291 -4.8096699714660645 -0.08630983531475067
18.102317810058594 -4.773651599884033 -0.08635181933641434
18.087642669677734 -4.7292375564575195 -0.08623398840427399
18.075498580932617 -4.686008453369141 -0.08612779527902603
18.074745178222656 -4.645051002502441 -0.08680761605501175
18.077062606811523 -4.605256080627441 -0.08677458763122559
18.08281135559082 -4.5667805671691895 -0.0871642455458641
18.07010841369629 -4.522950172424316 -0.08705482631921768
18.08584213256836 -4.486606597900391 -0.08708493411540985
18.055307388305664 -4.398397922515869 -0.08684875071048737
18.065006256103516 -4.361067295074463 -0.08685088902711868
18.052398681640625 -4.277647972106934 -0.08743010461330414
18.050506591796875 -4.237657070159912 -0.08738013356924057
18.059358596801758 -4.199049949645996 -0.08737899363040924
18.040908813476562 -4.1553168296813965 -0.08724886178970337
18.05552101135254 -4.119245529174805 -0.08727839589118958
18.0521240234375 -4.0779194831848145 -0.08762230724096298
18.04268455505371 -4.036452293395996 -0.08753381669521332
18.026987075805664 -3.953296184539795 -0.08737818896770477
18.03632926940918 -3.916133403778076 -0.08738365769386292
18.040142059326172 -3.837477207183838 -0.08804944902658463
18.04141616821289 -3.7978920936584473 -0.08801603317260742
18.023454666137695 -3.7546589374542236 -0.08788786828517914
18.015079498291016 -3.7139244079589844 -0.087811179459095
18.013219833374023 -3.673851490020752 -0.08776156604290009
18.009349822998047 -3.633742570877075 -0.08810627460479736
18.00190544128418 -3.5933785438537598 -0.08803235739469528
18.000507354736328 -3.5531303882598877 -0.08798792958259583
17.988981246948242 -3.5120863914489746 -0.08789665997028351
17.99368667602539 -3.474256992340088 -0.08860369026660919
17.980051040649414 -3.4317989349365234 -0.088901087641716
17.969863891601562 -3.3912200927734375 -0.08881480991840363
17.975723266601562 -3.352574110031128 -0.0888081043958664
17.963134765625 -3.3116676807403564 -0.08871283382177353
17.95743179321289 -3.272099256515503 -0.08864991366863251
17.959415435791016 -3.2328367233276367 -0.08862569183111191
17.96588897705078 -3.1570773124694824 -0.08859387785196304
17.95319366455078 -3.1153249740600586 -0.08849731832742691
17.94007110595703 -3.074711561203003 -0.08840057253837585
17.951305389404297 -3.0371766090393066 -0.08842681348323822
17.935537338256836 -2.99623703956604 -0.08871228247880936
17.941219329833984 -2.9589290618896484 -0.08942380547523499
17.936248779296875 -2.918764352798462 -0.08936774730682373
17.941116333007812 -2.881352186203003 -0.08936181664466858
17.935922622680664 -2.8423502445220947 -0.08930856734514236
17.922595977783203 -2.8010034561157227 -0.08921122550964355
17.926773071289062 -2.7635583877563477 -0.08920205384492874
17.924304962158203 -2.723989963531494 -0.0891619324684143
17.925737380981445 -2.686161518096924 -0.08913994580507278
17.909969329833984 -2.60672664642334 -0.08900678157806396
17.903072357177734 -2.5677943229675293 -0.08894559741020203
17.903154373168945 -2.490903377532959 -0.09039140492677689
17.896785736083984 -2.452169895172119 -0.08962345123291016
17.88796615600586 -2.4120428562164307 -0.08955265581607819
17.886808395385742 -2.2597689628601074 -0.08944975584745407
17.89202308654785 -1.9935216903686523 -0.09041957557201385
17.898365020751953 -1.95663321018219 -0.09043066203594208
17.880064010620117 -1.9166996479034424 -0.09031668305397034
17.884923934936523 -1.8789770603179932 -0.0903209000825882
17.89280128479004 -1.8418793678283691 -0.0903417095541954
17.870267868041992 -1.8013807535171509 -0.0902087539434433
17.877124786376953 -1.7646042108535767 -0.09022439271211624
17.8773193359375 -1.7267788648605347 -0.09091334044933319
17.883512496948242 -1.6892169713974 -0.09092738479375839
17.872314453125 -1.6507470607757568 -0.09085193276405334
17.85285758972168 -1.6112020015716553 -0.09112496674060822
17.855070114135742 -1.5733466148376465 -0.09111911058425903
17.85495376586914 -1.5356123447418213 -0.09039735794067383
17.85843849182129 -1.4985848665237427 -0.09078812599182129
17.861045837402344 -1.460776925086975 -0.09078548103570938
17.86811637878418 -1.4236434698104858 -0.0908060371875763
17.841035842895508 -1.383527159690857 -0.09065334498882294
17.847436904907227 -1.3467698097229004 -0.09137532860040665
17.855323791503906 -1.3097163438796997 -0.09140109270811081
17.843215942382812 -1.2709015607833862 -0.09132593870162964
17.822660446166992 -1.231881022453308 -0.09120696038007736
17.792465209960938 -1.1926995515823364 -0.09103918075561523
17.777606964111328 -1.15394926071167 -0.09095080196857452
17.773468017578125 -1.1162596940994263 -0.0909176915884018
17.759662628173828 -1.0776959657669067 -0.09083539247512817
17.740243911743164 -1.0391861200332642 -0.09072474390268326
17.745534896850586 -1.0025489330291748 -0.09074126183986664
17.7396183013916 -0.964587926864624 -0.09108534455299377
17.73236846923828 -0.8900107145309448 -0.09102825820446014
17.728574752807617 -0.8522418141365051 -0.09099933505058289
17.716304779052734 -0.7768833637237549 -0.09161704778671265
17.69959831237793 -0.6646953225135803 -0.0918908640742302
17.680374145507812 -0.5526915788650513 -0.0910743921995163
17.674564361572266 -0.47801148891448975 -0.09103342890739441
17.66501235961914 -0.36663612723350525 -0.09166644513607025
17.666723251342773 -0.25519031286239624 -0.09166513383388519
17.660818099975586 -0.21844887733459473 -0.0916319489479065
17.648988723754883 -0.143967404961586 -0.09194839745759964
17.644065856933594 -0.10731056332588196 -0.09192134439945221
17.64120101928711 -0.06998804211616516 -0.09190546721220016
17.64702606201172 -0.0330081507563591 -0.09193520247936249
20.801530838012695 0.0038088741712272167 0.06221179664134979
20.78231430053711 0.1344577670097351 0.06170507147908211
20.767147064208984 0.2653772830963135 0.06166413426399231
20.709381103515625 0.5681267976760864 0.060695014894008636
20.684036254882812 0.6116536855697632 0.06062442064285278
20.676651000976562 0.6543830633163452 0.06060662865638733
20.674091339111328 0.698066234588623 0.060603320598602295
20.651382446289062 0.7406542301177979 0.06054116412997246
20.66159439086914 0.7839556932449341 0.06057574599981308
20.64234733581543 0.8273892402648926 0.06007765978574753
20.62287139892578 0.8694776296615601 0.06047241389751434
20.605289459228516 0.9115759134292603 0.06123927980661392
20.59744644165039 0.955320417881012 0.06077568978071213
20.593217849731445 0.9979554414749146 0.060769058763980865
20.58674430847168 1.0404677391052246 0.06075657904148102
