VERSION .7
FIELDS x y z
SIZE 4 4 4
TYPE F F F
COUNT 1 1 1
WIDTH 853
HEIGHT 1
VIEWPOINT 0 0 0 1 0 0 0
POINTS 853
DATA ascii
50.846397399902344 -1.3816572427749634 2.1179418563842773
50.86772918701172 -1.276307463645935 2.1187164783477783
50.89000701904297 -1.1683874130249023 2.119535446166992
50.8472785949707 -1.0615414381027222 2.117659091949463
50.814571380615234 -0.952560305595398 2.1162075996398926
50.84407043457031 -0.847568690776825 2.117358446121216
50.767642974853516 -0.7406206130981445 2.1141059398651123
50.830955505371094 -0.6332334280014038 2.116682529449463
50.775657653808594 -0.5268659591674805 2.1143288612365723
50.68632125854492 -0.41794732213020325 2.1105668544769287
50.70878601074219 -0.3128964304924011 2.1114706993103027
50.66337203979492 -0.20718169212341309 2.1095566749572754
50.639915466308594 -0.0992017462849617 2.1085660457611084
42.147396087646484 0.01800731010735035 1.4681485891342163
42.146968841552734 0.10804300010204315 1.468137502670288
42.13035583496094 0.19543029367923737 1.4675706624984741
42.110748291015625 0.28297901153564453 1.4669042825698853
42.06330871582031 0.37227413058280945 1.4652762413024902
42.077423095703125 0.459726482629776 1.465797781944275
42.07621765136719 0.5496107339859009 1.4657930135726929
42.07427215576172 0.6369150280952454 1.4657684564590454
42.0736083984375 0.7244874238967896 1.4657944440841675
42.11988830566406 0.8150433301925659 1.4674633741378784
42.184722900390625 0.9038759469985962 1.4697849750518799
42.29718017578125 0.9943544864654541 1.4737708568572998
42.18002700805664 1.5247466564178467 1.470241665840149
42.109718322753906 1.6097121238708496 1.4679042100906372
42.01667022705078 1.696050763130188 1.4647841453552246
41.976409912109375 1.781684160232544 1.4635074138641357
41.93993377685547 1.9571137428283691 1.4622611999511719
41.926334381103516 2.0439302921295166 1.4619314670562744
41.909698486328125 2.1326229572296143 1.4615070819854736
41.900840759277344 2.2193586826324463 1.4590396881103516
41.881710052490234 2.3057596683502197 1.4585375785827637
41.86355972290039 2.3942248821258545 1.4580793380737305
41.86161804199219 2.4812793731689453 1.4581876993179321
41.86175537109375 2.658249616622925 1.4585694074630737
41.81311798095703 2.832012414932251 1.4595905542373657
41.76979064941406 2.916168212890625 1.4582874774932861
41.80039596557617 3.005732297897339 1.459570050239563
41.78645706176758 3.0942230224609375 1.4593099355697632
41.74709701538086 3.1784303188323975 1.458162546157837
41.73176193237305 3.2669434547424316 1.4578684568405151
41.73617172241211 3.3544440269470215 1.458014965057373
41.70545959472656 3.4393444061279297 1.4571890830993652
41.69974899291992 3.528327465057373 1.4572486877441406
41.67179489135742 3.613321304321289 1.4542224407196045
41.65930938720703 3.7016706466674805 1.4540586471557617
41.640926361083984 3.78714919090271 1.4536879062652588
41.63453674316406 3.8739466667175293 1.4537423849105835
41.64190673828125 3.9641294479370117 1.4542914628982544
41.56636047363281 4.043995380401611 1.45194411277771
41.60259246826172 4.22445821762085 1.453570008277893
41.54289627075195 4.3952317237854 1.4498119354248047
41.5172233581543 4.479655742645264 1.4492371082305908
41.4674186706543 4.651033878326416 1.4481697082519531
41.476112365722656 4.739182949066162 1.448813796043396
41.474151611328125 4.828736305236816 1.4537124633789062
41.46929168701172 4.915414333343506 1.4538960456848145
41.41171646118164 5.085532188415527 1.4523701667785645
41.40443420410156 5.26173210144043 1.450574278831482
41.37176513671875 5.344844341278076 1.4498149156570435
41.31962203979492 5.425556182861328 1.4483805894851685
41.29759979248047 5.512184143066406 1.4477710723876953
41.25607681274414 5.593806266784668 1.4467194080352783
41.159881591796875 5.668019771575928 1.441462516784668
41.12562561035156 5.7526021003723145 1.4406886100769043
41.06637191772461 5.8312273025512695 1.43903386592865
41.02589416503906 5.914914131164551 1.4380546808242798
40.97092056274414 5.993805885314941 1.4363172054290771
40.95253372192383 6.078191757202148 1.4361127614974976
40.91254425048828 6.1613616943359375 1.4328827857971191
40.88307189941406 6.243715763092041 1.432301640510559
40.8447380065918 6.327179908752441 1.4314286708831787
40.78862762451172 6.405191421508789 1.4299253225326538
40.7619514465332 6.487951755523682 1.429216742515564
40.73063278198242 6.57196569442749 1.4263287782669067
40.682464599609375 6.650843620300293 1.425121784210205
40.654258728027344 6.7354326248168945 1.4246344566345215
40.61048889160156 6.8147993087768555 1.4304141998291016
40.58419418334961 6.897253513336182 1.4277175664901733
40.54721450805664 6.9798760414123535 1.4269366264343262
40.54268264770508 7.06575345993042 1.4272898435592651
40.49175262451172 7.143735885620117 1.425775170326233
40.44145965576172 7.2237324714660645 1.4245429039001465
40.40846252441406 7.304401397705078 1.4216440916061401
40.361289978027344 7.384947299957275 1.4205361604690552
40.33621597290039 7.46690034866333 1.4201961755752563
40.235111236572266 7.623575210571289 1.4175130128860474
40.206085205078125 7.704540729522705 1.4147899150848389
40.126121520996094 7.864553451538086 1.412888526916504
40.082820892333984 7.942478179931641 1.4119412899017334
40.05664825439453 8.02625846862793 1.4093637466430664
40.00988006591797 8.103285789489746 1.4083069562911987
39.980525970458984 8.18628978729248 1.407886028289795
39.942359924316406 8.264875411987305 1.4069030284881592
39.85982894897461 8.423006057739258 1.40298330783844
39.816375732421875 8.500179290771484 1.4020717144012451
39.76390075683594 8.664228439331055 1.3992488384246826
39.707069396972656 8.738198280334473 1.4046200513839722
39.69525909423828 8.824544906616211 1.4023810625076294
39.63645935058594 8.897830963134766 1.4009528160095215
39.637332916259766 8.984713554382324 1.401642084121704
39.57941436767578 9.06027889251709 1.4000340700149536
39.51020812988281 9.130764961242676 1.3960140943527222
39.52120590209961 9.219986915588379 1.397078037261963
39.17295837402344 9.226781845092773 1.3854572772979736
38.84931182861328 9.23568344116211 1.374449610710144
38.47114562988281 9.232654571533203 1.3595807552337646
38.08768844604492 9.224264144897461 1.346703290939331
37.728336334228516 9.220396041870117 1.3344429731369019
37.41753005981445 9.228955268859863 1.3220150470733643
37.04201126098633 9.217923164367676 1.3094203472137451
36.715293884277344 9.219953536987305 1.2985646724700928
36.40461730957031 9.222288131713867 1.2859559059143066
36.077537536621094 9.21937084197998 1.2750778198242188
35.731502532958984 9.212080001831055 1.2635383605957031
35.435726165771484 9.214290618896484 1.2535367012023926
35.109901428222656 9.209686279296875 1.2406996488571167
34.79621505737305 9.204622268676758 1.2302871942520142
34.45952224731445 9.19211196899414 1.2190537452697754
34.17269515991211 9.193841934204102 1.207436442375183
33.875850677490234 9.189408302307129 1.1978263854980469
33.593814849853516 9.187999725341797 1.192372441291809
33.27777862548828 9.177803039550781 1.1818466186523438
33.006629943847656 9.176770210266113 1.1726899147033691
32.727718353271484 9.17458724975586 1.1615967750549316
32.45846939086914 9.171801567077637 1.1527132987976074
31.917306900024414 9.164210319519043 1.1328284740447998
31.63423728942871 9.154036521911621 1.1234532594680786
31.317419052124023 9.134906768798828 1.1126976013183594
31.02269744873047 9.118836402893066 1.1011098623275757
30.548351287841797 9.119348526000977 1.0854382514953613
30.262710571289062 9.102519035339355 1.0742131471633911
29.758459091186523 9.087686538696289 1.0574774742126465
29.546871185302734 9.090147018432617 1.0489219427108765
29.33228302001953 9.092764854431152 1.041809320449829
29.12135124206543 9.093661308288574 1.034987211227417
28.91409683227539 9.095026016235352 1.0266187191009521
28.668224334716797 9.084846496582031 1.018396019935608
28.450178146362305 9.080759048461914 1.009669542312622
28.244041442871094 9.079773902893066 1.0030231475830078
28.030986785888672 9.077214241027832 0.9959677457809448
27.813730239868164 9.07067584991455 0.9874730706214905
27.574262619018555 9.057795524597168 0.9828611016273499
27.386795043945312 9.059223175048828 0.9750850796699524
27.17513656616211 9.053659439086914 0.9682352542877197
26.97140884399414 9.048011779785156 0.9599044919013977
26.76348876953125 9.040095329284668 0.9531707763671875
26.553945541381836 9.03255844116211 0.9463922381401062
26.343902587890625 9.022149085998535 0.9378690123558044
26.12164306640625 9.006811141967773 0.9306204319000244
25.932167053222656 9.003336906433105 0.9230359196662903
25.712677001953125 8.986966133117676 0.9157235026359558
25.528532028198242 8.983846664428711 0.909846842288971
25.330339431762695 8.97321891784668 0.9018024802207947
25.16082763671875 8.971981048583984 0.8964288234710693
24.97797393798828 8.966964721679688 0.8889725208282471
24.828697204589844 8.97158432006836 0.8843213319778442
24.638071060180664 8.96071720123291 0.8781944513320923
24.49651336669922 8.968366622924805 0.872234582901001
24.31950569152832 8.96083927154541 0.8665928840637207
24.165451049804688 8.962753295898438 0.8602098226547241
23.975252151489258 8.948851585388184 0.8540987968444824
23.813404083251953 8.944786071777344 0.847438633441925
23.646541595458984 8.939797401428223 0.8421784043312073
23.498552322387695 8.939626693725586 0.8375676870346069
23.342132568359375 8.937246322631836 0.8314375877380371
23.15235710144043 8.919718742370605 0.8265593647956848
23.00156593322754 8.916485786437988 0.8204730749130249
22.82810401916504 8.90538501739502 0.8149616122245789
22.667680740356445 8.897045135498047 0.8084042072296143
22.323429107666016 8.870604515075684 0.7959837913513184
22.146997451782227 8.853754997253418 0.7903457880020142
21.99016761779785 8.845589637756348 0.7852832674980164
21.823373794555664 8.831156730651855 0.778679370880127
21.67864227294922 8.824987411499023 0.7740292549133301
21.52933120727539 8.817864418029785 0.7680832743644714
21.361515045166016 8.800941467285156 0.76260906457901
21.229341506958008 8.798211097717285 0.7572739124298096
21.081636428833008 8.789666175842285 0.7525362968444824
20.93745231628418 8.780598640441895 0.7467846274375916
20.79354476928711 8.772526741027832 0.7423186302185059
20.66077423095703 8.76706314086914 0.736855149269104
20.526166915893555 8.76025390625 0.7327014207839966
20.381385803222656 8.749980926513672 0.7268433570861816
20.244482040405273 8.741004943847656 0.7226065397262573
20.108369827270508 8.733245849609375 0.7170728445053101
19.96746253967285 8.72134780883789 0.7126912474632263
19.82185935974121 8.70677661895752 0.7068148255348206
19.727235794067383 8.715533256530762 0.7042311429977417
19.61452865600586 8.714432716369629 0.7008517980575562
19.510305404663086 8.716790199279785 0.6964691281318665
19.38614273071289 8.710906982421875 0.6926977634429932
19.265369415283203 8.70473575592041 0.6877345442771912
19.152095794677734 8.702868461608887 0.6843529343605042
19.038589477539062 8.699002265930176 0.6796618700027466
18.92385482788086 8.69422721862793 0.6762106418609619
18.800352096557617 8.68603801727295 0.6711918115615845
18.690204620361328 8.682259559631348 0.6679009795188904
18.567138671875 8.672114372253418 0.662894606590271
18.4647159576416 8.672240257263184 0.6598958969116211
18.351736068725586 8.665706634521484 0.6552595496177673
18.249879837036133 8.665338516235352 0.6522822380065918
18.11866569519043 8.649157524108887 0.6470056772232056
18.027332305908203 8.651538848876953 0.643280565738678
17.91652488708496 8.645498275756836 0.639866292476654
17.814102172851562 8.641695976257324 0.6357550024986267
17.702131271362305 8.634142875671387 0.6322993040084839
17.599205017089844 8.629197120666504 0.6280637979507446
17.396808624267578 8.621026039123535 0.6209447979927063
17.29619026184082 8.615917205810547 0.6179903745651245
17.085384368896484 8.600905418395996 0.6106913089752197
16.975984573364258 8.590034484863281 0.6063668727874756
16.894075393676758 8.593966484069824 0.6029375791549683
16.794658660888672 8.587311744689941 0.5999125838279724
16.694534301757812 8.579865455627441 0.5959349870681763
16.606952667236328 8.57974910736084 0.593350887298584
16.515087127685547 8.57575511932373 0.5896764397621155
16.40631866455078 8.56267261505127 0.5852971076965332
16.297780990600586 8.550251007080078 0.582073450088501
16.234825134277344 8.560233116149902 0.579336941242218
16.13483238220215 8.55160903930664 0.5763113498687744
16.056699752807617 8.552926063537598 0.5731492638587952
15.950215339660645 8.538743019104004 0.5698726177215576
15.867602348327637 8.538178443908691 0.566577136516571
15.783895492553711 8.535422325134277 0.5631231665611267
15.690546035766602 8.528313636779785 0.5604413747787476
15.592867851257324 8.517187118530273 0.5564970970153809
15.498777389526367 8.507597923278809 0.5536633133888245
15.42714786529541 8.511216163635254 0.5507805943489075
15.337953567504883 8.503572463989258 0.5471535921096802
15.265849113464355 8.505180358886719 0.545211672782898
15.180500030517578 8.500057220458984 0.5417460203170776
15.085386276245117 8.487967491149902 0.5388766527175903
15.019789695739746 8.493353843688965 0.536228358745575
14.925317764282227 8.480856895446777 0.5325353741645813
14.839044570922852 8.47261905670166 0.5291405320167542
14.77104377746582 8.475685119628906 0.5263195633888245
14.683215141296387 8.465840339660645 0.5238150358200073
14.610040664672852 8.464211463928223 0.5208004713058472
14.537192344665527 8.463422775268555 0.5178172588348389
14.449106216430664 8.4523344039917 0.515303373336792
14.380615234375 8.453554153442383 0.5124845504760742
14.305723190307617 8.44952392578125 0.5103411674499512
14.209406852722168 8.432458877563477 0.5066168904304504
14.148913383483887 8.437480926513672 0.5040949583053589
14.062466621398926 8.425539016723633 0.501539945602417
13.930791854858398 8.4265775680542 0.49621182680130005
13.85306167602539 8.418875694274902 0.4940643906593323
13.784912109375 8.417835235595703 0.49128738045692444
13.696724891662598 8.403056144714355 0.4877832531929016
13.566328048706055 8.401898384094238 0.48342010378837585
13.503447532653809 8.401775360107422 0.48082825541496277
13.380565643310547 8.403691291809082 0.47674304246902466
13.280336380004883 8.37922191619873 0.4736979901790619
13.220646858215332 8.381099700927734 0.471342533826828
13.153497695922852 8.376847267150879 0.4687069356441498
13.08355712890625 8.37052059173584 0.46588367223739624
13.017461776733398 8.367477416992188 0.4633123576641083
12.956788063049316 8.366524696350098 0.46167808771133423
12.89265251159668 8.363181114196777 0.45907288789749146
12.820914268493652 8.355504989624023 0.45630693435668945
12.764962196350098 8.356832504272461 0.45484161376953125
12.689857482910156 8.346445083618164 0.4518719017505646
12.626443862915039 8.342324256896973 0.44939425587654114
12.56337833404541 8.338160514831543 0.44767576456069946
12.501692771911621 8.335745811462402 0.44519317150115967
12.433229446411133 8.327421188354492 0.4424557387828827
12.370687484741211 8.322876930236816 0.4408453404903412
12.319940567016602 8.326915740966797 0.43875929713249207
12.247400283813477 8.31496524810791 0.43588513135910034
12.173747062683105 8.303009986877441 0.4338948130607605
12.12154769897461 8.304314613342285 0.43174970149993896
12.066926956176758 8.303847312927246 0.4295240342617035
12.017168045043945 8.30738353729248 0.42757564783096313
11.957318305969238 8.302736282348633 0.4259721636772156
11.876437187194824 8.283260345458984 0.42281991243362427
11.816009521484375 8.278585433959961 0.42041414976119995
11.766059875488281 8.280046463012695 0.4192471206188202
11.715253829956055 8.281769752502441 0.41718995571136475
11.642860412597656 8.266881942749023 0.41522228717803955
11.590629577636719 8.266029357910156 0.4131006896495819
11.543185234069824 8.269451141357422 0.4112548828125
11.483821868896484 8.26303768157959 0.40888556838035583
11.422304153442383 8.254905700683594 0.407222718000412
11.376056671142578 8.258432388305664 0.4053414463996887
11.308858871459961 8.245540618896484 0.40278393030166626
11.271554946899414 8.25432300567627 0.40198343992233276
11.212403297424316 8.247758865356445 0.3996495306491852
11.158699035644531 8.24399471282959 0.3974967300891876
11.094810485839844 8.233491897583008 0.39508435130119324
11.04882526397705 8.234975814819336 0.3939729630947113
10.94166374206543 8.227008819580078 0.3897114396095276
10.894397735595703 8.226914405822754 0.38788172602653503
10.82544994354248 8.211220741271973 0.3859703838825226
10.772316932678223 8.206189155578613 0.38385525345802307
10.740330696105957 8.217103004455566 0.3824959397315979
10.676173210144043 8.204232215881348 0.3800916373729706
10.64021110534668 8.211771965026855 0.37933748960494995
10.526599884033203 8.195059776306152 0.3748849034309387
10.47996711730957 8.193741798400879 0.3730950355529785
10.431713104248047 8.191980361938477 0.3719206750392914
10.383813858032227 8.189260482788086 0.370739609003067
10.341728210449219 8.190935134887695 0.36911529302597046
10.278980255126953 8.177029609680176 0.3666960299015045
10.226436614990234 8.169940948486328 0.3646260201931
10.193042755126953 8.178071022033691 0.3639640212059021
10.149287223815918 8.178565979003906 0.3623039722442627
10.087445259094238 8.16331672668457 0.3599075973033905
10.04663372039795 8.164949417114258 0.35826635360717773
9.996201515197754 8.159383773803711 0.3562987446784973
9.945131301879883 8.152144432067871 0.35500475764274597
9.908063888549805 8.157210350036621 0.3535943925380707
9.860679626464844 8.15259075164795 0.35172516107559204
9.80224323272705 8.138583183288574 0.3494647145271301
9.768172264099121 8.145609855651855 0.3487939238548279
9.71611213684082 8.136439323425293 0.34676316380500793
9.687652587890625 8.147878646850586 0.34566888213157654
9.625779151916504 8.130002975463867 0.3432934284210205
9.59640121459961 8.139371871948242 0.34207862615585327
9.532878875732422 8.120572090148926 0.3403581380844116
9.501981735229492 8.128338813781738 0.3390924632549286
9.456048965454102 8.123089790344238 0.3373664617538452
9.404232025146484 8.113555908203125 0.3353768587112427
9.359269142150879 8.108705520629883 0.33361658453941345
9.318559646606445 8.107444763183594 0.3326929807662964
9.27810001373291 8.107034683227539 0.33186444640159607
9.243576049804688 8.110758781433105 0.33047980070114136
9.188014030456543 8.096809387207031 0.3290382921695709
9.15311336517334 8.099861145019531 0.32764315605163574
9.113525390625 8.098613739013672 0.3260822594165802
9.07503890991211 8.099173545837402 0.3245805501937866
9.02290153503418 8.086344718933105 0.3226468861103058
8.991340637207031 8.091766357421875 0.32137924432754517
8.942238807678223 8.082219123840332 0.3201694190502167
8.907855987548828 8.084793090820312 0.318803608417511
8.85466480255127 8.070185661315918 0.316768616437912
8.819353103637695 8.072464942932129 0.3153895437717438
8.781682968139648 8.071538925170898 0.31398266553878784
8.734630584716797 8.062782287597656 0.3121896982192993
8.6968412399292 8.061389923095703 0.31136608123779297
8.651765823364258 8.053053855895996 0.3096280097961426
8.614203453063965 8.05250358581543 0.3081783652305603
8.580704689025879 8.054619789123535 0.30685845017433167
8.499484062194824 8.045982360839844 0.3038025498390198
8.46749496459961 8.049084663391113 0.30254197120666504
8.432463645935059 8.050145149230957 0.30183520913124084
8.379363059997559 8.032754898071289 0.29982155561447144
8.349740028381348 8.037673950195312 0.2986498475074768
8.303464889526367 8.027373313903809 0.298176109790802
8.273356437683105 8.031547546386719 0.2969886362552643
8.197108268737793 8.024859428405762 0.29412877559661865
8.154047966003418 8.015910148620605 0.29248157143592834
8.124979019165039 8.02153491973877 0.29198530316352844
8.074636459350586 8.004990577697754 0.2900780439376831
8.057012557983398 8.02074146270752 0.2893480956554413
8.014618873596191 8.01269817352295 0.2877473831176758
7.971355438232422 8.002589225769043 0.28609994053840637
7.938663005828857 8.00291633605957 0.2849001884460449
7.898536205291748 7.99655818939209 0.28338608145713806
7.8634514808654785 7.994152545928955 0.28203701972961426
7.8335795402526855 7.996911525726318 0.28149402141571045
7.7954583168029785 7.992077350616455 0.2800551652908325
7.761538982391357 7.9904093742370605 0.27875134348869324
7.718289375305176 7.979921340942383 0.2771316468715668
7.702373027801514 7.996606349945068 0.27647748589515686
7.650910377502441 7.976240158081055 0.2745486795902252
7.621440887451172 7.979568958282471 0.2734282612800598
7.5845112800598145 7.973968505859375 0.27208951115608215
7.561997890472412 7.983409881591797 0.27120402455329895
7.52239465713501 7.975656986236572 0.2697245180606842
7.489437103271484 7.973799705505371 0.26907089352607727
7.448845863342285 7.964516639709473 0.2681572139263153
7.424004554748535 7.971142292022705 0.2677949368953705
7.379451751708984 7.956347465515137 0.2661200761795044
7.34557580947876 7.953834533691406 0.2648491859436035
7.319869518280029 7.959074974060059 0.26385727524757385
7.285604476928711 7.954885482788086 0.2625577449798584
7.2472944259643555 7.947075366973877 0.2611948251724243
7.223036766052246 7.953563690185547 0.26025891304016113
7.184283256530762 7.943952560424805 0.2588018476963043
7.151376247406006 7.941600322723389 0.2575742304325104
7.114132881164551 7.933287620544434 0.2561745345592499
7.079922676086426 7.929152011871338 0.25490280985832214
7.068112373352051 7.949067115783691 0.25442177057266235
7.020543098449707 7.9286417961120605 0.25265392661094666
6.991374492645264 7.929766654968262 0.25215092301368713
6.960457801818848 7.927804470062256 0.25098419189453125
6.928303241729736 7.924288749694824 0.2497744858264923
6.902622222900391 7.92903470993042 0.24881687760353088
6.863712787628174 7.917457103729248 0.24736621975898743
6.836191177368164 7.918851852416992 0.24632705748081207
6.8015007972717285 7.912777900695801 0.2451099306344986
6.76569128036499 7.90424108505249 0.24377471208572388
6.736617088317871 7.903415203094482 0.24268338084220886
6.704836368560791 7.900251865386963 0.24151328206062317
6.676806449890137 7.900399684906006 0.2416028082370758
6.643879413604736 7.8955888748168945 0.2403910905122757
6.625511646270752 7.907009124755859 0.2396898865699768
6.5806756019592285 7.886690139770508 0.23803170025348663
6.561007976531982 7.897353172302246 0.2373037189245224
6.521790027618408 7.8833723068237305 0.23585131764411926
6.467128753662109 7.884675025939941 0.23382791876792908
6.43752384185791 7.881880760192871 0.23272699117660522
6.376702785491943 7.874875068664551 0.23048704862594604
6.349700927734375 7.874886989593506 0.2294837385416031
6.297117710113525 7.877337455749512 0.22754846513271332
6.255614280700684 7.85880184173584 0.2260836660861969
6.230629920959473 7.861823081970215 0.2251744270324707
6.201325416564941 7.858292579650879 0.2240932136774063
6.184361457824707 7.870325565338135 0.2234586477279663
6.144482612609863 7.854053974151611 0.22201474010944366
6.113678932189941 7.848184108734131 0.2208821028470993
6.08695125579834 7.84830379486084 0.21991342306137085
6.061208724975586 7.848787307739258 0.21896767616271973
6.039089679718018 7.853782653808594 0.21815186738967896
6.009919166564941 7.850494861602783 0.2170998752117157
5.9740447998046875 7.837275505065918 0.21687579154968262
5.953696250915527 7.8442912101745605 0.21612632274627686
5.920742034912109 7.835574150085449 0.21493779122829437
5.8983283042907715 7.839682579040527 0.21411478519439697
5.862307548522949 7.825555801391602 0.2127993106842041
5.836905479431152 7.8264336585998535 0.21188725531101227
5.815218925476074 7.83121395111084 0.21109388768672943
5.786773204803467 7.826788425445557 0.21005606651306152
5.758995532989502 7.824126720428467 0.20906096696853638
5.737285614013672 7.828610420227051 0.20773448050022125
5.699131488800049 7.81139612197876 0.20636418461799622
5.680671691894531 7.820222854614258 0.20569467544555664
5.642395973205566 7.801527976989746 0.20430630445480347
5.621349811553955 7.807497024536133 0.2035602480173111
5.601646900177002 7.814279079437256 0.20284666121006012
5.571305274963379 7.806112289428711 0.2017485350370407
5.545403480529785 7.805028915405273 0.20082904398441315
5.522894382476807 7.80761194229126 0.20001663267612457
5.495261192321777 7.803757667541504 0.19903500378131866
5.469679832458496 7.801868438720703 0.1981135755777359
5.438761234283447 7.792119026184082 0.1969987452030182
5.410264015197754 7.7865824699401855 0.19598767161369324
5.38423490524292 7.783638954162598 0.19505368173122406
5.359325408935547 7.782096862792969 0.1941584348678589
5.335594177246094 7.783079624176025 0.19332343339920044
5.31677770614624 7.790346145629883 0.19265276193618774
5.286331653594971 7.780362606048584 0.19155970215797424
5.265951633453369 7.786097049713135 0.19084960222244263
5.233631134033203 7.773021221160889 0.18969044089317322
5.2127604484558105 7.776810169219971 0.18894709646701813
5.191367149353027 7.780779838562012 0.1882021278142929
5.168989181518555 7.782171726226807 0.18740597367286682
5.133607387542725 7.764743804931641 0.18615341186523438
5.110854148864746 7.765408515930176 0.18534663319587708
5.091399192810059 7.770915508270264 0.1846581995487213
5.037876129150391 7.760323524475098 0.18277078866958618
5.017709732055664 7.764492988586426 0.18205919861793518
4.985639572143555 7.751140117645264 0.18093271553516388
4.963299751281738 7.751717567443848 0.1801435351371765
4.937107086181641 7.74616003036499 0.17921504378318787
4.909241676330566 7.738865852355957 0.1782435029745102
4.891861438751221 7.746963024139404 0.1771312952041626
4.865317344665527 7.740460395812988 0.1761932224035263
4.8379950523376465 7.7336106300354 0.17524443566799164
4.81185245513916 7.72744083404541 0.17426854372024536
4.785826206207275 7.72130823135376 0.1733514666557312
4.764230251312256 7.72326135635376 0.17261195182800293
4.753523349761963 7.741814136505127 0.17230522632598877
4.698085308074951 7.72429084777832 0.17036914825439453
4.675294876098633 7.722871780395508 0.16957208514213562
4.652858734130859 7.723003387451172 0.16880583763122559
4.630177974700928 7.721562385559082 0.1680142879486084
4.6057844161987305 7.7171478271484375 0.16710801422595978
4.5862531661987305 7.721858024597168 0.16644960641860962
4.5618577003479 7.717215538024902 0.16559766232967377
4.533764839172363 7.706151485443115 0.16461175680160522
4.515718460083008 7.713131427764893 0.1635158360004425
4.496000289916992 7.716131687164307 0.1628362089395523
4.457221984863281 7.687180519104004 0.16148170828819275
4.4401092529296875 7.694523334503174 0.16089946031570435
4.409997940063477 7.696398735046387 0.1600632518529892
5.728056907653809 -10.831539154052734 0.16909855604171753
5.745464324951172 -10.810112953186035 0.16969704627990723
5.7976861000061035 -10.798385620117188 0.17213945090770721
5.8220601081848145 -10.789997100830078 0.1729465276002884
5.87017822265625 -10.77038860321045 0.17452456057071686
5.9061737060546875 -10.781707763671875 0.17633980512619019
5.980288028717041 -10.810127258300781 0.178790882229805
6.009179592132568 -10.807930946350098 0.17972087860107422
6.069535255432129 -10.810445785522461 0.18169429898262024
6.092676162719727 -10.797712326049805 0.18321186304092407
6.156362056732178 -10.805398941040039 0.1852932721376419
6.18481969833374 -10.80178165435791 0.18621665239334106
6.207597732543945 -10.789578437805176 0.18698790669441223
6.241227149963379 -10.795989990234375 0.18884624540805817
6.304572582244873 -10.800331115722656 0.190690279006958
6.33387565612793 -10.797632217407227 0.18957380950450897
6.356173515319824 -10.784302711486816 0.19109946489334106
6.395753383636475 -10.800012588500977 0.192379429936409
6.4183831214904785 -10.785752296447754 0.1931348294019699
6.448622226715088 -10.785572052001953 0.1941380351781845
6.486828327178955 -10.798388481140137 0.19538016617298126
6.510318756103516 -10.785375595092773 0.1969335526227951
6.538617134094238 -10.781620979309082 0.19788216054439545
6.572739601135254 -10.787191390991211 0.199006125330925
6.601048469543457 -10.781891822814941 0.19993916153907776
6.62973165512085 -10.778449058532715 0.20090261101722717
6.665160655975342 -10.784356117248535 0.20282553136348724
6.7225165367126465 -10.776744842529297 0.20475706458091736
6.751779079437256 -10.772482872009277 0.20572508871555328
6.784643173217773 -10.775161743164062 0.2068219631910324
6.809726238250732 -10.76524543762207 0.20845873653888702
6.84904670715332 -10.776521682739258 0.2097386121749878
6.876917362213135 -10.770934104919434 0.2106872946023941
6.905849933624268 -10.766783714294434 0.21166780591011047
6.931379318237305 -10.756095886230469 0.2125287652015686
6.970683574676514 -10.767945289611816 0.2146143615245819
6.999773025512695 -10.762414932250977 0.21558552980422974
7.0356292724609375 -10.768582344055176 0.21655862033367157
7.057261943817139 -10.75275707244873 0.21519246697425842
7.116123199462891 -10.743670463562012 0.21789194643497467
7.160760402679443 -10.762344360351562 0.219437837600708
7.221139907836914 -10.754744529724121 0.22148196399211884
7.243005752563477 -10.738951683044434 0.22225750982761383
7.307372093200684 -10.736708641052246 0.2251472771167755
7.40740442276001 -10.737794876098633 0.2286093831062317
7.50190544128418 -10.729837417602539 0.23263691365718842
7.602056980133057 -10.728818893432617 0.23678000271320343
7.697188377380371 -10.719579696655273 0.24013452231884003
7.798184394836426 -10.717375755310059 0.24410253763198853
7.864066123962402 -10.712794303894043 0.2434413731098175
7.88644552230835 -10.695441246032715 0.2442397028207779
7.959084510803223 -10.700555801391602 0.2475525140762329
7.983673095703125 -10.68600082397461 0.24842329323291779
8.024674415588379 -10.694391250610352 0.24982215464115143
8.061704635620117 -10.696199417114258 0.2510828971862793
8.096392631530762 -10.695971488952637 0.25303027033805847
8.133102416992188 -10.698129653930664 0.25438106060028076
8.162918090820312 -10.690004348754883 0.2554219663143158
8.193197250366211 -10.683619499206543 0.25649726390838623
8.229655265808105 -10.685036659240723 0.25776535272598267
8.300318717956543 -10.683540344238281 0.2610471248626709
8.339507102966309 -10.687996864318848 0.2624073028564453
8.374801635742188 -10.686212539672852 0.2636299133300781
8.409378051757812 -10.684589385986328 0.2648499608039856
8.440681457519531 -10.678560256958008 0.26596635580062866
8.47037410736084 -10.669326782226562 0.267768532037735
8.507319450378418 -10.670186996459961 0.269147664308548
8.545814514160156 -10.671749114990234 0.2704804539680481
8.617727279663086 -10.670352935791016 0.2727825343608856
8.641648292541504 -10.653458595275879 0.2706319987773895
8.683484077453613 -10.659743309020996 0.27208811044692993
8.715749740600586 -10.653997421264648 0.27324455976486206
8.750442504882812 -10.650028228759766 0.2744615972042084
8.787528038024902 -10.650031089782715 0.2765357792377472
8.824922561645508 -10.650124549865723 0.2779405415058136
8.856734275817871 -10.64228630065918 0.2790735363960266
8.905323028564453 -10.655492782592773 0.28075286746025085
8.938153266906738 -10.648590087890625 0.2819211184978485
8.967076301574707 -10.638137817382812 0.282986044883728
9.006246566772461 -10.63959789276123 0.28437408804893494
9.04843807220459 -10.643378257751465 0.2866954803466797
9.077349662780762 -10.632596015930176 0.2877655029296875
9.10903549194336 -10.62485408782959 0.28892314434051514
9.159564971923828 -10.637845039367676 0.29066336154937744
9.184144973754883 -10.62160587310791 0.29159876704216003
9.294464111328125 -10.613593101501465 0.29642289876937866
9.408944129943848 -10.609007835388184 0.3005388081073761
9.519706726074219 -10.598918914794922 0.3011564016342163
9.604074478149414 -10.602688789367676 0.30415716767311096
9.708620071411133 -10.58361530303955 0.30807098746299744
9.830984115600586 -10.58267593383789 0.313279390335083
9.874992370605469 -10.58474063873291 0.3148461878299713
9.959070205688477 -10.586305618286133 0.3178962171077728
9.982107162475586 -10.56560230255127 0.3188861608505249
10.035109519958496 -10.577519416809082 0.32076531648635864
10.110708236694336 -10.56783676147461 0.32435137033462524
10.194988250732422 -10.56648063659668 0.32741761207580566
10.238213539123535 -10.567306518554688 0.32899948954582214
10.265389442443848 -10.551328659057617 0.33015257120132446
10.310230255126953 -10.552347183227539 0.33177170157432556
10.34270191192627 -10.541604995727539 0.3338269293308258
10.387202262878418 -10.541942596435547 0.33544105291366577
10.425861358642578 -10.537347793579102 0.3316316604614258
10.480026245117188 -10.548095703125 0.33438345789909363
10.52610969543457 -10.549436569213867 0.33604609966278076
10.55865478515625 -10.538224220275879 0.33729735016822815
10.602888107299805 -10.53841781616211 0.33900976181030273
10.649469375610352 -10.539711952209473 0.3406953811645508
10.688682556152344 -10.534578323364258 0.34216415882110596
10.726064682006836 -10.527631759643555 0.34357893466949463
10.764918327331543 -10.520834922790527 0.34502366185188293
10.8035888671875 -10.514759063720703 0.3464820384979248
10.859347343444824 -10.52407169342041 0.34847378730773926
10.891580581665039 -10.511568069458008 0.3505670130252838
10.93805980682373 -10.51254940032959 0.35228431224823
10.983565330505371 -10.511362075805664 0.3540460467338562
11.024009704589844 -10.506325721740723 0.35557666420936584
11.068763732910156 -10.505107879638672 0.3572457432746887
11.109305381774902 -10.498692512512207 0.3587653934955597
11.154890060424805 -10.498035430908203 0.3604680001735687
11.193943977355957 -10.490945816040039 0.3619609475135803
11.2343168258667 -10.483918190002441 0.3634820878505707
11.287795066833496 -10.489961624145508 0.36544570326805115
11.369160652160645 -10.476816177368164 0.3693922162055969
11.428583145141602 -10.487678527832031 0.3716506361961365
11.518251419067383 -10.480949401855469 0.37027543783187866
11.64426040649414 -10.462554931640625 0.375072717666626
11.776554107666016 -10.448368072509766 0.38018813729286194
11.925905227661133 -10.447626113891602 0.3857860863208771
12.02145004272461 -10.442174911499023 0.38939544558525085
12.069540977478027 -10.438918113708496 0.39120641350746155
12.151514053344727 -10.42184829711914 0.39441201090812683
12.204708099365234 -10.422426223754883 0.39639711380004883
12.300662994384766 -10.41627311706543 0.40096259117126465
12.347097396850586 -10.410510063171387 0.40273812413215637
12.401681900024414 -10.412452697753906 0.4047999382019043
12.452306747436523 -10.41097640991211 0.40683338046073914
12.49282169342041 -10.399713516235352 0.40842530131340027
12.546262741088867 -10.400074005126953 0.4104587733745575
12.652329444885254 -10.398409843444824 0.40949177742004395
12.699219703674316 -10.39169979095459 0.4112940728664398
12.734561920166016 -10.376572608947754 0.41274404525756836
12.79967975616455 -10.385385513305664 0.4151594042778015
12.839829444885254 -10.372678756713867 0.41675257682800293
12.893844604492188 -10.372169494628906 0.41881662607192993
13.052570343017578 -10.365250587463379 0.4248989522457123
13.104292869567871 -10.362052917480469 0.4269021153450012
13.15815544128418 -10.359163284301758 0.4289599061012268
13.241559028625488 -10.334793090820312 0.4323090612888336
13.303211212158203 -10.3385591506958 0.4346485733985901
13.36019229888916 -10.338318824768066 0.4368375837802887
13.406730651855469 -10.328742027282715 0.43867310881614685
13.517084121704102 -10.324520111083984 0.44295334815979004
13.565553665161133 -10.31585693359375 0.4448617994785309
13.621204376220703 -10.313506126403809 0.4470255970954895
13.669173240661621 -10.305266380310059 0.4489421248435974
13.734277725219727 -10.3085355758667 0.4514066278934479
13.778983116149902 -10.29732894897461 0.45322200655937195
13.889131546020508 -10.288772583007812 0.4533042907714844
13.940768241882324 -10.282286643981934 0.45535022020339966
14.054181098937988 -10.274831771850586 0.4588033854961395
14.219781875610352 -10.25935173034668 0.4653083384037018
14.33870792388916 -10.253612518310547 0.4699348509311676
14.403646469116211 -10.2549409866333 0.47234010696411133
14.505522727966309 -10.235694885253906 0.4764323830604553
14.575786590576172 -10.238831520080566 0.47911033034324646
14.684856414794922 -10.224562644958496 0.48348045349121094
14.745209693908691 -10.220011711120605 0.485845685005188
14.861750602722168 -10.209606170654297 0.4904859662055969
14.91604995727539 -10.200204849243164 0.49266332387924194
14.980947494506836 -10.198892593383789 0.49521178007125854
15.035120010375977 -10.190176010131836 0.49741244316101074
15.097885131835938 -10.185844421386719 0.4998819828033447
15.159215927124023 -10.181379318237305 0.5023249387741089
15.229811668395996 -10.181779861450195 0.5004788041114807
15.340417861938477 -10.163724899291992 0.5049692392349243
15.410013198852539 -10.1626615524292 0.5066552758216858
15.470479965209961 -10.156403541564941 0.5090779066085815
15.527070045471191 -10.146286964416504 0.5113603472709656
15.593177795410156 -10.143241882324219 0.5139778852462769
15.656755447387695 -10.138422012329102 0.5165180563926697
15.723739624023438 -10.134320259094238 0.5190467834472656
15.787256240844727 -10.128817558288574 0.5215919017791748
15.85658073425293 -10.12690544128418 0.524336040019989
15.908154487609863 -10.11219596862793 0.5264796018600464
15.971541404724121 -10.105880737304688 0.5290350914001465
16.04109001159668 -10.102097511291504 0.5317823886871338
16.102170944213867 -10.093957901000977 0.5332239866256714
16.168045043945312 -10.0884428024292 0.535873532295227
16.218008041381836 -10.071681022644043 0.5379841923713684
16.299205780029297 -10.075164794921875 0.5411507487297058
16.382530212402344 -10.079743385314941 0.5443952679634094
16.44397735595703 -10.069321632385254 0.5467880368232727
16.50360679626465 -10.058671951293945 0.5492540001869202
16.563140869140625 -10.047874450683594 0.5517239570617676
16.648195266723633 -10.050884246826172 0.5550277829170227
16.70794105529785 -10.039703369140625 0.556439220905304
16.839290618896484 -10.022350311279297 0.557975172996521
16.98493766784668 -10.012406349182129 0.5638073682785034
17.04986000061035 -10.003059387207031 0.5652717351913452
17.272008895874023 -9.987970352172852 0.5742003917694092
17.420400619506836 -9.976120948791504 0.5801844596862793
17.496475219726562 -9.971527099609375 0.5821461081504822
17.566566467285156 -9.961819648742676 0.5848835110664368
17.635284423828125 -9.952479362487793 0.5877196192741394
17.721960067749023 -9.951677322387695 0.5911420583724976
17.801132202148438 -9.94746208190918 0.594336748123169
17.866735458374023 -9.935525894165039 0.5970857739448547
17.95247459411621 -9.933192253112793 0.5993636846542358
18.09646224975586 -9.914844512939453 0.6051889657974243
18.168743133544922 -9.90404224395752 0.6081618666648865
18.23771095275879 -9.892599105834961 0.6110497713088989
18.321245193481445 -9.887455940246582 0.6144127249717712
18.402400970458984 -9.881856918334961 0.61656653881073
18.488168716430664 -9.8785400390625 0.6200324296951294
18.566606521606445 -9.869521141052246 0.6202977895736694
18.62718963623047 -9.852202415466309 0.6217620372772217
18.719539642333984 -9.850069046020508 0.6253095269203186
18.788589477539062 -9.836530685424805 0.6282265186309814
18.872068405151367 -9.830391883850098 0.631634533405304
18.96259880065918 -9.826248168945312 0.6352667212486267
19.054086685180664 -9.823409080505371 0.6377719640731812
19.123445510864258 -9.808987617492676 0.6405970454216003
19.193525314331055 -9.79320240020752 0.6435588002204895
19.281970977783203 -9.787951469421387 0.6471628546714783
19.369157791137695 -9.780369758605957 0.6495166420936584
19.449668884277344 -9.770280838012695 0.6527342200279236
19.545345306396484 -9.767599105834961 0.6565984487533569
19.613981246948242 -9.749591827392578 0.6595411896705627
19.717147827148438 -9.749898910522461 0.6624581217765808
19.782758712768555 -9.731303215026855 0.6653299331665039
19.871904373168945 -9.72248649597168 0.6688487529754639
19.95846939086914 -9.7135591506958 0.6724383234977722
20.128698348999023 -9.6917724609375 0.6782897710800171
20.217817306518555 -9.683051109313965 0.6818510890007019
20.29852294921875 -9.668449401855469 0.6852483749389648
20.400936126708984 -9.665340423583984 0.6894057989120483
20.669471740722656 -9.633927345275879 0.696150541305542
20.8418025970459 -9.607617378234863 0.7021235227584839
20.936975479125977 -9.598857879638672 0.7060641646385193
21.04001808166504 -9.591758728027344 0.7101224064826965
21.121257781982422 -9.575904846191406 0.7123292684555054
21.219484329223633 -9.56584358215332 0.7163732051849365
21.329463958740234 -9.562214851379395 0.7207043766975403
21.4229793548584 -9.550796508789062 0.7246258854866028
21.50931167602539 -9.534255981445312 0.7269945740699768
21.627445220947266 -9.532971382141113 0.73176109790802
21.71415901184082 -9.517425537109375 0.7353335618972778
21.808347702026367 -9.50322151184082 0.7379747629165649
21.904830932617188 -9.491227149963379 0.7420300841331482
22.00630760192871 -9.479410171508789 0.7461020350456238
22.107311248779297 -9.468578338623047 0.7490009069442749
22.207077026367188 -9.456818580627441 0.7531890273094177
22.320919036865234 -9.449018478393555 0.7577013373374939
22.401975631713867 -9.42856216430664 0.7612720727920532
22.50955581665039 -9.41744327545166 0.7643886804580688
22.60708236694336 -9.403009414672852 0.7683854103088379
22.720996856689453 -9.395132064819336 0.7730951309204102
22.814119338989258 -9.376619338989258 0.7757262587547302
22.912261962890625 -9.361424446105957 0.7767424583435059
23.027118682861328 -9.351157188415527 0.7813305854797363
23.246395111083984 -9.327840805053711 0.7891268730163574
23.350318908691406 -9.311676979064941 0.7933648824691772
23.458740234375 -9.29853630065918 0.7965404987335205
23.678436279296875 -9.270423889160156 0.8042210936546326
24.00591278076172 -9.225010871887207 0.8165002465248108
24.13172149658203 -9.21592903137207 0.8217052817344666
24.247417449951172 -9.200810432434082 0.8264049887657166
24.364660263061523 -9.187501907348633 0.8299030661582947
24.587797164916992 -9.153555870056152 0.837786078453064
24.713632583618164 -9.142053604125977 0.8430352807044983
24.83252716064453 -9.125776290893555 0.8480406403541565
24.939556121826172 -9.10640811920166 0.851048469543457
25.309755325317383 -9.061666488647461 0.8650053143501282
25.43691635131836 -9.04593563079834 0.8703382611274719
25.555450439453125 -9.02839469909668 0.873751163482666
25.692644119262695 -9.016935348510742 0.8761364817619324
25.81092643737793 -8.996562957763672 0.8810211420059204
25.94650650024414 -8.983478546142578 0.8851730823516846
26.065439224243164 -8.964125633239746 0.8901150822639465
26.198287963867188 -8.947273254394531 0.8941606283187866
26.323528289794922 -8.929091453552246 0.8993346691131592
26.468521118164062 -8.915270805358887 0.9053423404693604
26.60956573486328 -8.901336669921875 0.9095329642295837
26.735858917236328 -8.88029956817627 0.9149222373962402
26.874418258666992 -8.864265441894531 0.9191977977752686
27.422868728637695 -8.791607856750488 0.938928484916687
27.571212768554688 -8.77425765991211 0.9449607729911804
27.719890594482422 -8.758265495300293 0.9496031999588013
27.841703414916992 -8.731383323669434 0.9547454714775085
27.991233825683594 -8.714518547058105 0.9610422253608704
28.152299880981445 -8.7006196975708 0.9659503698348999
28.29364013671875 -8.678131103515625 0.971969723701477
28.43497657775879 -8.656963348388672 0.9762057662010193
28.591917037963867 -8.639949798583984 0.9828013181686401
28.754913330078125 -8.622211456298828 0.9877685904502869
28.89533042907715 -8.599002838134766 0.9938190579414368
29.04399299621582 -8.575745582580566 0.9949564933776855
29.196802139282227 -8.555034637451172 1.0012602806091309
29.36858367919922 -8.539229393005371 1.0067219734191895
29.530200958251953 -8.51784896850586 1.013332486152649
29.680410385131836 -8.494498252868652 1.017879843711853
29.843887329101562 -8.472352027893066 1.0247586965560913
29.996288299560547 -8.44839096069336 1.0293875932693481
30.16626739501953 -8.42873764038086 1.0365320444107056
30.339855194091797 -8.407408714294434 1.0418771505355835
30.480266571044922 -8.37824821472168 1.0480310916900635
30.66902732849121 -8.359707832336426 1.0539051294326782
30.83119773864746 -8.33521556854248 1.0608326196670532
30.99290657043457 -8.309955596923828 1.0658010244369507
31.17401885986328 -8.287175178527832 1.0716084241867065
31.339866638183594 -8.261669158935547 1.0785067081451416
31.695682525634766 -8.212864875793457 1.0915522575378418
31.8592529296875 -8.184734344482422 1.0965981483459473
32.03633499145508 -8.157312393188477 1.1041109561920166
32.226417541503906 -8.134537696838379 1.1100777387619019
32.41326141357422 -8.110188484191895 1.1179734468460083
32.577335357666016 -8.07733154296875 1.1230348348617554
32.76153564453125 -8.050872802734375 1.1290055513381958
32.9481201171875 -8.022128105163574 1.136714220046997
33.13410568237305 -7.994612693786621 1.1406745910644531
33.71013259887695 -7.909674644470215 1.1608859300613403
33.90913009643555 -7.879978179931641 1.1671563386917114
34.099464416503906 -7.849660396575928 1.175282597541809
34.29817581176758 -7.820493221282959 1.1815695762634277
34.49283218383789 -7.787398338317871 1.187908411026001
34.6915397644043 -7.756634712219238 1.1961569786071777
34.889198303222656 -7.724626541137695 1.2024152278900146
35.10614776611328 -7.694243907928467 1.211520791053772
35.306053161621094 -7.661306858062744 1.217868447303772
35.50804138183594 -7.625746726989746 1.2242708206176758
35.727638244628906 -7.5953826904296875 1.2335282564163208
22.736330032348633 -4.784250736236572 0.7846478819847107
22.901573181152344 -4.767955780029297 0.7901359796524048
23.01913833618164 -4.742612838745117 0.795147716999054
23.1882266998291 -4.725834846496582 0.8006378412246704
36.80857849121094 -7.422182083129883 1.2706043720245361
37.022579193115234 -7.385413646697998 1.2795437574386597
37.261390686035156 -7.3503217697143555 1.287251591682434
37.472625732421875 -7.311235427856445 1.2942477464675903
38.149810791015625 -7.194697856903076 1.3184210062026978
38.37849426269531 -7.15295934677124 1.3257930278778076
22.89020347595215 -4.217128276824951 0.7905820608139038
23.647871017456055 -4.203180313110352 0.8171483278274536
23.736385345458984 -4.166624546051025 0.8200393915176392
22.64495849609375 -3.92661452293396 0.7833172082901001
22.73822021484375 -3.892909049987793 0.7862547039985657
22.890384674072266 -3.869943857192993 0.7913735508918762
23.065128326416016 -3.850271463394165 0.7971370816230774
24.185976028442383 -3.9842870235443115 0.8369296789169312
24.20244026184082 -3.9354288578033447 0.8372154831886292
24.26306915283203 -3.8934757709503174 0.8391761779785156
24.339797973632812 -3.8526196479797363 0.8429038524627686
24.417808532714844 -3.8130435943603516 0.845329761505127
24.55576515197754 -3.7808685302734375 0.8499708771705627
24.706562042236328 -3.751617431640625 0.8549194931983948
24.933595657348633 -3.733173131942749 0.8638965487480164
25.414203643798828 -3.7496414184570312 0.8802686929702759
25.566457748413086 -3.717911720275879 0.88542640209198
41.764461517333984 -5.893950939178467 1.4478577375411987
41.78769302368164 -5.717843532562256 1.4480650424957275
41.83053207397461 -5.6352996826171875 1.4491409063339233
41.864410400390625 -5.548833847045898 1.4501503705978394
41.868534088134766 -5.460992813110352 1.4498987197875977
41.9155387878418 -5.378684997558594 1.453468680381775
41.93992233276367 -5.290769577026367 1.4539179801940918
41.93878936767578 -5.20223331451416 1.4535022974014282
42.10595703125 -5.043008327484131 1.4587973356246948
42.092559814453125 -4.952822685241699 1.4603147506713867
42.0345458984375 -4.766607761383057 1.4575921297073364
42.079917907714844 -4.592341899871826 1.4587311744689941
42.09837341308594 -4.505972862243652 1.459044098854065
42.106910705566406 -4.415926933288574 1.4613466262817383
42.103515625 -4.327255725860596 1.4609136581420898
