VERSION .7
FIELDS x y z
SIZE 4 4 4
TYPE F F F
COUNT 1 1 1
WIDTH 851
HEIGHT 1
VIEWPOINT 0 0 0 1 0 0 0
POINTS 851
DATA ascii
7.228092193603516 7.499007225036621 0.030273064970970154
7.192540168762207 7.493799209594727 0.029762059450149536
7.175463676452637 7.507129669189453 0.029753930866718292
7.131169319152832 7.492149353027344 0.029637742787599564
7.1053619384765625 7.496743679046631 0.029595019295811653
7.081058502197266 7.502518177032471 0.029354196041822433
7.05015754699707 7.500901222229004 0.029292577877640724
7.014904022216797 7.495118141174316 0.02900766208767891
6.990082740783691 7.500029563903809 0.02896997332572937
6.957919120788574 7.497271537780762 0.028902925550937653
6.934784412384033 7.503512382507324 0.028872542083263397
6.9018635749816895 7.499350547790527 0.028799574822187424
6.871877670288086 7.498557090759277 0.028741423040628433
6.8447723388671875 7.500168800354004 0.028491659089922905
6.822756767272949 7.507572174072266 0.028046943247318268
6.786381721496582 7.4993743896484375 0.027963673695921898
6.758140563964844 7.499387741088867 0.02790989726781845
6.732013702392578 7.501938819885254 0.027867045253515244
6.7050251960754395 7.503752708435059 0.027822520583868027
6.678094863891602 7.505199909210205 0.02757507562637329
6.647821426391602 7.503094673156738 0.02710377424955368
6.6217851638793945 7.505028247833252 0.027060547843575478
6.566874027252197 7.506278038024902 0.026964977383613586
6.490119934082031 7.513337135314941 0.026646826416254044
6.41310977935791 7.519227027893066 0.02611633576452732
6.351706504821777 7.511070251464844 0.026206132024526596
6.326761245727539 7.513139724731445 0.026167556643486023
6.2719573974609375 7.512041091918945 0.025668472051620483
6.246868133544922 7.513629913330078 0.02562883123755455
6.216700553894043 7.509921073913574 0.025378327816724777
6.194597244262695 7.514914512634277 0.02535160817205906
6.139609336853027 7.512444496154785 0.02525586448609829
6.119161605834961 7.519216537475586 0.025235973298549652
6.093001842498779 7.519192695617676 0.02479323372244835
6.067707061767578 7.520461559295654 0.024564139544963837
6.042235374450684 7.520773410797119 0.024524522945284843
6.009171485900879 7.511796951293945 0.024453910067677498
5.983395099639893 7.512112140655518 0.0244138203561306
5.969324588775635 7.5264434814453125 0.024419426918029785
5.937087059020996 7.518731594085693 0.024353522807359695
5.917426109313965 7.525890350341797 0.02375239133834839
5.887083530426025 7.519669532775879 0.023693859577178955
5.867850303649902 7.527872562408447 0.023679960519075394
5.839910507202148 7.524178504943848 0.02363092079758644
5.815915107727051 7.525761604309082 0.02359732799232006
5.7865214347839355 7.52056884765625 0.02354290522634983
5.761237144470215 7.519944190979004 0.023113593459129333
5.73991060256958 7.524709701538086 0.02329285815358162
5.71513032913208 7.525198936462402 0.023256968706846237
5.689035415649414 7.5235114097595215 0.02321489527821541
5.675586223602295 7.5388383865356445 0.023224810138344765
5.639664173126221 7.523564338684082 0.02314196527004242
5.617130756378174 7.52630615234375 0.022726621478796005
5.596195697784424 7.531457901000977 0.02252081409096718
5.5762834548950195 7.537281513214111 0.02250361070036888
5.537545680999756 7.518459796905518 0.02241200953722
5.527235507965088 7.537168025970459 0.022433796897530556
5.4986090660095215 7.530854225158691 0.022381041198968887
5.479599952697754 7.538580894470215 0.02236870303750038
5.444328308105469 7.522831916809082 0.021721918135881424
5.42918586730957 7.535094261169434 0.021724257618188858
5.406883716583252 7.537726402282715 0.021699052304029465
5.37926721572876 7.532179832458496 0.02165074832737446
5.360421180725098 7.5391364097595215 0.021638238802552223
5.3372368812561035 7.540270805358887 0.021609092131257057
5.3151044845581055 7.542143821716309 0.021400142461061478
5.286403179168701 7.535552501678467 0.020969489589333534
5.265198230743408 7.538552284240723 0.020947419106960297
5.237279891967773 7.531826972961426 0.020898764953017235
5.216284275054932 7.5359272956848145 0.020878981798887253
5.196595668792725 7.540874004364014 0.02086283266544342
5.142369747161865 7.529860496520996 0.020772479474544525
5.117170333862305 7.5264506340026855 0.020733876153826714
5.0756707191467285 7.53345251083374 0.020513977855443954
5.0525922775268555 7.5328850746154785 0.020109865814447403
5.029928207397461 7.533835411071777 0.020083695650100708
5.009347438812256 7.536832332611084 0.020064152777194977
4.962062835693359 7.534327507019043 0.019822746515274048
4.944693088531494 7.541979789733887 0.0198158398270607
4.924222946166992 7.545862197875977 0.019426917657256126
4.90224027633667 7.546347618103027 0.01940198987722397
4.873109817504883 7.535689353942871 0.0193486288189888
4.853587627410889 7.540780067443848 0.019335104152560234
4.8332390785217285 7.543517112731934 0.019316045567393303
4.808413028717041 7.53916597366333 0.01910226047039032
4.782847881317139 7.534536361694336 0.01906459778547287
4.767594814300537 7.545066833496094 0.018698275089263916
4.746168613433838 7.545788764953613 0.018675602972507477
4.7257819175720215 7.549111366271973 0.018658878281712532
4.69658088684082 7.537197113037109 0.018605191260576248
4.672574996948242 7.534483432769775 0.01839817501604557
4.650307655334473 7.533435821533203 0.01837201416492462
4.634859085083008 7.543387413024902 0.018547801300883293
4.609398365020752 7.5380048751831055 0.01851043850183487
4.58542013168335 7.533875465393066 0.018302420154213905
4.577740669250488 7.556521892547607 0.017970122396945953
4.551474571228027 7.549509048461914 0.01792994700372219
4.524909973144531 7.5407915115356445 0.01788719743490219
4.500639915466309 7.535747528076172 0.017853090539574623
4.489015579223633 7.552889347076416 0.017870819196105003
4.464787006378174 7.547741889953613 0.01766303926706314
4.443230628967285 7.548051834106445 0.01764151267707348
4.414188385009766 7.534436225891113 0.017228104174137115
4.397861480712891 7.542411804199219 0.01722567155957222
4.377836227416992 7.54506254196167 0.017210407182574272
4.355704307556152 7.542935371398926 0.01718415692448616
23.38390350341797 -2.0078418254852295 0.1421198546886444
23.330711364746094 -1.6093204021453857 0.14018160104751587
23.28762435913086 -1.4593124389648438 0.1398681402206421
23.267452239990234 -1.3112552165985107 0.13969971239566803
26.989578247070312 1.2555689811706543 0.3757839798927307
26.966691970825195 1.3105915784835815 0.3754984736442566
26.9394474029541 1.42301344871521 0.37408447265625
26.92236328125 1.478142261505127 0.37388938665390015
26.886627197265625 1.5897789001464844 0.3729514181613922
26.855321884155273 1.64385986328125 0.37256377935409546
26.85687828063965 1.7015514373779297 0.3726416230201721
26.825786590576172 1.7554802894592285 0.37225592136383057
26.80666732788086 1.8101041316986084 0.3720417320728302
26.76650619506836 1.9206643104553223 0.3715931177139282
26.685792922973633 2.083578586578369 0.36954331398010254
26.17401885986328 3.7681684494018555 0.35971367359161377
26.126636505126953 3.8737263679504395 0.3582424819469452
26.080936431884766 3.9222800731658936 0.35663267970085144
26.04460334777832 4.029054641723633 0.3563702702522278
25.994800567626953 4.076601505279541 0.355798602104187
25.886856079101562 4.171450614929199 0.35404887795448303
25.828222274780273 4.217010498046875 0.3533622920513153
25.759021759033203 4.31716251373291 0.35265830159187317
25.722412109375 4.3659257888793945 0.35228461027145386
25.654861450195312 4.465696811676025 0.3505355715751648
25.618579864501953 4.514174938201904 0.35016608238220215
25.54645347595215 4.6124773025512695 0.34893572330474854
25.518840789794922 4.66219425201416 0.3486866056919098
25.443954467773438 4.759330749511719 0.34793245792388916
25.390840530395508 4.803952217102051 0.34734606742858887
25.31612777709961 4.900339126586914 0.34553828835487366
25.284791946411133 4.949819564819336 0.34474414587020874
25.22298812866211 5.047019958496094 0.3447444438934326
24.33457374572754 6.212562561035156 0.33303558826446533
24.232288360595703 6.348979949951172 0.3321734070777893
24.176618576049805 6.443323135375977 0.3312916159629822
24.121870040893555 6.482881546020508 0.330727756023407
24.07379913330078 6.578286170959473 0.329405814409256
24.028423309326172 6.620012283325195 0.3289770185947418
23.970989227294922 6.7129292488098145 0.32857421040534973
23.930830001831055 6.755270004272461 0.3277284502983093
23.887115478515625 6.796482086181641 0.3273228406906128
23.86442756652832 6.845167636871338 0.32721132040023804
23.843366622924805 6.8927083015441895 0.3271162807941437
23.786823272705078 6.930953025817871 0.32551810145378113
23.756942749023438 6.97627067565918 0.32530951499938965
23.726802825927734 7.02093505859375 0.325090616941452
23.70339584350586 7.068608283996582 0.3249770998954773
23.653667449951172 7.1077680587768555 0.3240133821964264
23.63545036315918 7.15580415725708 0.32396554946899414
23.597009658813477 7.198725700378418 0.32466790080070496
23.537334442138672 7.287942886352539 0.3242649435997009
23.407217025756836 7.410299301147461 0.3220963478088379
23.3270320892334 7.5465826988220215 0.32115301489830017
23.185203552246094 7.662041664123535 0.31986263394355774
20.41775894165039 7.76092004776001 0.28304415941238403
20.04878044128418 7.7652668952941895 0.2786026895046234
19.936580657958984 7.7698798179626465 0.277267187833786
19.835643768310547 7.778939247131348 0.2760915160179138
19.706432342529297 7.775490760803223 0.2736437916755676
19.60635757446289 7.783512592315674 0.2720637619495392
19.48413848876953 7.782769203186035 0.27059561014175415
19.385711669921875 7.7901411056518555 0.26945316791534424
19.276100158691406 7.793036460876465 0.2681547701358795
19.152917861938477 7.790437698364258 0.2666698098182678
19.05084228515625 7.795472145080566 0.26547539234161377
18.944555282592773 7.797916889190674 0.26337486505508423
18.831621170043945 7.7980804443359375 0.261630654335022
18.744949340820312 7.808234214782715 0.2614542245864868
18.632139205932617 7.807559967041016 0.26094627380371094
18.52359962463379 7.80730676651001 0.2592543363571167
18.415592193603516 7.807257652282715 0.2579697370529175
18.310169219970703 7.808322906494141 0.2567250430583954
18.118499755859375 7.816042423248291 0.2536766231060028
18.011112213134766 7.814972877502441 0.2524036169052124
17.826366424560547 7.823306083679199 0.24988457560539246
17.738298416137695 7.829472064971924 0.24888233840465546
17.52593421936035 7.824091911315918 0.2463645339012146
17.421764373779297 7.820985794067383 0.24433885514736176
17.259925842285156 7.835836410522461 0.24252863228321075
15.619001388549805 7.8559346199035645 0.22083431482315063
15.363203048706055 7.848677635192871 0.21791432797908783
15.200071334838867 7.846234321594238 0.21606974303722382
15.133108139038086 7.851482391357422 0.2153482735157013
14.97918701171875 7.851864814758301 0.21259507536888123
14.898809432983398 7.84918737411499 0.21168383955955505
14.835052490234375 7.856131553649902 0.2110167145729065
14.758260726928711 7.854723930358887 0.2101597934961319
14.671564102172852 7.847695350646973 0.20915457606315613
14.61666488647461 7.858534812927246 0.20828157663345337
14.539495468139648 7.855982780456543 0.2073868364095688
14.47544002532959 7.860593795776367 0.2067030966281891
14.402435302734375 7.860467910766602 0.20557847619056702
14.332714080810547 7.861062049865723 0.20481377840042114
14.262248992919922 7.861326694488525 0.2040429413318634
14.185302734375 7.858103275299072 0.2031783163547516
14.122069358825684 7.861418724060059 0.20184063911437988
14.070243835449219 7.871987342834473 0.20133960247039795
13.972612380981445 7.855481147766113 0.20017723739147186
13.912893295288086 7.85994815826416 0.19923695921897888
13.861522674560547 7.870035171508789 0.19874179363250732
13.788759231567383 7.866606712341309 0.1979331225156784
13.716865539550781 7.863724708557129 0.19647866487503052
13.651719093322754 7.864813804626465 0.19578512012958527
13.598800659179688 7.8719587326049805 0.19525912404060364
13.455110549926758 7.864619255065918 0.19336265325546265
13.271247863769531 7.869500160217285 0.19079124927520752
13.083297729492188 7.869638442993164 0.18849503993988037
12.903247833251953 7.872224807739258 0.18628104031085968
12.727782249450684 7.875396728515625 0.18416795134544373
12.358723640441895 7.864676475524902 0.17964334785938263
12.200682640075684 7.87230110168457 0.17717911303043365
12.031954765319824 7.871001243591309 0.17544439435005188
11.870010375976562 7.872059345245361 0.17292766273021698
11.757132530212402 7.868691444396973 0.17176610231399536
11.711053848266602 7.873089790344238 0.17133139073848724
11.599721908569336 7.869375705718994 0.17018762230873108
11.548591613769531 7.8697333335876465 0.16909867525100708
11.491647720336914 7.86693000793457 0.16823576390743256
11.445072174072266 7.8699774742126465 0.16779620945453644
11.385223388671875 7.863670825958252 0.16715574264526367
11.330583572387695 7.861736297607422 0.16659918427467346
11.294450759887695 7.871438503265381 0.16574034094810486
11.24639892578125 7.872673988342285 0.16527369618415833
11.193925857543945 7.871624946594238 0.1644791066646576
11.138113021850586 7.866971492767334 0.1638953536748886
11.101472854614258 7.875674247741699 0.16359984874725342
11.037046432495117 7.865466117858887 0.16290271282196045
11.003965377807617 7.876373291015625 0.1620916724205017
10.94803524017334 7.871764183044434 0.16151577234268188
10.894108772277832 7.867337226867676 0.16069552302360535
10.848858833312988 7.868965148925781 0.1602669060230255
10.797242164611816 7.866781234741211 0.1597546488046646
10.744102478027344 7.862247467041016 0.15920846164226532
10.705009460449219 7.867803573608398 0.15887075662612915
10.651504516601562 7.863579750061035 0.15777824819087982
10.61328125 7.869441032409668 0.15718945860862732
10.568929672241211 7.870599746704102 0.15677538514137268
10.5230712890625 7.871450424194336 0.15634465217590332
10.473917007446289 7.868631839752197 0.15585801005363464
10.377467155456543 7.864760398864746 0.154120534658432
10.347221374511719 7.875698089599609 0.15391331911087036
10.244637489318848 7.865975379943848 0.15287752449512482
10.195125579833984 7.862315654754639 0.15185627341270447
9.74208927154541 7.877932548522949 0.1467631757259369
9.603087425231934 7.866207122802734 0.14465950429439545
9.487427711486816 7.871646881103516 0.143657386302948
9.443645477294922 7.868466377258301 0.14324095845222473
9.353158950805664 7.860044002532959 0.141623854637146
9.316957473754883 7.862668037414551 0.14132311940193176
9.28389835357666 7.868471622467041 0.14083217084407806
9.236017227172852 7.861198425292969 0.1403568685054779
9.198087692260742 7.861888885498047 0.14002473652362823
9.163729667663574 7.866146087646484 0.13975901901721954
9.120505332946777 7.862288475036621 0.1393478810787201
9.092744827270508 7.871965408325195 0.13868224620819092
9.046960830688477 7.865547180175781 0.13799864053726196
9.010369300842285 7.86662483215332 0.13768957555294037
8.968853950500488 7.863893508911133 0.13730809092521667
8.945006370544434 7.876190185546875 0.13719576597213745
8.898470878601074 7.8680572509765625 0.1367320418357849
8.868988037109375 7.8758111000061035 0.13653717935085297
8.814584732055664 7.86027717590332 0.13523000478744507
8.793957710266113 7.8747053146362305 0.13516150414943695
8.74220085144043 7.86207389831543 0.1346273124217987
8.702984809875488 7.85953426361084 0.1342718005180359
8.665419578552246 7.858969688415527 0.13394960761070251
8.632892608642578 7.862495422363281 0.1337030529975891
8.600610733032227 7.865808486938477 0.13274142146110535
8.571151733398438 7.872244834899902 0.1325429528951645
8.533774375915527 7.870937347412109 0.13221943378448486
8.495992660522461 7.868782997131348 0.1316598802804947
8.44989013671875 7.859373569488525 0.13120178878307343
8.417769432067871 7.862453937530518 0.13095945119857788
8.378556251525879 7.85844612121582 0.13012832403182983
8.305718421936035 7.856141090393066 0.12928365170955658
8.284294128417969 7.869162559509277 0.12920911610126495
8.209238052368164 7.863250732421875 0.12855134904384613
8.173444747924805 7.862203598022461 0.12778037786483765
8.111830711364746 7.868975639343262 0.12711237370967865
8.073780059814453 7.864649772644043 0.12677189707756042
8.001912117004395 7.860590934753418 0.12615928053855896
7.901872634887695 7.860539436340332 0.12468011677265167
7.800849914550781 7.8582305908203125 0.12386156618595123
7.7339372634887695 7.8567280769348145 0.12265271693468094
7.70622444152832 7.861451148986816 0.12247337400913239
7.6422319412231445 7.861820220947266 0.12176123261451721
7.6085968017578125 7.860098838806152 0.12148825824260712
7.550697326660156 7.865997314453125 0.12087312340736389
7.5139570236206055 7.860620498657227 0.12054906785488129
7.4514312744140625 7.86091423034668 0.11962521076202393
7.419419288635254 7.860058307647705 0.11937707662582397
7.38658332824707 7.858525276184082 0.11911554634571075
7.356999397277832 7.859982490539551 0.11869046092033386
7.321524620056152 7.8546905517578125 0.11838018894195557
7.298762321472168 7.863572120666504 0.11828284710645676
7.262433052062988 7.857381820678711 0.11751873791217804
7.2422895431518555 7.868934631347656 0.11746068298816681
7.206589698791504 7.862828731536865 0.11714432388544083
7.181679725646973 7.868682861328125 0.11679927259683609
7.138116836547852 7.854273319244385 0.11636039614677429
7.115489482879639 7.862094879150391 0.1162576973438263
7.077609539031982 7.853245735168457 0.11547193676233292
7.054020404815674 7.86046028137207 0.11535729467868805
7.010980606079102 7.845503807067871 0.1149243637919426
6.996913909912109 7.862539768218994 0.11474853754043579
6.964651107788086 7.859719276428223 0.11449426412582397
6.932823181152344 7.856901168823242 0.11446601152420044
6.902059078216553 7.855484962463379 0.1138010174036026
6.878836631774902 7.861898899078369 0.11368681490421295
6.855195045471191 7.86807918548584 0.11356702446937561
6.8231306076049805 7.8648223876953125 0.11331059038639069
6.782054901123047 7.850642204284668 0.11290311813354492
6.76173210144043 7.860031604766846 0.11263072490692139
6.729536056518555 7.856175422668457 0.11237184703350067
6.696437835693359 7.850767135620117 0.11166690289974213
6.666050910949707 7.8480682373046875 0.11143283545970917
6.656026840209961 7.8699631690979 0.11154252290725708
6.617511749267578 7.857752323150635 0.11117266118526459
6.592574119567871 7.861850738525391 0.11083020269870758
6.567895889282227 7.86551570892334 0.11068908870220184
6.541860580444336 7.867781639099121 0.11010600626468658
6.502797603607178 7.854557037353516 0.10972955822944641
6.447955131530762 7.855429649353027 0.10935990512371063
6.422975540161133 7.858192443847656 0.10921330749988556
6.371077537536621 7.8620405197143555 0.10869152098894119
6.33709192276001 7.853362560272217 0.10797403752803802
6.282888412475586 7.853639602661133 0.10761339962482452
6.26600980758667 7.865947723388672 0.10781823843717575
6.210564613342285 7.864075660705566 0.10743381828069687
6.171505928039551 7.848048210144043 0.10703988373279572
6.156641960144043 7.8636603355407715 0.1066618412733078
6.1171183586120605 7.8466715812683105 0.10606157779693604
6.071754455566406 7.8564934730529785 0.10584790259599686
6.050637722015381 7.862839698791504 0.10576392710208893
5.9963579177856445 7.8605756759643555 0.10498526692390442
5.968613624572754 7.857968330383301 0.10458861291408539
5.912635326385498 7.8527116775512695 0.10418641567230225
5.89214563369751 7.859711170196533 0.10411512851715088
5.859372138977051 7.850558280944824 0.1038297563791275
5.844083309173584 7.864066123962402 0.10384751856327057
5.8085503578186035 7.850552558898926 0.10291275382041931
5.786711692810059 7.85575532913208 0.10281988233327866
5.7586798667907715 7.85176944732666 0.1026112288236618
5.738897323608398 7.859951019287109 0.10255780816078186
5.7089056968688965 7.853041648864746 0.1023118793964386
5.6917829513549805 7.8637471199035645 0.10229755938053131
5.659603595733643 7.854559898376465 0.10142931342124939
5.637348651885986 7.858004570007324 0.10172154009342194
5.614500999450684 7.860874652862549 0.10160645842552185
5.593064308166504 7.866006851196289 0.10151949524879456
5.55967903137207 7.853511810302734 0.10120891034603119
5.539459228515625 7.859814643859863 0.10114037990570068
5.514601707458496 7.859820365905762 0.10059353709220886
5.490510940551758 7.86012601852417 0.10026200115680695
5.459916591644287 7.852004051208496 0.10000979900360107
5.443975925445557 7.863846302032471 0.10001625120639801
5.421401023864746 7.866065979003906 0.09990105777978897
5.391761779785156 7.858938217163086 0.09966425597667694
5.364221572875977 7.853684425354004 0.0994562953710556
5.347847938537598 7.865039348602295 0.09887729585170746
5.319393634796143 7.858912467956543 0.09865859895944595
5.2988996505737305 7.863739967346191 0.09858106076717377
5.2686262130737305 7.854269981384277 0.09832363575696945
5.2445855140686035 7.854312896728516 0.09818468987941742
5.218214988708496 7.850045204162598 0.09799608588218689
5.204304218292236 7.865511894226074 0.09747447073459625
5.178463935852051 7.861863136291504 0.09729564189910889
5.1219916343688965 7.84787654876709 0.09685534238815308
5.113257884979248 7.870128631591797 0.0969984382390976
5.086938858032227 7.866351127624512 0.09681740403175354
5.058363914489746 7.857877731323242 0.09658412635326385
5.033923149108887 7.855680465698242 0.0964285135269165
5.007440567016602 7.851223945617676 0.09624235332012177
4.986769676208496 7.8547186851501465 0.0959736555814743
4.961986064910889 7.8516435623168945 0.0954272672533989
4.9374775886535645 7.849945068359375 0.09527811408042908
4.922125816345215 7.861690521240234 0.09529648721218109
4.877285957336426 7.863506317138672 0.09506845474243164
4.849910736083984 7.855718612670898 0.09466967731714249
4.830639839172363 7.862028121948242 0.09462112933397293
4.805037975311279 7.856866836547852 0.09405922889709473
4.779553413391113 7.851758003234863 0.0938790813088417
4.759825229644775 7.857090950012207 0.0938207358121872
4.741114616394043 7.862978935241699 0.09377364814281464
4.710324287414551 7.848701000213623 0.09330517053604126
4.6966552734375 7.863949775695801 0.09336697310209274
4.6688408851623535 7.854358673095703 0.09276094287633896
4.647727012634277 7.855907917022705 0.0926654189825058
4.621438026428223 7.849689483642578 0.09247511625289917
4.602531433105469 7.854814529418945 0.09242267161607742
4.583123683929443 7.8601393699646 0.09237018972635269
4.563490867614746 7.863926410675049 0.09212309867143631
4.5352654457092285 7.852781295776367 0.09188209474086761
4.513514995574951 7.853812217712402 0.09196053445339203
4.488491535186768 7.847923278808594 0.09178227186203003
4.474135875701904 7.8617448806762695 0.09165281802415848
4.449474811553955 7.856292724609375 0.09110903739929199
4.427296161651611 7.855102062225342 0.09098845720291138
4.406530380249023 7.857453346252441 0.09090657532215118
4.3892717361450195 7.864891052246094 0.09088671952486038
4.3614182472229 7.853233337402344 0.09064746648073196
4.342308521270752 7.858328819274902 0.09042122215032578
4.315564155578613 7.84835958480835 0.08983388543128967
4.2986578941345215 7.856184005737305 0.0898212343454361
4.278504371643066 7.859173774719238 0.08975063264369965
4.256958961486816 7.858386993408203 0.08964025974273682
4.227217197418213 7.843071937561035 0.08936350047588348
27.894689559936523 -1.4559135437011719 0.39591169357299805
27.865936279296875 -1.3367624282836914 0.39542317390441895
27.816993713378906 -1.1591882705688477 0.3946152329444885
26.341312408447266 0.06321416795253754 0.3129422664642334
26.278669357299805 0.118691086769104 0.312200129032135
26.238265991210938 0.22901412844657898 0.3106367886066437
26.170833587646484 0.39297541975975037 0.3093526065349579
26.172889709472656 0.5032639503479004 0.3093990683555603
26.175451278686523 0.5576546788215637 0.309442937374115
26.078441619873047 0.8842397928237915 0.30731743574142456
26.02654266357422 0.9376404881477356 0.3067295551300049
25.97791862487793 0.9898720979690552 0.30567434430122375
25.957101821899414 1.0435329675674438 0.30545496940612793
25.938549041748047 1.0977870225906372 0.30526283383369446
25.909767150878906 1.150437831878662 0.3049513101577759
25.901710510253906 1.204446792602539 0.30488574504852295
25.898765563964844 1.25925612449646 0.30380311608314514
25.870468139648438 1.3116989135742188 0.3035025894641876
25.85252571105957 1.366164207458496 0.30332499742507935
25.839519500732422 1.4192546606063843 0.30320608615875244
25.834688186645508 1.4732729196548462 0.30268216133117676
25.817337036132812 1.52711820602417 0.30251675844192505
25.790491104125977 1.5792443752288818 0.3022395968437195
25.773025512695312 1.6323696374893188 0.302075058221817
25.752832412719727 1.685829758644104 0.3018784821033478
25.724475860595703 1.7380955219268799 0.30158868432044983
25.69609832763672 1.7908275127410889 0.3002281188964844
25.682987213134766 1.843477725982666 0.30011898279190063
25.649620056152344 1.895094633102417 0.29977601766586304
25.642574310302734 1.9491584300994873 0.299740195274353
25.640602111816406 2.0025339126586914 0.29926490783691406
25.630603790283203 2.055776357650757 0.29919806122779846
25.60586166381836 2.108351707458496 0.29896026849746704
25.584672927856445 2.160069704055786 0.29876506328582764
25.577289581298828 2.214484453201294 0.2987332344055176
25.573266983032227 2.267613410949707 0.2987391948699951
25.570472717285156 2.321357488632202 0.29826438426971436
25.55552101135254 2.3745524883270264 0.29814764857292175
25.54235076904297 2.426802158355713 0.29805225133895874
25.540203094482422 2.480588912963867 0.29808732867240906
25.524612426757812 2.5336263179779053 0.2979672849178314
25.515134811401367 2.586167097091675 0.29685115814208984
25.487506866455078 2.6918551921844482 0.2966586947441101
25.467945098876953 2.74324107170105 0.2964968979358673
25.4532470703125 2.796675682067871 0.2958974838256836
25.43492889404297 2.848094940185547 0.2957524359226227
25.392486572265625 3.0050933361053467 0.29547280073165894
25.367841720581055 3.0571413040161133 0.2941984534263611
25.347061157226562 3.1080141067504883 0.29403072595596313
25.305252075195312 3.2644906044006348 0.29328271746635437
25.266586303710938 3.367741107940674 0.2929959297180176
25.252939224243164 3.4192726612091064 0.29291948676109314
25.21921157836914 3.5229244232177734 0.29163816571235657
25.180160522460938 3.570758819580078 0.29289430379867554
25.145647048950195 3.620677947998047 0.2925826907157898
25.1110897064209 3.6689090728759766 0.2922682762145996
25.08921241760254 3.71940279006958 0.2921038866043091
25.06777572631836 3.7704720497131348 0.29089123010635376
25.05314826965332 3.8214545249938965 0.2908128798007965
25.014678955078125 3.8692188262939453 0.28996872901916504
24.95049285888672 3.913388252258301 0.2893195152282715
24.911466598510742 3.960252285003662 0.28896215558052063
24.855777740478516 4.005857467651367 0.28841477632522583
24.816844940185547 4.052438259124756 0.2880597710609436
24.775915145874023 4.099052429199219 0.2866382300853729
24.740650177001953 4.147042274475098 0.2863311767578125
24.721355438232422 4.196568965911865 0.2857217788696289
24.685853958129883 4.244816780090332 0.2854154706001282
24.662792205810547 4.2935638427734375 0.28525179624557495
24.61017417907715 4.33704137802124 0.28474631905555725
24.57790184020996 4.385509014129639 0.28448018431663513
24.54204559326172 4.4316816329956055 0.2831327021121979
24.507122039794922 4.478401184082031 0.2828373908996582
24.46087074279785 4.523479461669922 0.2819306552410126
24.434574127197266 4.571077346801758 0.28173649311065674
24.386648178100586 4.614999771118164 0.28129488229751587
24.36035919189453 4.663459300994873 0.28110501170158386
24.328006744384766 4.709622859954834 0.2834587097167969
24.28986358642578 4.756094455718994 0.2831306755542755
24.24789810180664 4.80014705657959 0.2817288041114807
24.24199104309082 4.851766109466553 0.28177911043167114
24.178483963012695 4.892311096191406 0.28115975856781006
24.155303955078125 4.939822196960449 0.28100788593292236
24.08150863647461 5.030481338500977 0.2799156606197357
24.025287628173828 5.070791721343994 0.27938365936279297
23.95857810974121 5.162201404571533 0.27783823013305664
23.93328857421875 5.208747863769531 0.2776699662208557
23.890419006347656 5.252896308898926 0.2773018181324005
23.87163543701172 5.300723075866699 0.2767380177974701
23.800846099853516 5.390280723571777 0.2751604914665222
23.784515380859375 5.438495635986328 0.2751008868217468
23.745176315307617 5.482903957366943 0.27478137612342834
23.71129608154297 5.526935577392578 0.2745230793952942
23.65261459350586 5.618382930755615 0.27364274859428406
23.609052658081055 5.659820079803467 0.27226272225379944
23.580184936523438 5.7051544189453125 0.27206796407699585
23.540935516357422 5.748435020446777 0.27175378799438477
23.51162338256836 5.793003559112549 0.27410757541656494
23.468507766723633 5.8355865478515625 0.27375248074531555
23.429706573486328 5.87759256362915 0.2734423279762268
23.399398803710938 5.921630859375 0.2732304334640503
23.367172241210938 5.96661901473999 0.2720002830028534
23.329425811767578 6.008577346801758 0.27123603224754333
23.311677932739258 6.056101322174072 0.27117782831192017
23.291332244873047 6.103476524353027 0.2710932493209839
23.24579620361328 6.143124580383301 0.27070748805999756
23.199220657348633 6.182831287384033 0.26931530237197876
23.171733856201172 6.228071212768555 0.268684983253479
23.150657653808594 6.273947715759277 0.2685931324958801
23.10352897644043 6.31418514251709 0.2681989371776581
23.09162712097168 6.362460136413574 0.2682134509086609
23.03909683227539 6.399456977844238 0.267758309841156
23.020706176757812 6.447351455688477 0.2667074203491211
22.984777450561523 6.488758087158203 0.2659856081008911
22.951662063598633 6.532379150390625 0.2657594382762909
22.907264709472656 6.571161270141602 0.2654055655002594
22.875856399536133 6.613560676574707 0.26519933342933655
22.842693328857422 6.656881332397461 0.26398998498916626
22.8333797454834 6.705606460571289 0.2635806202888489
22.7822265625 6.742450714111328 0.26315048336982727
22.76210594177246 6.788932800292969 0.26308774948120117
22.723230361938477 6.8287200927734375 0.26576024293899536
22.702213287353516 6.874281883239746 0.2647022008895874
22.68248176574707 6.920760154724121 0.26464104652404785
22.633167266845703 6.957086086273193 0.26376911997795105
22.60245704650879 7.000527381896973 0.26358938217163086
22.57862091064453 7.044527053833008 0.2634842097759247
22.526996612548828 7.079752445220947 0.262065589427948
22.492191314697266 7.121644020080566 0.2618356943130493
22.465621948242188 7.164559841156006 0.26124903559684753
22.358118057250977 7.234152317047119 0.2603414058685303
22.323503494262695 7.274161338806152 0.2591344714164734
22.27751922607422 7.363102912902832 0.2585126757621765
22.247703552246094 7.404495716094971 0.2583498954772949
22.212478637695312 7.4455156326293945 0.2581220269203186
22.136587142944336 7.471211910247803 0.25644248723983765
22.080610275268555 7.503396987915039 0.2559630572795868
21.97317123413086 7.519286155700684 0.25443601608276367
21.86423110961914 7.532727241516113 0.25333547592163086
21.755802154541016 7.547402381896973 0.2522555887699127
21.646997451782227 7.560020446777344 0.2502151131629944
21.50468635559082 7.5604248046875 0.24875447154045105
21.382360458374023 7.56878137588501 0.247527077794075
21.22709846496582 7.5634284019470215 0.24777215719223022
21.107162475585938 7.570561408996582 0.24655479192733765
20.980712890625 7.575366020202637 0.2438991665840149
20.853809356689453 7.578499794006348 0.24260804057121277
20.71017074584961 7.576423645019531 0.2411232888698578
20.604991912841797 7.5864644050598145 0.2400837242603302
20.477039337158203 7.587645530700684 0.23877795040607452
20.359825134277344 7.593716144561768 0.23626957833766937
20.22250747680664 7.590341567993164 0.23486047983169556
20.108802795410156 7.595309257507324 0.23371733725070953
20.002483367919922 7.6040167808532715 0.23267212510108948
19.872282028198242 7.6017560958862305 0.23046351969242096
19.75530433654785 7.604486465454102 0.22887203097343445
19.66343116760254 7.616947174072266 0.2279941290616989
19.54348373413086 7.617162227630615 0.22678470611572266
19.42980194091797 7.620706558227539 0.22564861178398132
19.314119338989258 7.621618270874023 0.22363144159317017
19.219152450561523 7.630274772644043 0.22230997681617737
19.092260360717773 7.627150535583496 0.22103235125541687
18.9835147857666 7.629428386688232 0.2199546992778778
18.870527267456055 7.630449295043945 0.21798497438430786
18.772727966308594 7.63670015335083 0.21664462983608246
18.663902282714844 7.637608528137207 0.21556967496871948
18.558300018310547 7.64071798324585 0.21453997492790222
18.468048095703125 7.6484198570251465 0.21407297253608704
18.36395835876465 7.649994850158691 0.21305200457572937
18.250762939453125 7.648634910583496 0.21072007715702057
18.16054344177246 7.655169486999512 0.2098616063594818
18.058902740478516 7.656917095184326 0.20887205004692078
17.95058822631836 7.655857086181641 0.20780494809150696
17.85329246520996 7.658186912536621 0.20686063170433044
17.759048461914062 7.662720680236816 0.2047789990901947
17.65969467163086 7.663360595703125 0.20381593704223633
17.548437118530273 7.658393859863281 0.20271512866020203
17.45044708251953 7.660048484802246 0.20177042484283447
17.359859466552734 7.663290500640869 0.20012152194976807
17.266868591308594 7.66509485244751 0.19886285066604614
17.178916931152344 7.670022964477539 0.19803713262081146
17.079071044921875 7.667991638183594 0.19706936180591583
16.891860961914062 7.669579982757568 0.19414831697940826
16.801944732666016 7.670849800109863 0.19329741597175598
16.730058670043945 7.68126106262207 0.19265902042388916
16.624547958374023 7.6746296882629395 0.19086788594722748
16.53019905090332 7.672727584838867 0.1896105855703354
16.43995475769043 7.673568248748779 0.18876001238822937
16.363691329956055 7.6793670654296875 0.18806928396224976
16.179359436035156 7.676170349121094 0.18518874049186707
16.103179931640625 7.681008338928223 0.18449802696704865
16.016820907592773 7.681859493255615 0.18334712088108063
15.926551818847656 7.679259300231934 0.18249523639678955
15.845344543457031 7.680671691894531 0.18101981282234192
15.76058578491211 7.681209564208984 0.18024113774299622
15.672775268554688 7.678703308105469 0.17907212674617767
15.606687545776367 7.686906337738037 0.17850399017333984
15.528898239135742 7.68947696685791 0.17707911133766174
15.440662384033203 7.685725212097168 0.1762584149837494
15.367195129394531 7.69016170501709 0.17526628077030182
15.292362213134766 7.692436218261719 0.1745966672897339
15.202905654907227 7.687010765075684 0.1730501353740692
15.133247375488281 7.692426681518555 0.1724446713924408
15.045737266540527 7.6872758865356445 0.17129583656787872
14.97887897491455 7.692356109619141 0.17071643471717834
14.90250301361084 7.693408966064453 0.16933825612068176
14.840066909790039 7.700222015380859 0.16880784928798676
14.746009826660156 7.691444396972656 0.16759712994098663
14.674559593200684 7.69295597076416 0.16696304082870483
14.60690689086914 7.696174621582031 0.16569380462169647
14.528356552124023 7.694483757019043 0.16499102115631104
14.452818870544434 7.692924499511719 0.16398844122886658
14.397768020629883 7.7020087242126465 0.162194162607193
14.32028579711914 7.699950218200684 0.16182830929756165
14.245479583740234 7.697878837585449 0.1611621081829071
14.172168731689453 7.69742488861084 0.15985167026519775
14.11069107055664 7.701997756958008 0.15933780372142792
14.028677940368652 7.695059776306152 0.15827655792236328
13.97451400756836 7.704231262207031 0.1578509360551834
13.89793586730957 7.699663162231445 0.15650855004787445
13.84194564819336 7.706228256225586 0.15605975687503815
13.765970230102539 7.702498435974121 0.1550758183002472
13.70566177368164 7.706143856048584 0.15457762777805328
13.641252517700195 7.707584381103516 0.15338435769081116
13.578607559204102 7.71014928817749 0.15286512672901154
13.509513854980469 7.708033561706543 0.151960551738739
13.439120292663574 7.705971717834473 0.15071091055870056
13.378446578979492 7.70811653137207 0.15021157264709473
13.314248085021973 7.707973480224609 0.1496693342924118
13.248653411865234 7.707833290100098 0.14881685376167297
13.18697738647461 7.708623886108398 0.14766931533813477
13.133857727050781 7.714184761047363 0.14725442230701447
13.060741424560547 7.708813190460205 0.14661848545074463
12.996561050415039 7.707344055175781 0.14578086137771606
12.942874908447266 7.712925910949707 0.14473974704742432
12.870326042175293 7.705930709838867 0.1441059410572052
12.808775901794434 7.705232620239258 0.14235901832580566
12.746601104736328 7.704961776733398 0.14123454689979553
12.68997573852539 7.706735610961914 0.1407841145992279
12.641237258911133 7.713089466094971 0.14042069017887115
12.58007526397705 7.712698459625244 0.13931366801261902
12.523452758789062 7.713787078857422 0.13857430219650269
12.466394424438477 7.715424060821533 0.1381250023841858
12.404515266418457 7.712775230407715 0.137616366147995
12.33964729309082 7.707995414733887 0.13647164404392242
12.28938102722168 7.713141441345215 0.13581237196922302
12.237339973449707 7.715923309326172 0.13541364669799805
12.16206169128418 7.703778266906738 0.13475678861141205
12.112726211547852 7.708835124969482 0.13351576030254364
12.058195114135742 7.709334373474121 0.13309113681316376
12.00883674621582 7.713966369628906 0.13272765278816223
11.945039749145508 7.708049774169922 0.1321992129087448
11.902101516723633 7.7153730392456055 0.13103534281253815
11.84754467010498 7.716000556945801 0.13061560690402985
11.787551879882812 7.711813926696777 0.13013023138046265
11.738151550292969 7.714326858520508 0.1291809380054474
11.680901527404785 7.712482929229736 0.1284562647342682
11.628668785095215 7.712695121765137 0.1280573606491089
11.567357063293457 7.70664119720459 0.1275578737258911
11.511002540588379 7.704652309417725 0.12627197802066803
11.467731475830078 7.7101969718933105 0.12483036518096924
11.424253463745117 7.716452598571777 0.12453624606132507
11.364964485168457 7.710798263549805 0.12406408786773682
11.31767749786377 7.713062286376953 0.12372235953807831
11.269699096679688 7.715672492980957 0.12281341850757599
11.21322250366211 7.711231231689453 0.1221037209033966
11.170026779174805 7.71571683883667 0.12180744111537933
11.115711212158203 7.713327407836914 0.12083552777767181
11.072629928588867 7.717523097991943 0.12054077535867691
11.012325286865234 7.71049690246582 0.1197984516620636
10.964348793029785 7.7108612060546875 0.11945033818483353
10.915898323059082 7.710693359375 0.11854436993598938
10.863460540771484 7.708491325378418 0.11789076030254364
10.819578170776367 7.711161136627197 0.11758796870708466
10.775325775146484 7.713391304016113 0.1167331337928772
10.71255874633789 7.703125 0.11623118817806244
10.68533992767334 7.717243194580078 0.11584948003292084
10.625897407531738 7.70890474319458 0.11538328975439072
10.586652755737305 7.714015960693359 0.11458955705165863
10.532133102416992 7.707801818847656 0.11391487717628479
10.488243103027344 7.710140705108643 0.11361804604530334
10.429019927978516 7.69999361038208 0.11314934492111206
10.40739631652832 7.717449188232422 0.1125529333949089
10.35168170928955 7.71046257019043 0.11187367141246796
10.310497283935547 7.713105201721191 0.11106933653354645
10.26361083984375 7.711301326751709 0.11020520329475403
10.216206550598145 7.7098822593688965 0.10962115228176117
10.167165756225586 7.706040859222412 0.10926616936922073
10.131434440612793 7.713090419769287 0.1090591698884964
10.086706161499023 7.712154388427734 0.10822432488203049
10.05124568939209 7.718147277832031 0.10776621103286743
9.989234924316406 7.704507827758789 0.10727757215499878
9.954954147338867 7.711067199707031 0.10656100511550903
9.909673690795898 7.708950042724609 0.10599926114082336
9.87113094329834 7.7128705978393555 0.1057632565498352
9.818896293640137 7.704926490783691 0.10537490248680115
9.786041259765625 7.7126665115356445 0.10468195378780365
9.742086410522461 7.711165904998779 0.10413962602615356
9.706682205200195 7.715960502624512 0.10393214225769043
9.649985313415527 7.704588413238525 0.10299123823642731
9.623954772949219 7.716561794281006 0.10264027118682861
9.5719633102417 7.707563400268555 0.10225647687911987
9.53719711303711 7.713210105895996 0.10206054896116257
9.509825706481934 7.723771572113037 0.10143287479877472
9.46255874633789 7.718987464904785 0.10086344182491302
9.411951065063477 7.71028995513916 0.10049435496330261
9.369007110595703 7.70765495300293 0.0997055172920227
9.336868286132812 7.714719772338867 0.09929938614368439
9.289979934692383 7.708474159240723 0.0987325981259346
9.25118350982666 7.7087531089782715 0.09799236804246902
9.220100402832031 7.716283798217773 0.09783775359392166
9.164632797241211 7.702258586883545 0.09741856157779694
9.142809867858887 7.716348648071289 0.09662584960460663
9.093894004821777 7.708390235900879 0.09628327935934067
9.060325622558594 7.712302207946777 0.09609699994325638
9.015564918518066 7.707476615905762 0.095562644302845
8.977745056152344 7.707449913024902 0.09484220296144485
8.937206268310547 7.704919338226318 0.09458276629447937
8.907752990722656 7.712759971618652 0.09421274065971375
8.860196113586426 7.703812599182129 0.09339354187250137
8.82718276977539 7.707332611083984 0.0932140052318573
8.79489517211914 7.712315082550049 0.09304685145616531
8.754768371582031 7.709324836730957 0.09207945317029953
8.713504791259766 7.705791473388672 0.09181705117225647
8.679304122924805 7.708009719848633 0.09162625670433044
8.641851425170898 7.706885814666748 0.09117107093334198
8.611417770385742 7.712834358215332 0.09054635465145111
8.566169738769531 7.704403877258301 0.09023821353912354
8.53022289276123 7.704154014587402 0.08980096131563187
8.501938819885254 7.711649417877197 0.0892021432518959
8.45617961883545 7.7021918296813965 0.08888974040746689
8.421279907226562 7.703380584716797 0.08869563043117523
8.390464782714844 7.707234859466553 0.08831451833248138
8.34847640991211 7.70067024230957 0.08804058283567429
8.314408302307129 7.702183723449707 0.08763080835342407
8.271452903747559 7.694348335266113 0.08687971532344818
8.248117446899414 7.704629898071289 0.08680235594511032
8.20329475402832 7.69564151763916 0.08628097176551819
8.171526908874512 7.697783470153809 0.08611520379781723
8.13497543334961 7.695275783538818 0.08543558418750763
8.110471725463867 7.704992294311523 0.08512996137142181
8.073540687561035 7.701846122741699 0.08491002023220062
8.0416898727417 7.704340934753418 0.08428800851106644
8.009499549865723 7.705441474914551 0.08411803841590881
7.971376419067383 7.700681686401367 0.08366657048463821
7.935702323913574 7.699060440063477 0.08300788700580597
7.899699687957764 7.696019172668457 0.08279818296432495
7.867199897766113 7.6962432861328125 0.08240743726491928
7.839684009552002 7.702167510986328 0.08229144662618637
7.799193382263184 7.694259166717529 0.08158138394355774
7.769325256347656 7.697308540344238 0.08122323453426361
7.737264156341553 7.697730541229248 0.08105649054050446
7.701813697814941 7.69433069229126 0.08040265738964081
7.674509048461914 7.6998796463012695 0.08007479459047318
7.64444637298584 7.701616287231445 0.07992736995220184
7.611111640930176 7.699925422668457 0.07929868251085281
7.571927070617676 7.693084716796875 0.07973932474851608
7.546158790588379 7.698796272277832 0.07963568717241287
7.515983581542969 7.7005462646484375 0.07883315533399582
7.484243869781494 7.700233459472656 0.07866932451725006
7.451757431030273 7.6987104415893555 0.07849590480327606
7.424875259399414 7.70380163192749 0.077732153236866
7.388742446899414 7.698219299316406 0.07752130925655365
7.35411262512207 7.694036960601807 0.0773242712020874
7.329545974731445 7.701203346252441 0.07703045755624771
7.292150497436523 7.693820953369141 0.07636752724647522
7.267501354217529 7.699753284454346 0.07627561688423157
7.231719970703125 7.694707870483398 0.07586412131786346
7.21053409576416 7.704139709472656 0.0753742903470993
7.1755523681640625 7.699362277984619 0.07517823576927185
7.149487495422363 7.7036895751953125 0.07507443428039551
7.108014106750488 7.690949440002441 0.07416576892137527
7.083110809326172 7.696925163269043 0.07407711446285248
7.045515060424805 7.6880292892456055 0.07385063916444778
7.026780128479004 7.700241565704346 0.07318919897079468
7.001237869262695 7.7046051025390625 0.0730908140540123
6.969731330871582 7.701986789703369 0.07292908430099487
6.934137344360352 7.695326805114746 0.07209466397762299
6.901590347290039 7.6915483474731445 0.07192327082157135
6.879031181335449 7.698486804962158 0.07185476273298264
6.844793319702148 7.692878246307373 0.07231338322162628
6.809985637664795 7.686121940612793 0.07169169187545776
6.779085159301758 7.683309078216553 0.07153452187776566
6.753836631774902 7.6877336502075195 0.07123887538909912
6.729881286621094 7.692603588104248 0.0707324743270874
6.674263954162598 7.694177627563477 0.07048692554235458
6.637962341308594 7.684488296508789 0.06965343654155731
6.610004425048828 7.685248374938965 0.06953131407499313
6.585603713989258 7.689096927642822 0.06944204866886139
6.563404083251953 7.695443153381348 0.06875957548618317
6.538332939147949 7.6992998123168945 0.0686686560511589
6.5117902755737305 7.700373649597168 0.0685577243566513
6.476041793823242 7.690412521362305 0.06773421168327332
6.45670747756958 7.700780391693115 0.06770512461662292
6.417130470275879 7.685917854309082 0.06745713204145432
6.364696025848389 7.688704013824463 0.06663534045219421
6.340391159057617 7.6917829513549805 0.06655000150203705
6.305006504058838 7.682233810424805 0.06574200838804245
6.2775115966796875 7.68118143081665 0.06562277674674988
6.255374908447266 7.687242031097412 0.06556116044521332
6.229252815246582 7.687984466552734 0.06485114246606827
6.194779396057129 7.677957534790039 0.06465788185596466
6.174536228179932 7.686098098754883 0.06542964279651642
6.156772136688232 7.696955680847168 0.06500425934791565
6.129000663757324 7.694918632507324 0.06468722224235535
6.100220203399658 7.692135334014893 0.06455434113740921
6.072107315063477 7.68972110748291 0.06402237713336945
6.047091960906982 7.690803050994873 0.06373433023691177
6.017448902130127 7.686840057373047 0.06359468400478363
5.988740921020508 7.6829633712768555 0.06305620819330215
5.973225116729736 7.696597099304199 0.06287247687578201
5.94036340713501 7.687451362609863 0.06269485503435135
5.91671085357666 7.68977165222168 0.06221436709165573
5.88852596282959 7.687062740325928 0.061898618936538696
5.869101524353027 7.694729804992676 0.06186407804489136
5.841979503631592 7.692222595214844 0.061345554888248444
5.81687593460083 7.693234443664551 0.06106506288051605
5.786268711090088 7.685856819152832 0.060909152030944824
5.767454624176025 7.694043159484863 0.060482148081064224
5.743832111358643 7.696734428405762 0.06021811068058014
5.715300559997559 7.691751480102539 0.060086727142333984
5.6907877922058105 7.6927170753479 0.059603579342365265
5.673668384552002 7.703277587890625 0.05940720811486244
5.637944221496582 7.688136100769043 0.059198182076215744
5.616490364074707 7.693288326263428 0.05875096470117569
5.59661865234375 7.6995697021484375 0.05852323770523071
5.572139739990234 7.700106620788574 0.05901847407221794
5.537177562713623 7.685642719268799 0.058629490435123444
5.516838550567627 7.691014289855957 0.05819331109523773
5.466121673583984 7.688469886779785 0.057810865342617035
5.43934440612793 7.684525012969971 0.05731012672185898
5.385324954986572 7.67656135559082 0.05650833994150162
5.363378047943115 7.6791229248046875 0.05644528567790985
5.3426713943481445 7.684391498565674 0.0563996322453022
5.312891960144043 7.675495147705078 0.05568307638168335
5.272713661193848 7.686421871185303 0.055602215230464935
5.252268314361572 7.69078254699707 0.05498562008142471
