VERSION .7
FIELDS x y z
SIZE 4 4 4
TYPE F F F
COUNT 1 1 1
WIDTH 850
HEIGHT 1
VIEWPOINT 0 0 0 1 0 0 0
POINTS 850
DATA ascii
3.883988857269287 6.2646026611328125 0.10087713599205017
3.8616647720336914 6.258115768432617 0.10019336640834808
3.836752414703369 6.247006893157959 0.09988279640674591
3.813753604888916 6.238554000854492 0.09932969510555267
3.8082447052001953 6.259255409240723 0.09908369183540344
3.7848329544067383 6.250243663787842 0.09836919605731964
3.7628772258758545 6.243189334869385 0.09768462181091309
3.743922710418701 6.241564750671387 0.09709307551383972
3.72688627243042 6.242791175842285 0.0969931036233902
3.7093265056610107 6.242776870727539 0.0964273065328598
3.6883976459503174 6.237858772277832 0.09578724205493927
3.668140411376953 6.233087062835693 0.09515438973903656
3.656881332397461 6.244134426116943 0.09491829574108124
3.63083815574646 6.2295732498168945 0.09442732483148575
3.6211085319519043 6.242622375488281 0.09407103061676025
3.5889761447906494 6.217489242553711 0.09313857555389404
47.449241638183594 4.406749725341797 1.6662184000015259
43.34897232055664 7.640146255493164 1.522742748260498
43.08509063720703 7.873226165771484 1.512508749961853
41.96104431152344 8.12393569946289 1.4733554124832153
29.99774742126465 7.861455917358398 1.0556446313858032
29.159332275390625 7.837965965270996 1.0260140895843506
28.33303451538086 7.807172775268555 0.9968510866165161
27.813434600830078 7.790173530578613 0.9779562950134277
27.559045791625977 7.780636787414551 0.9695789813995361
27.078577041625977 7.768265724182129 0.9527093172073364
26.369483947753906 7.7445878982543945 0.927781343460083
21.49917984008789 7.560401916503906 0.7577248811721802
21.002845764160156 7.534558296203613 0.7400482892990112
20.55284881591797 7.519294738769531 0.7245085835456848
20.256046295166016 7.507584571838379 0.7138346433639526
20.117177963256836 7.503633499145508 0.7094887495040894
19.809776306152344 7.484157562255859 0.6984570026397705
19.66135597229004 7.474745750427246 0.6937700510025024
19.392559051513672 7.466181755065918 0.6841222047805786
19.255084991455078 7.459171295166016 0.6793718338012695
18.996171951293945 7.451030731201172 0.6705344915390015
18.596111297607422 7.429338455200195 0.6563920974731445
15.774877548217773 7.283905029296875 0.5582369565963745
15.486307144165039 7.269118309020996 0.5482200980186462
15.30865478515625 7.26456356048584 0.5419796705245972
15.19976806640625 7.251575469970703 0.5379849672317505
15.003622055053711 7.235722541809082 0.5317605137825012
14.928449630737305 7.237691879272461 0.528965413570404
14.765119552612305 7.235461711883545 0.5232509970664978
14.666915893554688 7.225122928619385 0.5203014612197876
14.487164497375488 7.212550163269043 0.5140081644058228
14.420978546142578 7.216981410980225 0.5112056732177734
14.227728843688965 7.195354461669922 0.5044522285461426
14.149206161499023 7.192933082580566 0.5022037029266357
13.98260498046875 7.182127952575684 0.4963924288749695
13.74648380279541 7.1704206466674805 0.4886566996574402
12.168779373168945 7.080879211425781 0.43427956104278564
12.029969215393066 7.067446708679199 0.4295172095298767
11.968158721923828 7.065225601196289 0.42784583568573
11.829750061035156 7.050867080688477 0.42311227321624756
11.777875900268555 7.053114891052246 0.4209403991699219
11.668148040771484 7.054335594177246 0.4172465205192566
11.60175895690918 7.047115802764893 0.4159351587295532
11.54250717163086 7.044293403625488 0.4138009250164032
11.472417831420898 7.03486442565918 0.41153714060783386
11.416791915893555 7.033395767211914 0.40952831506729126
11.364253997802734 7.033938407897949 0.4073571562767029
11.304544448852539 7.030093669891357 0.40574944019317627
11.228201866149902 7.015302658081055 0.40272727608680725
11.12157917022705 7.013648986816406 0.39914876222610474
11.068009376525879 7.012340545654297 0.39747685194015503
10.959059715270996 7.007839202880859 0.3938222825527191
10.897789001464844 7.000890731811523 0.3916306495666504
10.780461311340332 6.989830017089844 0.3876827359199524
10.628905296325684 6.986865043640137 0.3822532892227173
9.663668632507324 6.919100761413574 0.35086721181869507
9.571662902832031 6.914384841918945 0.34738585352897644
9.536626815795898 6.919239044189453 0.3463889956474304
9.451042175292969 6.918084144592285 0.34361881017684937
9.3917818069458 6.905261039733887 0.3415289521217346
9.314920425415039 6.908797264099121 0.33882761001586914
9.27043342590332 6.906243324279785 0.33727625012397766
9.213517189025879 6.893923759460449 0.33548611402511597
9.17306137084961 6.893965721130371 0.33408695459365845
9.123564720153809 6.886438846588135 0.33347266912460327
9.094171524047852 6.894227027893066 0.3324722349643707
9.040438652038574 6.883651256561279 0.3307996392250061
9.000951766967773 6.883440017700195 0.3294256925582886
8.952153205871582 6.875612258911133 0.3274703919887543
8.91644287109375 6.878217697143555 0.32646098732948303
8.870518684387207 6.872501373291016 0.32486045360565186
8.835662841796875 6.874884605407715 0.3234180212020874
8.783857345581055 6.864450931549072 0.3220536410808563
8.750360488891602 6.8678693771362305 0.32067370414733887
8.672245025634766 6.865776062011719 0.3181912899017334
8.624564170837402 6.857192039489746 0.3162935972213745
8.545490264892578 6.853257656097412 0.31378012895584106
8.505125045776367 6.849936485290527 0.312151700258255
7.754859447479248 6.801684379577637 0.288108229637146
7.719914436340332 6.799429893493652 0.2869202494621277
7.642621994018555 6.788722038269043 0.2842697203159332
7.608974933624268 6.787135124206543 0.2831355631351471
7.552175045013428 6.793797492980957 0.2812471389770508
7.502871513366699 6.777667999267578 0.2795317769050598
7.471201419830322 6.778098106384277 0.27826976776123047
7.445446014404297 6.78295373916626 0.27762654423713684
7.401756286621094 6.771312713623047 0.27611780166625977
7.372199535369873 6.773259162902832 0.27494388818740845
7.339997291564941 6.771817207336426 0.27506691217422485
7.301851272583008 6.7652692794799805 0.2735637426376343
7.275964736938477 6.769685745239258 0.2725156247615814
7.234577178955078 6.759241580963135 0.2714955508708954
7.209104537963867 6.764343738555908 0.270472913980484
7.161431312561035 6.747611999511719 0.26860806345939636
7.139249801635742 6.755275726318359 0.2683107554912567
7.098663330078125 6.7451324462890625 0.2667180895805359
7.081888198852539 6.757213592529297 0.266019344329834
7.036741256713867 6.742626667022705 0.26485562324523926
7.010430335998535 6.745662689208984 0.2638065814971924
6.976147651672363 6.7406110763549805 0.2624434530735016
6.959571838378906 6.753401756286621 0.262366384267807
6.913331508636475 6.736442565917969 0.2605600357055664
6.88498592376709 6.736733436584473 0.2594282031059265
6.815046310424805 6.7247114181518555 0.2572728097438812
6.733928203582764 6.7287445068359375 0.25464385747909546
6.641745090484619 6.720603942871094 0.2515968382358551
6.546540260314941 6.708097457885742 0.24880924820899963
6.295504570007324 6.6999101638793945 0.24067553877830505
6.236798286437988 6.693699359893799 0.2385825216770172
6.210399627685547 6.693162441253662 0.23791667819023132
6.1506452560424805 6.685009002685547 0.23559337854385376
6.13623046875 6.69718074798584 0.23520946502685547
6.061431884765625 6.671738147735596 0.23267653584480286
6.035461902618408 6.670914649963379 0.23184789717197418
5.989956855773926 6.676924705505371 0.23044346272945404
5.959472179412842 6.670742988586426 0.22944605350494385
5.9272356033325195 6.663252830505371 0.22819975018501282
5.914633750915527 6.676937103271484 0.22841839492321014
5.881443977355957 6.667293548583984 0.22731857001781464
5.860507965087891 6.672238349914551 0.2265167534351349
5.831351280212402 6.666895866394043 0.22573821246623993
5.813695907592773 6.674895286560059 0.2252432107925415
5.768152713775635 6.6509575843811035 0.22348469495773315
5.7460856437683105 6.653358459472656 0.22262781858444214
5.730353355407715 6.663327217102051 0.22237440943717957
5.698486328125 6.654692649841309 0.22132956981658936
5.671616077423096 6.651202201843262 0.22028979659080505
5.647993564605713 6.652230262756348 0.21939188241958618
5.619792938232422 6.6469244956970215 0.21883150935173035
5.606890678405762 6.659645080566406 0.21833966672420502
5.568699359893799 6.643033981323242 0.21687114238739014
5.551319599151611 6.650284767150879 0.2162051796913147
5.495234489440918 6.6397385597229 0.2145792543888092
5.4694085121154785 6.636524200439453 0.21358251571655273
5.417665481567383 6.630437850952148 0.21212822198867798
5.396694183349609 6.632818698883057 0.21133023500442505
5.346114635467529 6.627471923828125 0.20957478880882263
5.326010704040527 6.6306610107421875 0.2088100016117096
5.279362678527832 6.62957763671875 0.20754997432231903
5.259106636047363 6.632626533508301 0.20712542533874512
5.207287788391113 6.624100685119629 0.2053200751543045
5.131155490875244 6.612680435180664 0.20275989174842834
5.061368942260742 6.608101844787598 0.20029579102993011
4.987419605255127 6.5970563888549805 0.19800060987472534
4.925653457641602 6.601766586303711 0.1961950957775116
4.880422592163086 6.598393440246582 0.19447854161262512
4.858835220336914 6.598354339599609 0.19384509325027466
4.808232307434082 6.58700704574585 0.19225426018238068
4.792649745941162 6.594906806945801 0.19169126451015472
4.745356559753418 6.587992191314697 0.19041000306606293
4.725296974182129 6.588933944702148 0.18983672559261322
4.699122428894043 6.581523418426514 0.188838928937912
4.67648983001709 6.579206466674805 0.18799357116222382
4.662590503692627 6.588562965393066 0.18749137222766876
4.632953643798828 6.575875282287598 0.18685828149318695
4.619626998901367 6.586505889892578 0.18639157712459564
4.59032678604126 6.573705673217773 0.18526503443717957
4.574598789215088 6.580526351928711 0.18469971418380737
4.54790735244751 6.571745872497559 0.183860182762146
4.5290727615356445 6.57393741607666 0.18348777294158936
4.504144191741943 6.56688117980957 0.18254482746124268
4.486064910888672 6.570272445678711 0.18188941478729248
4.459900379180908 6.561446189880371 0.18106311559677124
4.446910858154297 6.5721940994262695 0.18061944842338562
4.420684814453125 6.562735557556152 0.1799413561820984
4.398881435394287 6.560002326965332 0.17912748456001282
4.377330303192139 6.557807922363281 0.17850008606910706
4.358876705169678 6.559600830078125 0.17782074213027954
4.339080810546875 6.559599876403809 0.17741133272647858
4.315210342407227 6.553596019744873 0.17651888728141785
4.292266368865967 6.5485968589782715 0.17583003640174866
4.282567024230957 6.563467025756836 0.17551477253437042
4.253219127655029 6.548713684082031 0.1744047999382019
4.245052814483643 6.566231727600098 0.17415277659893036
4.211517810821533 6.544105529785156 0.17333367466926575
4.194274425506592 6.547704219818115 0.17272181808948517
4.1715087890625 6.542317867279053 0.17203514277935028
4.131986618041992 6.540938377380371 0.1705947071313858
4.114626884460449 6.543491363525391 0.17027458548545837
4.079916000366211 6.549338340759277 0.16919782757759094
4.052684783935547 6.535807132720947 0.16816335916519165
4.015817642211914 6.537667274475098 0.1668395847082138
3.9773950576782227 6.536682605743408 0.16591456532478333
3.96323299407959 6.543949604034424 0.16542400419712067
3.9188966751098633 6.532674789428711 0.16379135847091675
3.8953797817230225 6.524125099182129 0.1633700579404831
3.8594701290130615 6.526269435882568 0.16209281980991364
3.8516998291015625 6.544086456298828 0.16187284886837006
3.8088507652282715 6.534080505371094 0.1607634723186493
3.7807211875915527 6.51686954498291 0.1596897691488266
3.7647271156311035 6.521356582641602 0.15914002060890198
3.7407267093658447 6.510950088500977 0.15839383006095886
3.7280373573303223 6.520755767822266 0.15814176201820374
3.70759916305542 6.5166730880737305 0.15739811956882477
3.6924901008605957 6.521566867828369 0.15717069804668427
3.672563076019287 6.518492221832275 0.15645579993724823
3.6546998023986816 6.518701076507568 0.1559719294309616
3.6333701610565186 6.512300491333008 0.1551843285560608
3.616345167160034 6.514132022857666 0.15459339320659637
3.598524332046509 6.514171600341797 0.15425415337085724
3.578667640686035 6.51010799407959 0.15352880954742432
3.557342529296875 6.504189491271973 0.1529139280319214
3.543728828430176 6.511358737945557 0.15245649218559265
3.522442579269409 6.504979610443115 0.15168237686157227
3.5040411949157715 6.503519058227539 0.15102317929267883
54.57119369506836 0.13091428577899933 1.8961149454116821
51.05888748168945 2.483546733856201 1.7771222591400146
50.72014617919922 2.7867863178253174 1.7638823986053467
50.42971420288086 2.9838995933532715 1.7531300783157349
50.33024597167969 3.0828402042388916 1.7498900890350342
50.09991455078125 3.280571937561035 1.742346167564392
49.76141357421875 3.5727109909057617 1.7282731533050537
49.424827575683594 3.8610076904296875 1.7173922061920166
46.71274948120117 6.02993106842041 1.6238895654678345
46.341644287109375 6.278458595275879 1.6104673147201538
46.15667724609375 6.451468467712402 1.6086835861206055
46.049346923828125 6.533923625946045 1.6044220924377441
45.818809509277344 6.698176383972168 1.5955114364624023
45.73537063598633 6.7829484939575195 1.5930945873260498
45.52922821044922 6.948460102081299 1.5859401226043701
45.41876983642578 7.028080940246582 1.5825963020324707
45.216583251953125 7.19190788269043 1.57476806640625
39.93094253540039 8.258200645446777 1.3891565799713135
38.983863830566406 8.233684539794922 1.3574025630950928
38.52083206176758 8.219428062438965 1.3403021097183228
37.64112091064453 8.197610855102539 1.3100636005401611
37.19456481933594 8.181241989135742 1.293593406677246
36.37956237792969 8.16274642944336 1.265639305114746
35.96544647216797 8.148258209228516 1.250349521636963
35.226497650146484 8.136963844299316 1.2250738143920898
34.822818756103516 8.119874000549316 1.2116169929504395
34.09821319580078 8.102472305297852 1.185441255569458
33.055686950683594 8.07461929321289 1.1482274532318115
27.703439712524414 7.887823581695557 0.9608044028282166
26.961212158203125 7.861225128173828 0.9350533485412598
26.249691009521484 7.833147048950195 0.9082106947898865
25.805471420288086 7.8179707527160645 0.8928874731063843
25.575637817382812 7.807435035705566 0.8849359750747681
25.33511734008789 7.791522979736328 0.8771713376045227
25.135753631591797 7.78902530670166 0.8692350387573242
24.934284210205078 7.7833428382873535 0.8628246784210205
24.69083023071289 7.763614654541016 0.8539249300956726
24.483823776245117 7.756037712097168 0.8467904329299927
24.28128433227539 7.7473578453063965 0.8403396606445312
24.07874298095703 7.738389015197754 0.8323442935943604
23.871078491210938 7.727391242980957 0.8257290720939636
23.6800537109375 7.720436096191406 0.8186870217323303
20.126344680786133 7.557965278625488 0.6931256055831909
19.672319412231445 7.529811859130859 0.6778302192687988
19.390003204345703 7.514638900756836 0.6679062843322754
19.26642417907715 7.51365327835083 0.6629319190979004
18.97616195678711 7.4918060302734375 0.6527664065361023
18.85358428955078 7.4895405769348145 0.649094820022583
18.719661712646484 7.481815338134766 0.6437910199165344
18.5685977935791 7.467022895812988 0.6391380429267883
18.455869674682617 7.466222763061523 0.6345721483230591
18.322275161743164 7.456912994384766 0.6305148601531982
18.196678161621094 7.450695037841797 0.625533401966095
18.070127487182617 7.443151473999023 0.6201587915420532
17.937633514404297 7.432153224945068 0.6153689622879028
17.818574905395508 7.427017688751221 0.6114098429679871
17.701433181762695 7.421787261962891 0.6071591973304749
17.4575252532959 7.405682563781738 0.5986957550048828
17.338579177856445 7.398154258728027 0.5947455763816833
17.095252990722656 7.379586219787598 0.5863227844238281
15.233240127563477 7.27022647857666 0.520206093788147
14.936334609985352 7.244161605834961 0.5095868706703186
14.838031768798828 7.235287189483643 0.5067554712295532
14.672626495361328 7.230550765991211 0.5004822015762329
14.58150863647461 7.224016189575195 0.49754947423934937
14.504989624023438 7.224020004272461 0.4948072135448456
14.423020362854004 7.220590591430664 0.49217483401298523
14.328983306884766 7.211452484130859 0.48850712180137634
14.241683006286621 7.2049760818481445 0.4860449433326721
14.163433074951172 7.202341079711914 0.4829111695289612
14.074748992919922 7.195127010345459 0.480410099029541
13.990137100219727 7.18853235244751 0.47706955671310425
13.91618537902832 7.187776565551758 0.4741075932979584
13.824857711791992 7.177361488342285 0.4715064465999603
13.752208709716797 7.175914287567139 0.4685882031917572
13.67022705078125 7.170331954956055 0.4663159251213074
13.585451126098633 7.1618523597717285 0.46299344301223755
13.508126258850098 7.156951427459717 0.4602532386779785
13.433597564697266 7.154258728027344 0.45790767669677734
13.342639923095703 7.1413984298706055 0.45411062240600586
13.196184158325195 7.134668350219727 0.44890904426574707
13.125898361206055 7.1319074630737305 0.44642287492752075
12.967521667480469 7.116751670837402 0.44115012884140015
12.751758575439453 7.1030120849609375 0.433538019657135
12.129261016845703 7.060209274291992 0.41169869899749756
11.945199966430664 7.053979873657227 0.40580397844314575
11.743690490722656 7.034928321838379 0.39823615550994873
11.618374824523926 7.026516914367676 0.39386606216430664
11.55012321472168 7.018016815185547 0.3915104269981384
11.495077133178711 7.017900466918945 0.3893222212791443
11.426679611206055 7.009069442749023 0.3872183561325073
11.364856719970703 7.003647804260254 0.3850802183151245
11.313671112060547 7.005495071411133 0.383039653301239
11.254673957824707 7.001315593719482 0.38153308629989624
11.186891555786133 6.991390228271484 0.37891751527786255
11.121119499206543 6.983366012573242 0.3763912618160248
11.075760841369629 6.986972808837891 0.375346839427948
11.020462036132812 6.984100818634033 0.3731697201728821
10.966588020324707 6.982839107513428 0.3710540533065796
10.90335750579834 6.974420547485352 0.36912858486175537
10.842483520507812 6.968165874481201 0.3670569062232971
10.793365478515625 6.96829080581665 0.3650960326194763
10.744278907775879 6.968231678009033 0.36365482211112976
10.685392379760742 6.962514400482178 0.3616519272327423
10.617134094238281 6.949466705322266 0.35905349254608154
10.563251495361328 6.945553779602051 0.357449471950531
10.514187812805176 6.945509910583496 0.3557891845703125
10.456657409667969 6.938717842102051 0.3535645008087158
10.345205307006836 6.927689552307129 0.3500196933746338
10.308825492858887 6.934356689453125 0.3485140800476074
10.195343971252441 6.9205641746521 0.34464746713638306
10.045679092407227 6.911620140075684 0.3395584523677826
9.745076179504395 6.887224197387695 0.3293915390968323
9.60468864440918 6.879530429840088 0.3246646523475647
9.453927993774414 6.861878395080566 0.31888020038604736
9.375113487243652 6.864567756652832 0.31647658348083496
9.32586669921875 6.8588547706604 0.3145972192287445
9.22918701171875 6.8478288650512695 0.3116016983985901
9.187065124511719 6.8461809158325195 0.31041547656059265
9.137103080749512 6.838788986206055 0.3085135221481323
9.096096992492676 6.838160514831543 0.3069239854812622
9.065732955932617 6.844825744628906 0.3061343729496002
9.016461372375488 6.83791446685791 0.304512083530426
8.956319808959961 6.821626663208008 0.3022708594799042
8.92383861541748 6.82619571685791 0.3014117479324341
8.879467964172363 6.822371959686279 0.29972171783447266
8.83603286743164 6.818206787109375 0.2982900142669678
8.793275833129883 6.814671993255615 0.29664668440818787
8.744019508361816 6.806148529052734 0.29523730278015137
8.710258483886719 6.808943748474121 0.2938976287841797
8.664159774780273 6.802218437194824 0.29238563776016235
8.632707595825195 6.807086944580078 0.2911362648010254
8.580737113952637 6.795032024383545 0.28962504863739014
8.549117088317871 6.799759387969971 0.28837916254997253
8.508971214294434 6.796703338623047 0.2870674729347229
8.460639953613281 6.787201881408691 0.28525400161743164
8.420434951782227 6.784269332885742 0.2841512858867645
8.388545989990234 6.787333011627197 0.2828904390335083
8.348625183105469 6.784040451049805 0.28159481287002563
8.30900764465332 6.781076431274414 0.2800876200199127
8.259415626525879 6.769500732421875 0.2782405912876129
8.224857330322266 6.769759178161621 0.2773233652114868
8.1785306930542 6.76069450378418 0.2760179340839386
8.148229598999023 6.76445198059082 0.2748255729675293
8.065361022949219 6.75294303894043 0.27233999967575073
8.032445907592773 6.7540788650512695 0.2710663080215454
7.838698387145996 6.732895851135254 0.2643730938434601
7.724546432495117 6.719695091247559 0.2606915831565857
7.623303413391113 6.716277122497559 0.256835401058197
7.560229301452637 6.717472076416016 0.25504350662231445
7.518756866455078 6.709132194519043 0.2535046339035034
7.449124336242676 6.703024864196777 0.2508760690689087
7.4116106033325195 6.697690963745117 0.24947692453861237
7.381340026855469 6.698501110076904 0.24872007966041565
7.346919059753418 6.695117950439453 0.2476307898759842
7.316257476806641 6.695556640625 0.24686259031295776
7.276103973388672 6.686891555786133 0.24537885189056396
7.24066162109375 6.682622909545898 0.24405735731124878
7.211136341094971 6.683137893676758 0.24292850494384766
7.174754619598389 6.677434921264648 0.2419646680355072
7.1373701095581055 6.670867919921875 0.24058282375335693
7.118885040283203 6.681324005126953 0.24003759026527405
7.074339866638184 6.667466640472412 0.23841291666030884
7.042316436767578 6.665465354919434 0.2372170239686966
7.012255668640137 6.664938926696777 0.2364678829908371
6.980873107910156 6.663269996643066 0.23529469966888428
6.94692325592041 6.658470630645752 0.23402857780456543
6.916093349456787 6.656795501708984 0.23307794332504272
6.8851318359375 6.655105113983154 0.23192280530929565
6.843554973602295 6.64244270324707 0.23040291666984558
6.823570728302002 6.650883674621582 0.2299964725971222
6.7820844650268555 6.638476371765137 0.22849193215370178
6.7691240310668945 6.6536359786987305 0.22794494032859802
6.722606658935547 6.635396957397461 0.22626492381095886
6.690927028656006 6.632124900817871 0.22529536485671997
6.663116455078125 6.632309913635254 0.22425295412540436
6.625802516937256 6.623124599456787 0.22289620339870453
6.598886966705322 6.623654365539551 0.22225308418273926
6.574029922485352 6.626429557800293 0.22131390869617462
6.547401428222656 6.627565860748291 0.22068987786769867
6.51472282409668 6.62219762802124 0.21948885917663574
6.488259315490723 6.622732639312744 0.21849322319030762
6.428766250610352 6.617527008056641 0.2164948582649231
6.399783134460449 6.6151041984558105 0.2154187709093094
6.336292266845703 6.604915142059326 0.2130986750125885
6.282599925994873 6.604398727416992 0.21147653460502625
6.243958473205566 6.591113567352295 0.21008148789405823
6.189957618713379 6.589473247528076 0.20828361809253693
6.113927841186523 6.591083526611328 0.2054690718650818
6.02409553527832 6.576684951782227 0.202556774020195
5.969353675842285 6.572278022766113 0.20056013762950897
5.93516731262207 6.561947822570801 0.19932910799980164
5.920660495758057 6.57380485534668 0.19895541667938232
5.886324882507324 6.563298225402832 0.1977250874042511
5.863095283508301 6.564753532409668 0.19686521589756012
5.83463191986084 6.561041831970215 0.1958427131175995
5.804352760314941 6.554333209991455 0.19509755074977875
5.785092353820801 6.560487747192383 0.19438190758228302
5.756174564361572 6.555346488952637 0.1933387666940689
5.736896514892578 6.5608015060424805 0.19261568784713745
5.710689067840576 6.558773040771484 0.19167013466358185
5.673126697540283 6.543280601501465 0.19052410125732422
5.651549816131592 6.54578971862793 0.18972498178482056
5.627621650695801 6.546013832092285 0.18886059522628784
5.59646463394165 6.537445068359375 0.1877492368221283
5.57658576965332 6.541654586791992 0.18701142072677612
5.547325134277344 6.535558700561523 0.18631762266159058
5.518989562988281 6.529592514038086 0.18529725074768066
5.504978179931641 6.541026592254639 0.184768944978714
5.471636772155762 6.529144287109375 0.1835891604423523
5.455715179443359 6.537656784057617 0.18298935890197754
5.417381763458252 6.519702434539795 0.18164901435375214
5.400760173797607 6.527490615844727 0.1810312718153
5.374013900756836 6.522675514221191 0.1802520751953125
5.347846984863281 6.518960952758789 0.1793213188648224
5.317804336547852 6.510124206542969 0.17825829982757568
5.292418003082275 6.5070881843566895 0.17735645174980164
5.268118381500244 6.505022048950195 0.17648714780807495
5.2525739669799805 6.513418674468994 0.17557430267333984
5.218028545379639 6.498661994934082 0.1743699610233307
5.199260711669922 6.503167152404785 0.17368796467781067
5.181491851806641 6.5085883140563965 0.17336949706077576
5.150704860687256 6.498074531555176 0.1722922921180725
5.129658222198486 6.499464511871338 0.17153801023960114
5.104743480682373 6.495569229125977 0.17065156996250153
5.079780101776123 6.492303848266602 0.16977736353874207
5.060659408569336 6.495595932006836 0.16908445954322815
5.0361714363098145 6.491907119750977 0.16821491718292236
5.00909423828125 6.485564231872559 0.16727150976657867
4.9863715171813965 6.483912467956543 0.1664631962776184
4.936246395111084 6.47498083114624 0.1647040694952011
4.925758361816406 6.489109039306641 0.16430604457855225
4.870811939239502 6.473151206970215 0.16239064931869507
4.847953796386719 6.470678329467773 0.16158384084701538
4.833327293395996 6.4799580574035645 0.1615564078092575
4.799019813537598 6.4618988037109375 0.16036610305309296
4.7840142250061035 6.469700813293457 0.15982216596603394
4.766664981842041 6.475127220153809 0.159211665391922
4.732644081115723 6.456935405731201 0.15803547203540802
4.713863849639893 6.459383010864258 0.15736651420593262
4.6971516609191895 6.465442657470703 0.15597501397132874
4.682124614715576 6.472964286804199 0.15543359518051147
4.633462905883789 6.462832450866699 0.15374888479709625
4.6045823097229 6.450778007507324 0.15275152027606964
4.580426216125488 6.446012020111084 0.15192537009716034
4.567561626434326 6.456240653991699 0.1514582484960556
4.538416862487793 6.443362236022949 0.1504521369934082
4.520988941192627 6.447833061218262 0.14985127747058868
4.4951581954956055 6.439380645751953 0.14912433922290802
4.475855827331543 6.441001892089844 0.14845913648605347
4.449069976806641 6.430891990661621 0.14785060286521912
4.436811923980713 6.441702842712402 0.14740833640098572
4.414277076721191 6.438385009765625 0.146639883518219
4.392274379730225 6.434885025024414 0.14587591588497162
4.369251728057861 6.429771423339844 0.14508089423179626
4.354403018951416 6.4374589920043945 0.14456892013549805
4.328886032104492 6.428440570831299 0.14369042217731476
4.306745529174805 6.4242963790893555 0.14292596280574799
4.286491394042969 6.423710346221924 0.14223712682724
4.269409656524658 6.4269585609436035 0.14164187014102936
4.241421699523926 6.413664817810059 0.14068396389484406
4.225151538848877 6.418822288513184 0.14013046026229858
4.206350326538086 6.419225692749023 0.13947993516921997
4.186121940612793 6.417662620544434 0.13817554712295532
4.161127090454102 6.408926963806152 0.13733068108558655
4.147219657897949 6.416620254516602 0.13684460520744324
4.127472877502441 6.416092872619629 0.13617917895317078
4.107558727264404 6.4143524169921875 0.13549578189849854
4.083871841430664 6.406599998474121 0.13469022512435913
4.067591667175293 6.411234378814697 0.13413932919502258
4.042669773101807 6.401279449462891 0.13329282402992249
4.024167060852051 6.401367664337158 0.13265779614448547
4.002685070037842 6.397485733032227 0.13194075226783752
3.9860219955444336 6.400353908538818 0.1313667595386505
3.9640896320343018 6.394973278045654 0.13062718510627747
3.946786880493164 6.3972368240356445 0.13004420697689056
3.9243576526641846 6.390521049499512 0.1292841136455536
3.909585475921631 6.396496772766113 0.12877953052520752
3.885958671569824 6.388166427612305 0.12798979878425598
3.86592960357666 6.385044574737549 0.1273130476474762
3.850167751312256 6.3897809982299805 0.1267881691455841
3.828854560852051 6.384344100952148 0.1260668933391571
3.7903542518615723 6.380919456481934 0.12477611005306244
3.768127679824829 6.373587608337402 0.12402690947055817
3.72931170463562 6.369007110595703 0.12257352471351624
3.7126882076263428 6.370901107788086 0.12171820551156998
3.680196762084961 6.376728057861328 0.12063371390104294
6.555345058441162 -12.273567199707031 0.230647474527359
6.584560394287109 -12.265762329101562 0.231612890958786
6.642857551574707 -12.251449584960938 0.2335721254348755
6.746227264404297 -12.257560729980469 0.2379055917263031
6.838266372680664 -12.24196720123291 0.24100148677825928
6.9321675300598145 -12.227716445922852 0.2441510260105133
7.036626815795898 -12.232093811035156 0.24770164489746094
7.138398170471191 -12.229879379272461 0.2511572539806366
7.22953987121582 -12.209077835083008 0.25425541400909424
7.303068161010742 -12.216196060180664 0.2573501765727997
7.338924407958984 -12.217949867248535 0.2585828900337219
7.410447120666504 -12.220136642456055 0.2610306739807129
7.447859764099121 -12.224540710449219 0.2623245418071747
7.541889190673828 -12.205516815185547 0.2658585011959076
7.610730171203613 -12.201712608337402 0.2682286202907562
7.639704704284668 -12.191747665405273 0.26923269033432007
7.7192840576171875 -12.204212188720703 0.27198880910873413
7.754898548126221 -12.204383850097656 0.27323323488235474
7.784890174865723 -12.195600509643555 0.2742809057235718
7.819696426391602 -12.192618370056152 0.275473415851593
7.849160671234131 -12.182849884033203 0.27650606632232666
7.891243934631348 -12.192522048950195 0.2779827415943146
7.922786712646484 -12.184118270874023 0.2790621519088745
7.963930606842041 -12.19195556640625 0.28051185607910156
7.99199104309082 -12.178014755249023 0.2811680734157562
8.030294418334961 -12.181196212768555 0.28251585364341736
8.067644119262695 -12.182759284973145 0.283830463886261
8.104545593261719 -12.181875228881836 0.28510594367980957
8.13306999206543 -12.169910430908203 0.28611481189727783
8.16948413848877 -12.169656753540039 0.2874009907245636
8.206772804260254 -12.168947219848633 0.2886928617954254
8.247936248779297 -12.17540454864502 0.2901514172554016
8.281206130981445 -12.170049667358398 0.29133331775665283
8.320987701416016 -12.172521591186523 0.29271557927131653
8.355125427246094 -12.168182373046875 0.29393067955970764
8.428236961364746 -12.164556503295898 0.29681798815727234
8.461662292480469 -12.158821105957031 0.2980065643787384
8.502251625061035 -12.162195205688477 0.2994379699230194
8.533163070678711 -12.15208625793457 0.3005339503288269
8.574677467346191 -12.15748405456543 0.3020172119140625
8.652563095092773 -12.158872604370117 0.30446261167526245
8.68310832977295 -12.147321701049805 0.30554476380348206
8.759227752685547 -12.146388053894043 0.30826443433761597
8.784451484680176 -12.127215385437012 0.30916208028793335
8.870491027832031 -12.139086723327637 0.3122430741786957
8.972214698791504 -12.117635726928711 0.3158966898918152
9.085196495056152 -12.110285758972168 0.31935587525367737
9.207999229431152 -12.113565444946289 0.3237590789794922
9.308045387268066 -12.086700439453125 0.3277149200439453
9.439579010009766 -12.099384307861328 0.3318576216697693
9.627307891845703 -12.07642936706543 0.3383752107620239
9.669876098632812 -12.077797889709473 0.33992087841033936
9.75504207611084 -12.080065727233887 0.3430321216583252
9.783100128173828 -12.062992095947266 0.34407439827919006
9.836034774780273 -12.075961112976074 0.3459905683994293
9.875164985656738 -12.07275104522705 0.3474413752555847
9.91342544555664 -12.067821502685547 0.34851938486099243
9.945265769958496 -12.05450439453125 0.34906917810440063
9.995985984802246 -12.064889907836914 0.3509257733821869
10.02773666381836 -12.051700592041016 0.352111279964447
10.074312210083008 -12.055719375610352 0.35381007194519043
10.106912612915039 -12.04384994506836 0.3550369143486023
10.159384727478027 -12.05496883392334 0.356953501701355
10.197779655456543 -12.048715591430664 0.3583720326423645
10.236177444458008 -12.042800903320312 0.3594968318939209
10.273414611816406 -12.034929275512695 0.3608757555484772
10.323568344116211 -12.04298210144043 0.3627265691757202
10.357114791870117 -12.030984878540039 0.36398845911026
10.396894454956055 -12.025652885437012 0.36546164751052856
10.444331169128418 -12.029972076416016 0.3672228455543518
10.520214080810547 -12.014787673950195 0.36908483505249023
10.56602954864502 -12.016197204589844 0.3707835078239441
10.600080490112305 -12.004594802856445 0.3720807731151581
10.639877319335938 -11.998416900634766 0.3735678195953369
10.6851806640625 -11.998741149902344 0.3752548396587372
10.718971252441406 -11.985544204711914 0.3765302300453186
10.769845008850098 -11.992253303527832 0.3784281015396118
10.816195487976074 -11.99319839477539 0.3798213601112366
10.852388381958008 -11.982271194458008 0.3805387616157532
10.912801742553711 -11.998834609985352 0.38277506828308105
10.939207077026367 -11.97733211517334 0.38380926847457886
10.994653701782227 -11.98702335357666 0.3858587145805359
11.032591819763184 -11.978389739990234 0.3873124122619629
11.081700325012207 -11.980247497558594 0.3891333341598511
11.115520477294922 -11.966896057128906 0.39010149240493774
11.212348937988281 -11.969650268554688 0.3930731415748596
11.253215789794922 -11.963420867919922 0.39532774686813354
11.335821151733398 -11.949996948242188 0.3984716236591339
11.388994216918945 -11.956259727478027 0.39946553111076355
11.478475570678711 -11.949028968811035 0.4028594195842743
11.520580291748047 -11.943150520324707 0.40448081493377686
11.565217018127441 -11.938282012939453 0.4061654210090637
11.620489120483398 -11.945631980895996 0.4082536995410919
11.647659301757812 -11.923954010009766 0.4090051054954529
11.749307632446289 -11.927109718322754 0.41218167543411255
11.839847564697266 -11.918205261230469 0.41564518213272095
11.88326644897461 -11.912364959716797 0.41697558760643005
11.93785285949707 -11.916067123413086 0.4190276861190796
11.977039337158203 -11.905664443969727 0.41988834738731384
12.019857406616211 -11.898738861083984 0.42155686020851135
12.067899703979492 -11.895362854003906 0.42338329553604126
12.11705207824707 -11.89433765411377 0.42527878284454346
12.1608247756958 -11.887354850769043 0.426622211933136
12.206605911254883 -11.881719589233398 0.4277011752128601
12.267534255981445 -11.891546249389648 0.43001502752304077
12.302718162536621 -11.874780654907227 0.43140092492103577
12.343057632446289 -11.864338874816895 0.43335622549057007
12.406618118286133 -11.875999450683594 0.4357717037200928
12.446531295776367 -11.863356590270996 0.4373331069946289
12.495016098022461 -11.86018180847168 0.4381709396839142
12.554097175598145 -11.866833686828613 0.440432608127594
12.588183403015137 -11.848237991333008 0.4417960047721863
12.634960174560547 -11.842913627624512 0.443631649017334
12.682195663452148 -11.837346076965332 0.4454759657382965
12.749454498291016 -11.849760055541992 0.44695788621902466
12.788053512573242 -11.83626937866211 0.44851431250572205
12.834861755371094 -11.828784942626953 0.4503328204154968
12.882798194885254 -11.823616981506348 0.4522207975387573
12.935920715332031 -11.823009490966797 0.4539250433444977
12.986343383789062 -11.818277359008789 0.45517784357070923
13.036903381347656 -11.814923286437988 0.45716390013694763
13.090373992919922 -11.81399917602539 0.45925474166870117
13.1534423828125 -11.820030212402344 0.4616609811782837
13.191893577575684 -11.805192947387695 0.4628588557243347
13.244491577148438 -11.80190658569336 0.46419987082481384
13.290216445922852 -11.792764663696289 0.4660208225250244
13.344520568847656 -11.791545867919922 0.46815311908721924
13.401288986206055 -11.790822982788086 0.4699752628803253
13.443010330200195 -11.778129577636719 0.4709555208683014
13.499738693237305 -11.778401374816895 0.473899245262146
13.543991088867188 -11.766148567199707 0.4760410189628601
13.600728988647461 -11.766000747680664 0.4775540828704834
13.661197662353516 -11.767882347106934 0.4799037575721741
13.704302787780762 -11.755060195922852 0.48165398836135864
13.76291561126709 -11.755850791931152 0.48358064889907837
13.809298515319824 -11.744539260864258 0.48543450236320496
13.871777534484863 -11.74815559387207 0.4871554672718048
13.914459228515625 -11.734804153442383 0.4889095723628998
13.968698501586914 -11.729574203491211 0.49066442251205444
14.029912948608398 -11.73141860961914 0.4930764436721802
14.137998580932617 -11.72098159790039 0.49625658988952637
14.196250915527344 -11.719650268554688 0.49857109785079956
14.299379348754883 -11.703876495361328 0.5019752979278564
14.355003356933594 -11.69974136352539 0.5038150548934937
14.420005798339844 -11.701541900634766 0.5063530206680298
14.478588104248047 -11.699333190917969 0.507947564125061
14.576173782348633 -11.67706298828125 0.5115299224853516
14.635114669799805 -11.674500465393066 0.5138906836509705
14.758499145507812 -11.67155933380127 0.5180379152297974
14.807412147521973 -11.660378456115723 0.5208117961883545
14.932573318481445 -11.657389640808105 0.5250376462936401
14.979430198669434 -11.643057823181152 0.526976466178894
15.047389030456543 -11.645364761352539 0.529268205165863
15.098058700561523 -11.634562492370605 0.5313642621040344
15.167074203491211 -11.636693954467773 0.5333278775215149
15.219329833984375 -11.62618637084961 0.5350748300552368
15.279903411865234 -11.622326850891113 0.5375276803970337
15.345205307006836 -11.620333671569824 0.5393558144569397
15.401126861572266 -11.612472534179688 0.54165118932724
15.460468292236328 -11.606001853942871 0.5436488389968872
15.506967544555664 -11.590166091918945 0.544834315776825
15.639728546142578 -11.587562561035156 0.5497570037841797
15.708925247192383 -11.587905883789062 0.5525246858596802
15.764573097229004 -11.578516006469727 0.554049015045166
15.82761001586914 -11.573354721069336 0.5561889410018921
15.884408950805664 -11.563864707946777 0.5585325956344604
15.966262817382812 -11.571863174438477 0.5609608292579651
16.017820358276367 -11.558095932006836 0.5627108812332153
16.071392059326172 -11.546110153198242 0.5649616718292236
16.126264572143555 -11.533893585205078 0.5664475560188293
16.211978912353516 -11.543907165527344 0.5694060325622559
16.265989303588867 -11.531570434570312 0.5736960768699646
16.320449829101562 -11.518386840820312 0.5751746892929077
16.39227867126465 -11.517680168151855 0.5776563882827759
16.466405868530273 -11.517815589904785 0.5806366205215454
16.516101837158203 -11.501605033874512 0.5815476179122925
16.583293914794922 -11.496854782104492 0.5842950344085693
16.645706176757812 -11.488066673278809 0.5868721008300781
16.718320846557617 -11.486520767211914 0.5885833501815796
16.770252227783203 -11.47104263305664 0.5908122062683105
16.84450340270996 -11.469606399536133 0.5938177108764648
16.899322509765625 -11.455158233642578 0.5948999524116516
17.033721923828125 -11.441862106323242 0.6004366278648376
17.115222930908203 -11.445135116577148 0.602471649646759
17.242544174194336 -11.425483703613281 0.6069517731666565
17.316207885742188 -11.422653198242188 0.6095420718193054
17.444202423095703 -11.401945114135742 0.6136244535446167
17.660118103027344 -11.385265350341797 0.621256947517395
17.798099517822266 -11.368398666381836 0.6261547207832336
17.87225914001465 -11.362611770629883 0.6309067010879517
18.00571060180664 -11.342265129089355 0.6352437138557434
18.08766746520996 -11.340521812438965 0.6385915279388428
18.23701286315918 -11.328455924987793 0.6435009241104126
18.3062801361084 -11.317889213562012 0.6464155912399292
18.385448455810547 -11.313634872436523 0.6492369771003723
18.459909439086914 -11.305691719055176 0.6514749526977539
18.532377243041992 -11.297256469726562 0.6540747880935669
18.606054306030273 -11.288743019104004 0.6562944650650024
18.681827545166016 -11.280723571777344 0.6589979529380798
18.753644943237305 -11.270511627197266 0.6620346307754517
18.831918716430664 -11.264425277709961 0.6644332408905029
18.9127197265625 -11.258506774902344 0.6673212051391602
18.997634887695312 -11.255189895629883 0.6699495315551758
19.064027786254883 -11.240111351013184 0.6723368763923645
19.139251708984375 -11.231005668640137 0.6746329069137573
19.21013832092285 -11.218533515930176 0.6776620149612427
19.298831939697266 -11.215653419494629 0.6808469295501709
19.370222091674805 -11.2034330368042 0.6830135583877563
19.449159622192383 -11.19371223449707 0.6858526468276978
19.534469604492188 -11.188909530639648 0.6885099411010742
19.61975860595703 -11.183207511901855 0.6915969848632812
19.685104370117188 -11.165353775024414 0.6953532695770264
19.785764694213867 -11.168243408203125 0.6994801759719849
19.86675262451172 -11.159109115600586 0.7019926905632019
19.943601608276367 -11.146844863891602 0.7047895789146423
20.019020080566406 -11.134540557861328 0.7080331444740295
20.109203338623047 -11.129571914672852 0.7103962302207947
20.182035446166992 -11.114179611206055 0.7135463356971741
20.269351959228516 -11.106954574584961 0.7158069610595703
20.529220581054688 -11.082117080688477 0.7253627777099609
20.6962890625 -11.05999755859375 0.7310444116592407
20.79316520690918 -11.056357383728027 0.7350927591323853
20.956283569335938 -11.030134201049805 0.7406587600708008
21.240617752075195 -11.008748054504395 0.7496961355209351
21.49772834777832 -10.971108436584473 0.7592677474021912
21.683887481689453 -10.952343940734863 0.7657041549682617
21.785295486450195 -10.945789337158203 0.7709360122680664
21.959299087524414 -10.917633056640625 0.7769566774368286
22.061534881591797 -10.911422729492188 0.7797720432281494
22.161527633666992 -10.903696060180664 0.7840183973312378
22.23855972290039 -10.882652282714844 0.7859153747558594
22.33793830871582 -10.873886108398438 0.7901458740234375
22.44256591796875 -10.86668586730957 0.7930406928062439
22.641468048095703 -10.846108436584473 0.7999908924102783
22.716148376464844 -10.822281837463379 0.8033437728881836
22.837865829467773 -10.82217788696289 0.8068541288375854
22.928672790527344 -10.80640983581543 0.8108077049255371
23.146751403808594 -10.790884971618652 0.8184753060340881
23.237247467041016 -10.772705078125 0.8208581209182739
23.33609962463379 -10.759754180908203 0.8251314163208008
23.44045639038086 -10.748941421508789 0.8280326128005981
23.547821044921875 -10.737353324890137 0.8310109376907349
23.65308380126953 -10.726118087768555 0.8355257511138916
23.752891540527344 -10.711404800415039 0.8382568359375
23.852977752685547 -10.695880889892578 0.8425804972648621
23.954925537109375 -10.681943893432617 0.8453984260559082
24.166587829589844 -10.65454387664795 0.853950023651123
24.282642364501953 -10.645578384399414 0.8578265905380249
24.487937927246094 -10.6128568649292 0.8651224374771118
24.611000061035156 -10.605579376220703 0.86869215965271
24.841705322265625 -10.58117389678955 0.8768991231918335
25.51386260986328 -10.488661766052246 0.9009382724761963
25.883821487426758 -10.451016426086426 0.9133702516555786
26.22635269165039 -10.398046493530273 0.9259848594665527
26.87574005126953 -10.33035945892334 0.9485543966293335
26.985145568847656 -10.308191299438477 0.9522674679756165
27.108699798583984 -10.289731979370117 0.9564641714096069
27.232515335083008 -10.271472930908203 0.9600690603256226
27.364397048950195 -10.256401062011719 0.9651367664337158
27.491512298583984 -10.237119674682617 0.9694668054580688
27.613712310791016 -10.217424392700195 0.974205493927002
27.74468231201172 -10.199214935302734 0.9780672788619995
27.870502471923828 -10.179203033447266 0.9823683500289917
28.001907348632812 -10.161384582519531 0.9874497056007385
28.15380859375 -10.148496627807617 0.9926639795303345
28.270591735839844 -10.124351501464844 0.9960428476333618
28.699207305908203 -10.074743270874023 1.0119737386703491
28.953327178955078 -10.027192115783691 1.020075798034668
29.093387603759766 -10.00813102722168 1.025510549545288
29.368831634521484 -9.964761734008789 1.034382700920105
29.792444229125977 -9.900078773498535 1.0490080118179321
31.146778106689453 -9.699737548828125 1.0953938961029053
31.60808563232422 -9.625840187072754 1.1114836931228638
32.086463928222656 -9.551519393920898 1.1282203197479248
32.412967681884766 -9.500298500061035 1.139636516571045
32.58268737792969 -9.476664543151855 1.1456239223480225
32.89478302001953 -9.417366027832031 1.1565654277801514
33.071006774902344 -9.392176628112793 1.1627802848815918
33.39854049682617 -9.334818840026855 1.1743093729019165
33.58024978637695 -9.30907154083252 1.1800024509429932
33.739253997802734 -9.277036666870117 1.1856379508972168
33.939571380615234 -9.256402015686035 1.1920000314712524
34.09674835205078 -9.221826553344727 1.1961596012115479
34.27894592285156 -9.194036483764648 1.2040398120880127
34.451107025146484 -9.162141799926758 1.2094039916992188
34.609642028808594 -9.126667022705078 1.2142934799194336
34.81585693359375 -9.103815078735352 1.2208648920059204
35.007537841796875 -9.07486629486084 1.2291209697723389
35.16633224487305 -9.037405014038086 1.2340269088745117
20.26274871826172 -5.116907596588135 0.7102867960929871
20.21933364868164 -5.060883522033691 0.7096619009971619
39.34807586669922 -8.283116340637207 1.376529335975647
40.00164031982422 -8.156752586364746 1.3991976976394653
40.44375228881836 -8.071332931518555 1.4143378734588623
40.677330017089844 -8.028514862060547 1.4219088554382324
41.13094711303711 -7.938226699829102 1.4382643699645996
41.36790084838867 -7.894949436187744 1.4459741115570068
41.60295486450195 -7.849462032318115 1.453611969947815
41.81955337524414 -7.798757553100586 1.4614932537078857
42.072933197021484 -7.755697727203369 1.4697831869125366
42.30341339111328 -7.706531524658203 1.4789917469024658
42.54402160644531 -7.6574201583862305 1.4868342876434326
42.79265594482422 -7.609601020812988 1.4949617385864258
43.27442932128906 -7.508337020874023 1.5116031169891357
44.045650482177734 -7.357221603393555 1.5386872291564941
44.819664001464844 -7.196218490600586 1.5641957521438599
50.784507751464844 -5.870898246765137 1.7678570747375488
51.71818542480469 -5.649591445922852 1.7980921268463135
52.02231979370117 -5.573594093322754 1.8103582859039307
52.679290771484375 -5.419681072235107 1.8335248231887817
53.01277160644531 -5.34283447265625 1.8447376489639282
53.336822509765625 -5.2604241371154785 1.8556230068206787
53.65983581542969 -5.179867267608643 1.8664829730987549
54.33083724975586 -5.013787269592285 1.8890682458877563
54.66049575805664 -4.929834365844727 1.9001715183258057
55.683013916015625 -4.669346332550049 1.9346604347229004
57.57365798950195 -1.9147751331329346 1.9992430210113525
57.063514709472656 -1.5387476682662964 1.981156826019287
56.5611457824707 -1.1694183349609375 1.963418960571289
56.18275451660156 -0.9249047040939331 1.9501334428787231
55.99684524536133 -0.8056074976921082 1.9436089992523193
55.611488342285156 -0.5658297538757324 1.934575080871582
55.0799560546875 -0.21413514018058777 1.9138039350509644
70.95892333984375 0.018631726503372192 3.0439350605010986
70.43502807617188 0.3151223659515381 3.0199971199035645
70.12738800048828 0.4592786729335785 3.006840705871582
69.76579284667969 0.7507580518722534 2.9914278984069824
61.615509033203125 4.552338600158691 2.6476891040802
61.03665542602539 4.895565986633301 2.622781991958618
60.460140228271484 5.232058525085449 2.5969510078430176
60.096893310546875 5.4557061195373535 2.5810296535491943
59.59408187866211 5.788015365600586 2.560945987701416
55.87554168701172 8.04648208618164 2.405251979827881
55.37950134277344 8.330742835998535 2.382680892944336
54.8961181640625 8.611288070678711 2.3619511127471924
54.54979705810547 8.792505264282227 2.347447156906128
54.39600372314453 8.883570671081543 2.3416175842285156
54.07551193237305 9.065199851989746 2.3272573947906494
53.585269927978516 9.329724311828613 2.3118178844451904
53.12939453125 9.59486198425293 2.2914071083068848
41.81066131591797 9.749276161193848 1.8063884973526
40.31846618652344 9.668973922729492 1.7419743537902832
