VERSION .7
FIELDS x y z
SIZE 4 4 4
TYPE F F F
COUNT 1 1 1
WIDTH 861
HEIGHT 1
VIEWPOINT 0 0 0 1 0 0 0
POINTS 861
DATA ascii
8.645831108093262 7.8744893074035645 0.24134668707847595
8.571738243103027 7.873305797576904 0.23949137330055237
8.535443305969238 7.873129367828369 0.2386133074760437
8.460142135620117 7.8694305419921875 0.23742756247520447
8.420270919799805 7.865440368652344 0.23644839227199554
8.226543426513672 7.847804069519043 0.23192176222801208
8.140925407409668 7.864473342895508 0.22983139753341675
8.066361427307129 7.858384132385254 0.227970689535141
8.025477409362793 7.851081848144531 0.22696104645729065
7.95503044128418 7.847999572753906 0.22521966695785522
7.912736892700195 7.839261531829834 0.22448985278606415
7.855574607849121 7.847942352294922 0.22312000393867493
7.821662425994873 7.847080230712891 0.2222587764263153
7.747771263122559 7.838698387145996 0.2204219400882721
7.725435256958008 7.848610877990723 0.21994200348854065
7.68223762512207 7.837628364562988 0.2188175469636917
7.66005802154541 7.848029136657715 0.21834900975227356
7.608020782470703 7.827144622802734 0.2169671654701233
7.592103004455566 7.84370756149292 0.21667827665805817
7.544591903686523 7.827577590942383 0.21543239057064056
7.529572010040283 7.844508647918701 0.21516378223896027
7.478855609893799 7.824545860290527 0.21418318152427673
7.454163551330566 7.831701755523682 0.2132900208234787
7.419192314147949 7.8278608322143555 0.21275824308395386
7.3875579833984375 7.8274688720703125 0.2116682082414627
7.348974227905273 7.819030284881592 0.2110271155834198
7.332975387573242 7.834963798522949 0.21038445830345154
7.28607702255249 7.817825794219971 0.20951130986213684
7.268444061279297 7.831428050994873 0.20881947875022888
7.220660209655762 7.812832832336426 0.20791825652122498
7.198792457580566 7.822192668914795 0.2074110358953476
7.164358139038086 7.8177103996276855 0.2065957486629486
7.135406017303467 7.818630218505859 0.20587781071662903
7.096826553344727 7.809358596801758 0.20494353771209717
7.07573938369751 7.819131851196289 0.20446017384529114
7.032234191894531 7.803544998168945 0.20337742567062378
7.019741058349609 7.822781562805176 0.20314517617225647
6.980230331420898 7.811742305755615 0.20218247175216675
6.95113468170166 7.812265396118164 0.20147095620632172
6.9206342697143555 7.811006546020508 0.2007705569267273
6.886526107788086 7.805081367492676 0.19927211105823517
6.831035614013672 7.808228492736816 0.19798123836517334
6.738531112670898 7.800912380218506 0.19608846306800842
6.656098365783691 7.80412483215332 0.19386258721351624
6.590092658996582 7.792969226837158 0.19227007031440735
6.567364692687988 7.798859596252441 0.1920803338289261
6.513956069946289 7.801887512207031 0.19085541367530823
6.450043678283691 7.791805267333984 0.18932506442070007
6.432942867279053 7.804060935974121 0.18901515007019043
6.362494468688965 7.785167217254639 0.18729519844055176
6.334194183349609 7.783447265625 0.18660318851470947
6.311441421508789 7.788973808288574 0.18613511323928833
6.279602527618408 7.783089637756348 0.18534883856773376
6.257122993469238 7.788244247436523 0.18516215682029724
6.226387023925781 7.783538818359375 0.18412819504737854
6.195766448974609 7.778741836547852 0.18249216675758362
6.174722671508789 7.7854204177856445 0.1820194572210312
6.147944450378418 7.785760879516602 0.18144074082374573
6.119002819061279 7.782259941101074 0.1807360053062439
6.095677375793457 7.786323070526123 0.1802562177181244
6.059109687805176 7.7732391357421875 0.1793314516544342
6.041561126708984 7.783986568450928 0.1790144145488739
6.004123687744141 7.769515037536621 0.17806470394134521
5.975397109985352 7.766044616699219 0.17742285132408142
5.951956748962402 7.769416809082031 0.17688904702663422
5.925890922546387 7.769184589385986 0.17632557451725006
5.905146598815918 7.775396347045898 0.17586517333984375
5.87796688079834 7.7735795974731445 0.17554378509521484
5.8418779373168945 7.759722709655762 0.17436018586158752
5.823457717895508 7.7687530517578125 0.17429086565971375
5.786319255828857 7.753213882446289 0.1730777472257614
5.770309925079346 7.76578426361084 0.17308646440505981
5.740726947784424 7.759554862976074 0.17209279537200928
5.71622371673584 7.761054992675781 0.17185500264167786
5.688997268676758 7.757752895355225 0.1709323227405548
5.666360378265381 7.761143207550049 0.17074425518512726
5.637187957763672 7.755383014678955 0.169770285487175
5.61865758895874 7.763715744018555 0.1696975976228714
5.593264579772949 7.763033866882324 0.16884011030197144
5.570467948913574 7.765779495239258 0.16742905974388123
5.539925575256348 7.757137298583984 0.16672757267951965
5.517604827880859 7.760425567626953 0.1662331372499466
5.482095718383789 7.744922161102295 0.16538861393928528
5.463950157165527 7.753355979919434 0.16501212120056152
5.437960624694824 7.751591682434082 0.16446208953857422
5.411171913146973 7.747553825378418 0.16382518410682678
5.386350154876709 7.746207237243652 0.16329610347747803
5.371594429016113 7.76030158996582 0.1630387306213379
5.338990211486816 7.7475056648254395 0.16227379441261292
5.2884368896484375 7.743743896484375 0.1611543595790863
5.266461372375488 7.746031761169434 0.16066431999206543
5.235280990600586 7.735660552978516 0.15995526313781738
5.224266052246094 7.754001617431641 0.15980102121829987
5.1706414222717285 7.744596481323242 0.1585884690284729
5.1429572105407715 7.737854957580566 0.1579715460538864
5.1261305809021 7.748392581939697 0.1576555371284485
5.097187042236328 7.739498138427734 0.15700000524520874
5.07486629486084 7.740528106689453 0.15650050342082977
5.048106670379639 7.735701084136963 0.1559264063835144
5.025167465209961 7.735577583312988 0.15540796518325806
4.997026443481445 7.727313041687012 0.15477576851844788
4.980640411376953 7.738175392150879 0.15335187315940857
4.954968452453613 7.733508110046387 0.15305525064468384
4.940677642822266 7.746544361114502 0.15280592441558838
4.90557336807251 7.72786808013916 0.1519746035337448
4.890212059020996 7.7391180992126465 0.1516929417848587
4.861650466918945 7.730437278747559 0.15106357634067535
4.836636543273926 7.726194381713867 0.15048283338546753
4.8155198097229 7.728073596954346 0.15006960928440094
4.794613838195801 7.731270790100098 0.1496313214302063
4.771768569946289 7.7302021980285645 0.14916476607322693
4.751638889312744 7.733450889587402 0.1487363874912262
4.723125457763672 7.723989963531494 0.14810699224472046
4.6998443603515625 7.721874237060547 0.1475798487663269
4.68218994140625 7.728938102722168 0.14727629721164703
4.657870292663574 7.725987434387207 0.14673170447349548
4.636197090148926 7.726253509521484 0.14630167186260223
4.607726097106934 7.716118812561035 0.14562571048736572
4.590205192565918 7.723143577575684 0.1453269124031067
4.565692901611328 7.718324184417725 0.14476081728935242
4.538647651672363 7.71014404296875 0.14417517185211182
4.519672870635986 7.714485168457031 0.1437848061323166
4.501474380493164 7.721192359924316 0.1434803307056427
4.482052803039551 7.724676609039307 0.14307650923728943
4.45635986328125 7.717244625091553 0.14251798391342163
4.439396858215332 7.725934028625488 0.14166408777236938
4.409616947174072 7.711106777191162 0.1406819373369217
4.391074180603027 7.715792655944824 0.14060074090957642
4.362839698791504 7.70442008972168 0.139682799577713
4.346244812011719 7.712398529052734 0.1396636664867401
4.322561740875244 7.707726001739502 0.13887682557106018
4.304213047027588 7.713584899902344 0.13881655037403107
4.280353546142578 7.708375930786133 0.13802409172058105
4.2586870193481445 7.707507133483887 0.13784798979759216
4.239051818847656 7.710326671600342 0.13720089197158813
4.216018199920654 7.706268310546875 0.13697317242622375
4.192885398864746 7.703019142150879 0.13622026145458221
4.174742221832275 7.707736968994141 0.13614992797374725
4.139570236206055 7.680818557739258 0.13499052822589874
58.386390686035156 -4.774941921234131 1.5392779111862183
59.574737548828125 -4.242951393127441 1.5692096948623657
76.68310546875 0.5126323699951172 1.763380765914917
75.24070739746094 0.6591179370880127 1.730096459388733
73.7924575805664 0.8017319440841675 1.696845293045044
70.32693481445312 1.0582468509674072 1.6171681880950928
59.71791076660156 2.029264450073242 1.3703968524932861
58.287017822265625 2.1017496585845947 1.3376784324645996
55.80015563964844 2.3634212017059326 1.2773635387420654
55.173805236816406 2.4531853199005127 1.261344075202942
54.419151306152344 2.5345616340637207 1.2442045211791992
53.846763610839844 2.6214447021484375 1.2312631607055664
53.25014114379883 2.703176975250244 1.217751383781433
52.1162109375 2.8657121658325195 1.190602421760559
51.60026550292969 2.946442127227783 1.1789517402648926
51.17366027832031 3.0286359786987305 1.1693412065505981
50.244056701660156 3.1860146522521973 1.1467633247375488
49.76818084716797 3.259547710418701 1.1360583305358887
48.48802947998047 3.483356237411499 1.1059437990188599
47.251319885253906 3.69323468208313 1.0767040252685547
46.60374450683594 3.8401527404785156 1.062309980392456
45.59848403930664 4.046079158782959 1.039958119392395
44.562217712402344 4.236641883850098 1.0110585689544678
43.893882751464844 4.35970401763916 0.9950491189956665
43.538578033447266 4.415675163269043 0.9871994256973267
43.222991943359375 4.475732326507568 0.9788377285003662
42.992889404296875 4.543334484100342 0.9738410711288452
42.609745025634766 4.59368371963501 0.9653794765472412
42.123382568359375 4.719400405883789 0.953597903251648
41.53296661376953 4.8304443359375 0.9406836628913879
41.2877082824707 4.890149116516113 0.9339996576309204
40.990360260009766 4.94120979309082 0.9275030493736267
40.78675079345703 5.003729820251465 0.9231321215629578
40.54551315307617 5.060909748077393 0.916753888130188
40.32794952392578 5.11992883682251 0.9120773673057556
40.10093688964844 5.17568826675415 0.9071835279464722
39.8686637878418 5.231173038482666 0.9008594751358032
39.65510940551758 5.288026809692383 0.8962833881378174
39.437068939208984 5.343585968017578 0.891607940196991
39.20811462402344 5.395445346832275 0.8855642080307007
38.992828369140625 5.449416637420654 0.8820714950561523
38.789161682128906 5.5043416023254395 0.8712987303733826
38.568336486816406 5.555789947509766 0.8665968179702759
38.377037048339844 5.609550952911377 0.8614639043807983
38.205322265625 5.666731834411621 0.8578814268112183
37.996673583984375 5.717494010925293 0.8534602522850037
37.80813980102539 5.770654201507568 0.8482397198677063
37.61274719238281 5.8207292556762695 0.8441236615180969
37.43812561035156 5.874366760253906 0.8394119739532471
37.26554870605469 5.927803993225098 0.8358224630355835
37.052642822265625 5.972799777984619 0.8313230276107788
36.88096618652344 6.024746417999268 0.8277515769004822
36.51898956298828 6.123625755310059 0.8179392218589783
35.96613311767578 6.263632297515869 0.8064205646514893
35.63685989379883 6.361036777496338 0.7974172830581665
35.465423583984375 6.406406402587891 0.7938772439956665
35.01573181152344 6.477569580078125 0.783254861831665
34.163330078125 6.542266845703125 0.7641111612319946
33.612056732177734 6.583563804626465 0.7479035258293152
33.330543518066406 6.600274562835693 0.7408351898193359
32.80306625366211 6.6395063400268555 0.7287704944610596
32.51460266113281 6.6524977684021 0.7226724624633789
32.240272521972656 6.666105270385742 0.7157987952232361
32.005348205566406 6.687762260437012 0.7108910083770752
31.762128829956055 6.706847190856934 0.7048889398574829
31.52399444580078 6.725860118865967 0.699907660484314
31.29261016845703 6.744417190551758 0.6950857043266296
31.05337142944336 6.761385917663574 0.6890429258346558
30.817380905151367 6.77793025970459 0.6832208633422852
30.583911895751953 6.79420280456543 0.6783655881881714
30.37355613708496 6.814545154571533 0.6740161776542664
30.15543556213379 6.831366539001465 0.6684722900390625
29.931175231933594 6.846928596496582 0.6629487872123718
29.74407196044922 6.869997501373291 0.6591253280639648
29.524311065673828 6.883807182312012 0.6545730829238892
29.286773681640625 6.893548965454102 0.6486363410949707
29.06761360168457 6.906523704528809 0.6432570219039917
28.88309097290039 6.927036285400391 0.6394989490509033
28.68146514892578 6.941654205322266 0.6353505849838257
28.485233306884766 6.957620620727539 0.6305009126663208
28.273990631103516 6.969213485717773 0.6232824325561523
28.077484130859375 6.983456134796143 0.619265615940094
27.89269256591797 6.998990058898926 0.6155117750167847
27.718536376953125 7.01743221282959 0.6111886501312256
27.489131927490234 7.020914077758789 0.6055222749710083
27.298873901367188 7.033655643463135 0.6016566157341003
27.128562927246094 7.049839973449707 0.5982208251953125
26.92681121826172 7.057907581329346 0.593315601348877
26.538593292236328 7.075727462768555 0.5845128297805786
26.35002899169922 7.084053039550781 0.5806853771209717
25.959096908569336 7.096312522888184 0.571079671382904
25.607309341430664 7.116183280944824 0.563996434211731
25.435300827026367 7.125275135040283 0.5597866773605347
25.08015251159668 7.139833450317383 0.5517745018005371
24.903514862060547 7.145449638366699 0.5474851727485657
24.540451049804688 7.153271675109863 0.539319634437561
24.212268829345703 7.168378829956055 0.5320529937744141
24.05306053161621 7.175567150115967 0.5280581116676331
23.72315216064453 7.186084747314453 0.5214725732803345
23.55663299560547 7.189046859741211 0.5174406170845032
23.402864456176758 7.196082592010498 0.5143939256668091
23.24927520751953 7.202418327331543 0.5105533003807068
23.093503952026367 7.206717491149902 0.5067739486694336
22.916046142578125 7.204385280609131 0.5032141208648682
22.765241622924805 7.209627628326416 0.4994460940361023
22.616443634033203 7.214996337890625 0.49584800004959106
22.496604919433594 7.228937149047852 0.49354809522628784
22.352148056030273 7.233726501464844 0.4907081723213196
22.211231231689453 7.2398834228515625 0.4871804714202881
22.043201446533203 7.236440658569336 0.4831695556640625
21.91049575805664 7.244075775146484 0.48059943318367004
21.776473999023438 7.250613212585449 0.4772334694862366
21.63695526123047 7.254072189331055 0.473859965801239
21.50762367248535 7.261183261871338 0.4713605046272278
21.37603759765625 7.266880989074707 0.46807143092155457
21.230316162109375 7.2665252685546875 0.46457332372665405
21.100379943847656 7.271780014038086 0.46206629276275635
20.976945877075195 7.278639793395996 0.4589686989784241
20.846057891845703 7.282494068145752 0.45581895112991333
20.721284866333008 7.287845611572266 0.45342230796813965
20.592967987060547 7.290771484375 0.4509463310241699
20.468643188476562 7.295349597930908 0.44927066564559937
20.35130500793457 7.3018083572387695 0.44642072916030884
20.2179012298584 7.301337242126465 0.4438237249851227
20.10999298095703 7.31032657623291 0.4410877823829651
20.00238800048828 7.318878173828125 0.43846529722213745
19.86752700805664 7.316317558288574 0.4358411133289337
19.76129913330078 7.324542045593262 0.4331546723842621
19.649169921875 7.330025672912598 0.43044060468673706
19.41805076599121 7.337113380432129 0.4253696799278259
19.305145263671875 7.340269088745117 0.4226474165916443
19.08732032775879 7.349601745605469 0.417876660823822
18.873191833496094 7.35856819152832 0.41262704133987427
18.76662826538086 7.361920356750488 0.41006147861480713
18.55296516418457 7.368410110473633 0.4060676395893097
18.439956665039062 7.367868423461914 0.40271812677383423
18.237751007080078 7.376294136047363 0.3983306288719177
18.142934799194336 7.381792068481445 0.3960406184196472
18.04693603515625 7.3877058029174805 0.394287645816803
17.940654754638672 7.387705326080322 0.39166295528411865
17.85137939453125 7.39499568939209 0.3925940990447998
17.756267547607422 7.399388313293457 0.3903016746044159
17.65536117553711 7.40037727355957 0.38779041171073914
17.554908752441406 7.401819705963135 0.3859260082244873
17.47100830078125 7.409762859344482 0.3838876187801361
17.381168365478516 7.414255142211914 0.3816285729408264
17.291044235229492 7.418933868408203 0.37999242544174194
17.194721221923828 7.420468807220459 0.37769266963005066
17.090229034423828 7.418150901794434 0.3751250207424164
16.998794555664062 7.420992851257324 0.37293916940689087
16.90876007080078 7.423501014709473 0.3706948161125183
16.8250732421875 7.429103851318359 0.3692020773887634
16.72014808654785 7.424839019775391 0.36672598123550415
16.62990379333496 7.4267730712890625 0.36449134349823
16.537342071533203 7.427196979522705 0.3628033995628357
16.475906372070312 7.44072961807251 0.3612847924232483
16.381134033203125 7.439544677734375 0.35895803570747375
16.293283462524414 7.44102668762207 0.356872022151947
16.201183319091797 7.43963623046875 0.3546030521392822
16.127477645874023 7.44699764251709 0.3533332943916321
16.027170181274414 7.441617965698242 0.35098135471343994
15.956984519958496 7.449321269989014 0.3491996228694916
15.861227989196777 7.445928573608398 0.3469601273536682
15.79578971862793 7.455250263214111 0.34635844826698303
15.696464538574219 7.4488725662231445 0.3462379276752472
15.622342109680176 7.453995704650879 0.34446102380752563
15.545351028442383 7.456904411315918 0.34310388565063477
15.453656196594238 7.453034400939941 0.3403785228729248
15.383142471313477 7.458948612213135 0.3391702175140381
15.305286407470703 7.460465908050537 0.3372332453727722
15.229835510253906 7.46346378326416 0.33543992042541504
15.151945114135742 7.4648566246032715 0.33406949043273926
15.003998756408691 7.470657825469971 0.330474853515625
14.92667007446289 7.47084903717041 0.3285626471042633
14.784728050231934 7.477834701538086 0.32566261291503906
14.62171745300293 7.4728827476501465 0.32175973057746887
14.560541152954102 7.479765892028809 0.32021600008010864
14.437847137451172 7.493753910064697 0.3172152042388916
14.36001205444336 7.49122428894043 0.31539028882980347
14.208845138549805 7.488656997680664 0.31223076581954956
14.145294189453125 7.492712020874023 0.3107254207134247
14.008516311645508 7.495979309082031 0.307888001203537
13.93402099609375 7.493945598602295 0.3086831867694855
13.875313758850098 7.500039100646973 0.3072872459888458
13.791877746582031 7.491965293884277 0.3052675127983093
13.734746932983398 7.498472213745117 0.30435144901275635
13.660506248474121 7.495279312133789 0.3021034002304077
13.603584289550781 7.500817775726318 0.3011888861656189
13.531471252441406 7.498297691345215 0.2995050549507141
13.466573715209961 7.4994001388549805 0.29790985584259033
13.395410537719727 7.496811866760254 0.2962532937526703
13.358171463012695 7.512909889221191 0.29527348279953003
13.280712127685547 7.5056657791137695 0.2939049005508423
13.220693588256836 7.5085625648498535 0.2919977903366089
13.16085433959961 7.511231422424316 0.29102498292922974
13.105363845825195 7.516232967376709 0.28972309827804565
13.027520179748535 7.508045196533203 0.28785473108291626
12.975275039672852 7.513847351074219 0.2866237759590149
12.915849685668945 7.515839099884033 0.28516677021980286
12.868303298950195 7.524446487426758 0.28404805064201355
12.773961067199707 7.504897117614746 0.2818201184272766
12.728157043457031 7.514126777648926 0.28115755319595337
12.66183853149414 7.510931968688965 0.2791432738304138
12.617300033569336 7.519952297210693 0.2785044312477112
12.552345275878906 7.517147064208984 0.27700793743133545
12.491634368896484 7.516529560089111 0.2759455442428589
12.437310218811035 7.519600868225098 0.27653348445892334
12.379661560058594 7.5203471183776855 0.27471938729286194
12.331390380859375 7.526101589202881 0.27399224042892456
12.284540176391602 7.533097267150879 0.2724238336086273
12.2180757522583 7.527747631072998 0.2713012397289276
12.158313751220703 7.52578067779541 0.26945000886917114
12.089868545532227 7.518713474273682 0.2682816684246063
12.042171478271484 7.524219512939453 0.26717275381088257
12.000788688659668 7.533034324645996 0.2661350667476654
11.950094223022461 7.536378860473633 0.2649640142917633
11.896585464477539 7.53765344619751 0.2636674642562866
11.773160934448242 7.529123306274414 0.2607782483100891
11.727213859558105 7.534075736999512 0.2601049542427063
11.618541717529297 7.533574104309082 0.2575520873069763
11.512676239013672 7.533987998962402 0.2550651431083679
11.459949493408203 7.533495903015137 0.2534050941467285
11.3636474609375 7.538918495178223 0.25114208459854126
11.327625274658203 7.548920631408691 0.25069281458854675
11.223491668701172 7.547974109649658 0.248644158244133
11.163753509521484 7.54149055480957 0.2481101155281067
11.115082740783691 7.54324197769165 0.24656637012958527
11.07536506652832 7.549905300140381 0.2460343837738037
11.019676208496094 7.546018600463867 0.2447742223739624
10.985365867614746 7.556512355804443 0.24392446875572205
10.921009063720703 7.54567813873291 0.2424674928188324
10.888147354125977 7.556933403015137 0.24165552854537964
10.838349342346191 7.556197643280029 0.2400975525379181
10.785056114196777 7.5523505210876465 0.23926255106925964
10.742351531982422 7.556247234344482 0.23829852044582367
10.694610595703125 7.556340217590332 0.23716217279434204
10.65721607208252 7.563651084899902 0.23632055521011353
10.601688385009766 7.557822227478027 0.2350100725889206
10.554460525512695 7.55723762512207 0.23351837694644928
10.522683143615723 7.568090915679932 0.23316803574562073
10.469820022583008 7.563533782958984 0.23156122863292694
10.417574882507324 7.558740615844727 0.23075276613235474
10.37979507446289 7.565228462219238 0.2294897735118866
10.324390411376953 7.557703495025635 0.22860917448997498
10.27997875213623 7.558529853820801 0.2271982878446579
10.23790168762207 7.560816764831543 0.2266225516796112
10.201803207397461 7.566925525665283 0.22539548575878143
10.153626441955566 7.564426422119141 0.22468140721321106
10.098367691040039 7.556337356567383 0.22339463233947754
10.059672355651855 7.559998512268066 0.22288525104522705
10.022714614868164 7.565340518951416 0.22165265679359436
9.976339340209961 7.563323974609375 0.22097952663898468
9.924538612365723 7.556535720825195 0.219416081905365
9.887874603271484 7.562044143676758 0.21896442770957947
9.850885391235352 7.566205978393555 0.21773216128349304
9.809340476989746 7.567230701446533 0.21716710925102234
9.765398025512695 7.566145420074463 0.21579191088676453
9.717476844787598 7.561339378356934 0.21507883071899414
9.676326751708984 7.562126159667969 0.21377068758010864
9.64136791229248 7.567521572113037 0.21334978938102722
9.599658012390137 7.567030429840088 0.21202799677848816
9.546638488769531 7.557923793792725 0.21120771765708923
9.50857925415039 7.560379981994629 0.20997720956802368
9.459747314453125 7.553647041320801 0.20924298465251923
9.428579330444336 7.561799049377441 0.208173006772995
9.379703521728516 7.554637908935547 0.20744025707244873
9.291559219360352 7.5483808517456055 0.20512494444847107
9.250652313232422 7.547068119049072 0.20417162775993347
9.227800369262695 7.561315536499023 0.2032952606678009
9.186002731323242 7.558981418609619 0.2027190625667572
9.110786437988281 7.56166410446167 0.2010374367237091
9.060086250305176 7.5513916015625 0.19948463141918182
8.988883972167969 7.556426048278809 0.19789940118789673
8.952752113342285 7.5578155517578125 0.1971207857131958
8.872720718383789 7.554479598999023 0.1953456997871399
8.823819160461426 7.5444841384887695 0.19422930479049683
8.787315368652344 7.545827865600586 0.1930731236934662
8.748163223266602 7.54380464553833 0.19255635142326355
8.717418670654297 7.54939603805542 0.19152507185935974
8.677974700927734 7.547235012054443 0.19068513810634613
8.649467468261719 7.554024696350098 0.19002331793308258
8.588933944702148 7.533135890960693 0.18872222304344177
8.569889068603516 7.548379898071289 0.18827418982982635
8.519652366638184 7.535584449768066 0.1871953308582306
8.494428634643555 7.545253753662109 0.18661528825759888
8.465251922607422 7.551247596740723 0.18563023209571838
8.424975395202637 7.546773910522461 0.1850898563861847
8.38050651550293 7.53926944732666 0.18377789855003357
8.350037574768066 7.543270111083984 0.18313804268836975
8.312671661376953 7.541402339935303 0.1822962760925293
8.270063400268555 7.534517288208008 0.18139445781707764
8.224496841430664 7.524295806884766 0.18036946654319763
8.209474563598633 7.5428314208984375 0.1800805926322937
8.161527633666992 7.530071258544922 0.17826935648918152
8.136423110961914 7.538226127624512 0.1773851364850998
8.091248512268066 7.528559684753418 0.17638501524925232
8.068035125732422 7.538257598876953 0.17591065168380737
8.029314041137695 7.533848762512207 0.17504802346229553
7.991453170776367 7.529990196228027 0.1742604374885559
7.95670223236084 7.528479099273682 0.17317424714565277
7.918511390686035 7.524046897888184 0.17268788814544678
7.888333320617676 7.527005195617676 0.17170900106430054
7.860210418701172 7.531394958496094 0.17107683420181274
7.822410583496094 7.527293682098389 0.17029978334903717
7.787395000457764 7.524785995483398 0.1695190668106079
7.752721309661865 7.522455215454102 0.16880136728286743
7.721878528594971 7.524620532989502 0.16782116889953613
7.691667556762695 7.526362419128418 0.16750368475914001
7.6230926513671875 7.522364616394043 0.16569072008132935
7.588386535644531 7.51926326751709 0.1649762988090515
7.523562431335449 7.518087387084961 0.16360455751419067
7.489918231964111 7.515595436096191 0.1625639796257019
7.470344543457031 7.528050422668457 0.16248780488967896
7.428685188293457 7.517205238342285 0.16127541661262512
7.402131080627441 7.52148962020874 0.15969544649124146
7.3659257888793945 7.516752243041992 0.15925946831703186
7.339893817901611 7.5213470458984375 0.15839235484600067
7.303816318511963 7.515516757965088 0.15795066952705383
7.265825271606445 7.508450984954834 0.15683746337890625
7.245670318603516 7.518782615661621 0.15644696354866028
7.201962471008301 7.505450248718262 0.15550497174263
7.181129455566406 7.514894485473633 0.15475726127624512
7.1455583572387695 7.5088043212890625 0.15432584285736084
7.116166114807129 7.509978771209717 0.1534055769443512
7.082213878631592 7.505281448364258 0.1530090868473053
7.05628776550293 7.50946044921875 0.15216191112995148
7.023440361022949 7.506074905395508 0.15116606652736664
7.0017900466918945 7.514132499694824 0.15103404223918915
6.964296340942383 7.505559921264648 0.14994168281555176
6.929355621337891 7.49947452545166 0.14952906966209412
6.906546592712402 7.505979537963867 0.1487489491701126
6.875450134277344 7.504294395446777 0.1478036344051361
6.841068744659424 7.497947692871094 0.14739888906478882
6.810513496398926 7.495639801025391 0.14645741879940033
6.7896928787231445 7.504875183105469 0.14635416865348816
6.755657196044922 7.498473167419434 0.14533936977386475
6.734394073486328 7.506136894226074 0.14460143446922302
6.693851947784424 7.49308967590332 0.14407405257225037
6.672659873962402 7.500637054443359 0.14300712943077087
6.6409149169921875 7.496721267700195 0.14205442368984222
6.611791610717773 7.495545864105225 0.14143943786621094
6.576598644256592 7.486910820007324 0.1407376229763031
6.553550720214844 7.492894649505615 0.1399800181388855
6.5271687507629395 7.494056701660156 0.13974761962890625
6.490053176879883 7.482739448547363 0.1386796534061432
6.470839023590088 7.492865085601807 0.138284832239151
6.443222999572754 7.492260932922363 0.1377493441104889
6.40765380859375 7.482677459716797 0.13672436773777008
6.387691974639893 7.491276264190674 0.13630810379981995
6.353621482849121 7.482715606689453 0.13563846051692963
6.335053443908691 7.493233680725098 0.13525941967964172
6.303704261779785 7.487612724304199 0.13464723527431488
6.277297019958496 7.487730026245117 0.1338178813457489
6.250336647033691 7.488002777099609 0.13326327502727509
6.220247268676758 7.483468532562256 0.13267825543880463
6.191143989562988 7.479977607727051 0.13179636001586914
6.169899940490723 7.486814498901367 0.13168424367904663
6.140446662902832 7.482659816741943 0.13079530000686646
6.113704204559326 7.482184410095215 0.13024236261844635
6.087209224700928 7.481818675994873 0.12974219024181366
6.063051223754883 7.483796119689941 0.1289704591035843
6.029467582702637 7.47493314743042 0.1285955309867859
6.011228561401367 7.484050750732422 0.1276349127292633
5.982261657714844 7.479724884033203 0.12703196704387665
5.953134536743164 7.475992679595947 0.1264847218990326
5.923892498016357 7.471034049987793 0.12561050057411194
5.908251762390137 7.483153343200684 0.1252933144569397
5.874555587768555 7.473244667053223 0.12465056777000427
5.85045051574707 7.474452495574951 0.12388937175273895
5.798006057739258 7.472072124481201 0.12286550551652908
5.777997016906738 7.478275299072266 0.12245841324329376
5.749439239501953 7.474262237548828 0.12192650139331818
5.717651844024658 7.46494197845459 0.12100618332624435
5.695723533630371 7.4683661460876465 0.12087032198905945
5.67598819732666 7.475553512573242 0.12021782994270325
5.648833274841309 7.471933841705322 0.11939805746078491
5.597533702850342 7.469260215759277 0.11840800940990448
5.573637962341309 7.469625473022461 0.11792206764221191
5.524298191070557 7.468921661376953 0.11671433597803116
5.496618270874023 7.463846206665039 0.11645840853452682
5.47282075881958 7.464876174926758 0.11572688817977905
5.449179649353027 7.465068817138672 0.11498913913965225
5.427069664001465 7.4672698974609375 0.11484900116920471
5.400372505187988 7.46401309967041 0.1140601858496666
5.3763957023620605 7.463436126708984 0.1135769635438919
5.358717918395996 7.472063064575195 0.11327748745679855
5.328676223754883 7.463267803192139 0.11241553723812103
5.310420513153076 7.470432281494141 0.1120518371462822
5.280145645141602 7.461544990539551 0.11149448156356812
5.258629322052002 7.463940620422363 0.11106576770544052
5.227118492126465 7.45201301574707 0.11047078669071198
5.210649490356445 7.462391376495361 0.10990408062934875
5.178831100463867 7.449710845947266 0.10925811529159546
5.161707878112793 7.4580535888671875 0.10897043347358704
5.12977409362793 7.4458537101745605 0.10807886719703674
5.118188858032227 7.462137222290039 0.10786107182502747
5.088018417358398 7.451251983642578 0.10729984939098358
5.064331531524658 7.450690269470215 0.10658328235149384
5.041675090789795 7.450568199157715 0.10613475739955902
5.022428512573242 7.456394195556641 0.10581454634666443
4.994045734405518 7.447564125061035 0.10499386489391327
4.974627494812012 7.451992034912109 0.10491074621677399
4.947146415710449 7.445218086242676 0.10412172973155975
4.924198150634766 7.444149971008301 0.10341818630695343
4.898497581481934 7.438798904418945 0.1032014936208725
4.883643627166748 7.450845718383789 0.10267972201108932
4.855666637420654 7.441800117492676 0.10212350636720657
4.833285331726074 7.441649913787842 0.10202659666538239
4.812801837921143 7.444423675537109 0.1016317680478096
4.793465614318848 7.448369979858398 0.10130270570516586
4.77154541015625 7.4492292404174805 0.10063591599464417
4.751715660095215 7.452276229858398 0.10025018453598022
4.7269768714904785 7.4475250244140625 0.09980755299329758
4.707153797149658 7.451427459716797 0.09918532520532608
4.678133964538574 7.43963623046875 0.09889912605285645
4.661566734313965 7.447542190551758 0.09834013134241104
4.638921737670898 7.446689128875732 0.09766265004873276
4.616696357727051 7.445394039154053 0.09751970320940018
4.594923973083496 7.445749759674072 0.09686167538166046
4.573586463928223 7.445702075958252 0.09620384126901627
4.550158500671387 7.4421467781066895 0.09603558480739594
4.533602714538574 7.45078706741333 0.09548990428447723
4.504576206207275 7.437796592712402 0.09467241913080215
4.490920543670654 7.450096130371094 0.09471022337675095
4.469090938568115 7.449830532073975 0.09405472129583359
4.4451141357421875 7.444839954376221 0.0933457762002945
4.4206013679504395 7.438813209533691 0.09315526485443115
4.398042678833008 7.436983108520508 0.09248735010623932
4.376679420471191 7.436034679412842 0.09183439612388611
4.3376359939575195 7.441211700439453 0.09114667773246765
4.309879779815674 7.428985595703125 0.09117157757282257
4.295666694641113 7.44106388092041 0.09068290144205093
19.44144630432129 -9.712579727172852 0.45021891593933105
19.868125915527344 -9.666458129882812 0.45907342433929443
20.13365936279297 -9.639591217041016 0.4651625156402588
23.87860870361328 -9.231184005737305 0.544859766960144
24.225482940673828 -9.190646171569824 0.552032470703125
24.471317291259766 -9.166205406188965 0.5567477941513062
24.5869083404541 -9.1513671875 0.5596749782562256
24.832120895385742 -9.123754501342773 0.5652557611465454
25.21538734436035 -9.085065841674805 0.5734151005744934
25.589366912841797 -9.038464546203613 0.5815137624740601
25.991390228271484 -8.997085571289062 0.590119481086731
29.704898834228516 -8.566102981567383 0.6727423667907715
30.209012985229492 -8.506139755249023 0.6848490238189697
30.55609130859375 -8.465144157409668 0.6919031739234924
30.72187042236328 -8.442464828491211 0.6952645182609558
31.077251434326172 -8.399523735046387 0.7035683393478394
31.261962890625 -8.379871368408203 0.7123785018920898
31.62598419189453 -8.334848403930664 0.7209588289260864
31.817203521728516 -8.314669609069824 0.7249220609664917
32.19829559326172 -8.269556999206543 0.7328087091445923
32.388519287109375 -8.246803283691406 0.7367438673973083
32.78570556640625 -8.201065063476562 0.7459266185760498
32.9794921875 -8.176856994628906 0.7499517798423767
33.39014434814453 -8.129563331604004 0.7596435546875
34.01897048950195 -8.056466102600098 0.7727835178375244
34.64616012573242 -7.974298000335693 0.7868586778640747
39.12396240234375 -7.377068996429443 0.8926491141319275
22.091529846191406 -4.021089553833008 0.5034488439559937
22.00318145751953 -3.152378559112549 0.5055086016654968
22.35739517211914 -3.1070926189422607 0.5133430361747742
23.194656372070312 -3.1743834018707275 0.5324325561523438
23.904905319213867 -3.1691083908081055 0.5484025478363037
54.23871612548828 -5.114713191986084 1.2513482570648193
55.60270690917969 -4.890880584716797 1.2802281379699707
56.070281982421875 -4.814772605895996 1.2907626628875732
57.013607025146484 -4.653983116149902 1.3139138221740723
57.51161575317383 -4.574512481689453 1.3232539892196655
58.00688171386719 -4.489228248596191 1.3344230651855469
58.5068473815918 -4.405799865722656 1.3457117080688477
59.02522277832031 -4.319702625274658 1.3574225902557373
59.538204193115234 -4.231380462646484 1.3690145015716553
60.04517364501953 -4.142194747924805 1.380469799041748
60.53717803955078 -4.047911167144775 1.3915830850601196
61.05492401123047 -3.953573226928711 1.4032893180847168
61.5758056640625 -3.859001398086548 1.4167970418930054
62.11114501953125 -3.759364604949951 1.4371840953826904
62.65311050415039 -3.6616907119750977 1.4495477676391602
63.202152252197266 -3.562190055847168 1.4620718955993652
63.75547790527344 -3.456763744354248 1.4746997356414795
64.32032775878906 -3.353534460067749 1.4875999689102173
64.88846588134766 -3.24417781829834 1.5005757808685303
65.482421875 -3.1376588344573975 1.5123302936553955
66.0810775756836 -3.028911590576172 1.5260076522827148
66.69044494628906 -2.914091110229492 1.539930820465088
67.30609130859375 -2.801065444946289 1.5540056228637695
68.56787872314453 -2.564356565475464 1.5828795433044434
69.19987487792969 -2.444199562072754 1.5973483324050903
71.15015411376953 -2.065326690673828 1.6396700143814087
73.22026062011719 -1.6647988557815552 1.687103033065796
76.97723388671875 -0.9397101998329163 1.775486946105957
79.35060119628906 -0.4697936177253723 1.827907919883728
82.9031982421875 0.20008835196495056 2.5882537364959717
88.8020248413086 1.3363745212554932 2.770236015319824
95.27296447753906 2.6322059631347656 2.9723973274230957
97.50596618652344 3.101668357849121 3.0424394607543945
98.62522888183594 3.345430612564087 3.0748157501220703
101.03036499023438 3.8530468940734863 3.150259494781494
102.32421112060547 4.115059852600098 3.1908679008483887
103.56797790527344 4.383267402648926 3.2265138626098633
104.9798583984375 4.664767265319824 3.270784378051758
103.67770385742188 4.822434425354004 3.230039596557617
102.8923568725586 5.002857685089111 3.205472946166992
83.5384521484375 5.645389556884766 2.6002869606018066
82.05622863769531 5.716314315795898 2.5492942333221436
80.01810455322266 5.746119499206543 2.4863269329071045
78.74259948730469 5.81881046295166 2.4445877075195312
76.5976333618164 5.822384834289551 2.3783912658691406
75.53679656982422 5.901869773864746 2.345820426940918
73.99813079833984 5.936179161071777 2.298436164855957
72.60391235351562 5.978106498718262 2.253368854522705
71.0898666381836 6.0042924880981445 2.2067856788635254
69.77946472167969 6.0415143966674805 2.166529417037964
67.47809600830078 6.126716613769531 2.0936808586120605
66.62320709228516 6.190454483032227 2.067538261413574
64.27093505859375 6.243138313293457 1.9934922456741333
63.38639831542969 6.291865348815918 1.9664709568023682
61.80372619628906 6.397724151611328 1.916210412979126
59.51555633544922 6.539272785186768 1.8465330600738525
57.748435974121094 6.714700698852539 1.7894492149353027
56.5706901550293 6.817473411560059 1.748247504234314
55.95397186279297 6.862829208374023 1.7296327352523804
54.83654022216797 6.958498954772949 1.6941759586334229
54.40045928955078 7.019704818725586 1.6811566352844238
53.948097229003906 7.0767412185668945 1.667633295059204
53.473365783691406 7.127375602722168 1.651877760887146
52.92900085449219 7.168399333953857 1.6355268955230713
52.526031494140625 7.226374626159668 1.6218078136444092
52.070804595947266 7.275614261627197 1.608222246170044
51.63540267944336 7.3240556716918945 1.595240592956543
51.254791259765625 7.380087852478027 1.5824878215789795
50.83530807495117 7.429096221923828 1.5700160264968872
50.47344970703125 7.4846882820129395 1.5576543807983398
50.032501220703125 7.525444030761719 1.544525146484375
49.69645690917969 7.582056999206543 1.5346413850784302
49.343727111816406 7.634490013122559 1.5228261947631836
48.98948669433594 7.685453414916992 1.5123896598815918
48.62765121459961 7.732118606567383 1.5017120838165283
48.283111572265625 7.781500816345215 1.489972710609436
47.987022399902344 7.837596893310547 1.481342077255249
47.61872482299805 7.878932952880859 1.4691064357757568
47.287803649902344 7.928000450134277 1.4594169855117798
47.0115966796875 7.982028007507324 1.4527513980865479
46.66941833496094 8.024965286254883 1.4349374771118164
46.354469299316406 8.071447372436523 1.4244403839111328
46.07823944091797 8.121905326843262 1.416463851928711
45.77106475830078 8.167068481445312 1.407541036605835
45.43933868408203 8.20674991607666 1.3978713750839233
45.13134765625 8.249189376831055 1.3874222040176392
44.722068786621094 8.27032470703125 1.3740835189819336
44.32182312011719 8.292969703674316 1.3623192310333252
43.896942138671875 8.309078216552734 1.3497958183288574
43.09869384765625 8.344877243041992 1.3236273527145386
42.75798797607422 8.372259140014648 1.3137047290802002
41.97871398925781 8.40339469909668 1.2908365726470947
41.6260986328125 8.422687530517578 1.2791367769241333
40.905494689941406 8.456356048583984 1.2568938732147217
39.84450149536133 8.498554229736328 1.2234185934066772
39.20341491699219 8.534584999084473 1.2048254013061523
38.85661697387695 8.544918060302734 1.1947169303894043
38.195289611816406 8.566962242126465 1.1679506301879883
37.880210876464844 8.580199241638184 1.158869743347168
37.58148956298828 8.595684051513672 1.1502772569656372
37.247379302978516 8.600643157958984 1.1405975818634033
36.93980407714844 8.611682891845703 1.1304924488067627
36.651641845703125 8.625829696655273 1.121159553527832
36.35680389404297 8.636106491088867 1.1126844882965088
36.04200744628906 8.641632080078125 1.1036043167114258
35.706512451171875 8.640657424926758 1.0926768779754639
35.435462951660156 8.654176712036133 1.0839029550552368
35.15155029296875 8.6621732711792 1.0757761001586914
34.83573913574219 8.662118911743164 1.0666630268096924
34.55390167236328 8.669419288635254 1.0574228763580322
34.25334930419922 8.670639038085938 1.0477821826934814
33.962799072265625 8.672126770019531 1.0394446849822998
33.68079376220703 8.675786018371582 1.031370759010315
33.405189514160156 8.679763793945312 1.021380066871643
33.141761779785156 8.685935974121094 1.013877511024475
32.867061614990234 8.686870574951172 1.006027340888977
32.606651306152344 8.691462516784668 0.997509241104126
32.356101989746094 8.697771072387695 0.9894484281539917
32.08757019042969 8.697998046875 0.9817976951599121
31.843429565429688 8.703916549682617 0.9748868346214294
31.596033096313477 8.706803321838379 0.9658513069152832
31.376895904541016 8.71746826171875 0.9575749635696411
31.126972198486328 8.718753814697266 0.9505082368850708
30.876220703125 8.71860122680664 0.9424978494644165
30.62683868408203 8.716846466064453 0.9354410767555237
30.427959442138672 8.729621887207031 0.9288954734802246
30.181825637817383 8.727760314941406 0.9219404458999634
29.9865665435791 8.738768577575684 0.9156365394592285
29.75558090209961 8.739545822143555 0.908126711845398
29.533435821533203 8.741823196411133 0.9019061326980591
29.08794403076172 8.74336051940918 0.8885605335235596
28.87006950378418 8.743236541748047 0.8814687728881836
28.428770065307617 8.740464210510254 0.8682743310928345
28.23380470275879 8.744691848754883 0.8619014024734497
27.834178924560547 8.749552726745605 0.8499941825866699
27.227420806884766 8.747278213500977 0.8321840167045593
26.819046020507812 8.740854263305664 0.8190947771072388
26.64876937866211 8.746575355529785 0.8144440650939941
26.285181045532227 8.750032424926758 0.8036695718765259
26.10183334350586 8.750161170959473 0.7986268997192383
25.91722869873047 8.748960494995117 0.7926426529884338
25.743350982666016 8.74981689453125 0.7871091365814209
25.564334869384766 8.749128341674805 0.7821997404098511
25.371912002563477 8.742937088012695 0.7759933471679688
25.190784454345703 8.73904800415039 0.7702527642250061
25.020763397216797 8.739198684692383 0.7656172513961792
24.85373878479004 8.739559173583984 0.760198175907135
24.686925888061523 8.739418983459473 0.754922091960907
24.517314910888672 8.737451553344727 0.7502964735031128
24.32034683227539 8.7241792678833 0.7439737319946289
24.17254638671875 8.728715896606445 0.7392834424972534
24.00373077392578 8.724874496459961 0.734687328338623
23.852745056152344 8.72607421875 0.7297860383987427
23.674461364746094 8.717480659484863 0.7241724729537964
23.519197463989258 8.716531753540039 0.7199872732162476
23.35088539123535 8.709308624267578 0.7153842449188232
23.203454971313477 8.710081100463867 0.7099157571792603
23.050453186035156 8.708009719848633 0.705792248249054
22.896778106689453 8.705151557922363 0.7008466720581055
22.739151000976562 8.70001220703125 0.6958920955657959
22.602516174316406 8.701549530029297 0.6922621726989746
22.45496368408203 8.699136734008789 0.6883009672164917
22.34375762939453 8.710152626037598 0.6855571269989014
22.183565139770508 8.701620101928711 0.681204080581665
22.03512191772461 8.696918487548828 0.6764297485351562
21.894195556640625 8.693851470947266 0.6719884872436523
21.774608612060547 8.699546813964844 0.6688759326934814
21.618520736694336 8.689962387084961 0.6638766527175903
21.48406982421875 8.687747955322266 0.6596426367759705
21.319360733032227 8.673479080200195 0.6551411151885986
21.211650848388672 8.6817045211792 0.6516362428665161
20.925159454345703 8.667512893676758 0.6433066129684448
20.763582229614258 8.65110969543457 0.6375145316123962
20.49825668334961 8.642053604125977 0.6297445297241211
20.3739013671875 8.639463424682617 0.6258506774902344
20.108898162841797 8.627184867858887 0.6181025505065918
19.964900970458984 8.614508628845215 0.613610029220581
19.717937469482422 8.60662841796875 0.6064175367355347
19.463436126708984 8.593306541442871 0.599101185798645
19.345813751220703 8.589391708374023 0.5947340726852417
19.109560012817383 8.581021308898926 0.5906453728675842
18.972867965698242 8.5677490234375 0.5869755744934082
18.86417007446289 8.566476821899414 0.5835880041122437
18.74692153930664 8.560201644897461 0.5798294544219971
18.6396427154541 8.55875015258789 0.5764898061752319
18.517963409423828 8.550085067749023 0.573281466960907
18.412002563476562 8.54755973815918 0.5698775053024292
18.281875610351562 8.534042358398438 0.565840482711792
18.18297004699707 8.534496307373047 0.5626700520515442
18.060081481933594 8.522597312927246 0.5594135522842407
17.974342346191406 8.529130935668945 0.5567623376846313
17.846820831298828 8.514039993286133 0.5527072548866272
17.744693756103516 8.511286735534668 0.5495455265045166
17.65904426574707 8.515937805175781 0.5467971563339233
17.554397583007812 8.510418891906738 0.5441043972969055
17.43268585205078 8.496848106384277 0.5403410196304321
17.349315643310547 8.501419067382812 0.5376724004745483
17.244558334350586 8.49450969696045 0.5344310402870178
17.14114761352539 8.488521575927734 0.5317798852920532
17.029855728149414 8.478056907653809 0.528252363204956
16.9354305267334 8.47564697265625 0.5253434181213379
16.82929039001465 8.466835021972656 0.5219802260398865
16.73845863342285 8.464712142944336 0.5191808938980103
16.66476821899414 8.471610069274902 0.5179742574691772
16.56765365600586 8.46613883972168 0.5168246626853943
16.474145889282227 8.462202072143555 0.5144631266593933
16.38568687438965 8.460369110107422 0.5116467475891113
16.28391456604004 8.450668334960938 0.5085000991821289
16.180362701416016 8.44027328491211 0.5058209896087646
16.088172912597656 8.435276985168457 0.5023828744888306
16.01079559326172 8.437112808227539 0.5005123615264893
15.830121994018555 8.427273750305176 0.4948740005493164
15.73603343963623 8.41914176940918 0.4918888211250305
15.579282760620117 8.419859886169434 0.487595796585083
15.396982192993164 8.405309677124023 0.48192232847213745
15.315879821777344 8.402338027954102 0.47935229539871216
15.15414047241211 8.396827697753906 0.4743342995643616
15.073591232299805 8.39312744140625 0.4718727767467499
14.903444290161133 8.380805969238281 0.46660280227661133
14.841354370117188 8.386475563049316 0.4652027487754822
14.747682571411133 8.375158309936523 0.46226680278778076
14.679006576538086 8.37649154663086 0.4601832628250122
14.506372451782227 8.359161376953125 0.45808300375938416
14.439428329467773 8.36118221282959 0.45597100257873535
14.371545791625977 8.362287521362305 0.4539175033569336
14.286355972290039 8.352450370788574 0.4512248635292053
14.21823501586914 8.352893829345703 0.44916874170303345
14.144622802734375 8.349714279174805 0.44685453176498413
14.066838264465332 8.343209266662598 0.4449429214000702
13.990230560302734 8.337692260742188 0.4420795440673828
13.92888069152832 8.340879440307617 0.44069379568099976
13.864439010620117 8.341428756713867 0.4387485384941101
13.779607772827148 8.33000659942627 0.43608611822128296
13.709892272949219 8.32728385925293 0.4339848756790161
13.646574020385742 8.328259468078613 0.4320061206817627
13.55573844909668 8.312004089355469 0.429235577583313
13.501935958862305 8.317617416381836 0.4275560677051544
13.447461128234863 8.32321834564209 0.4259415864944458
13.355423927307129 8.305153846740723 0.4230579137802124
13.281852722167969 8.297673225402832 0.421273410320282
13.23139762878418 8.304986000061035 0.4192730784416199
13.162511825561523 8.30038833618164 0.4176420569419861
13.082307815551758 8.287806510925293 0.4146966338157654
13.032299995422363 8.294677734375 0.4136658310890198
12.971102714538574 8.294112205505371 0.411335289478302
12.896376609802246 8.284686088562012 0.4099484086036682
12.826984405517578 8.278270721435547 0.40980902314186096
12.753988265991211 8.268702507019043 0.40709367394447327
12.70100212097168 8.272432327270508 0.4059590697288513
12.636768341064453 8.268500328063965 0.4035387635231018
12.572324752807617 8.264240264892578 0.40203747153282166
12.50481128692627 8.257577896118164 0.39951807260513306
12.460799217224121 8.265698432922363 0.39866024255752563
12.335769653320312 8.257782936096191 0.39486199617385864
12.277868270874023 8.25597095489502 0.3926531672477722
12.158819198608398 8.250489234924316 0.38905590772628784
12.098742485046387 8.246443748474121 0.38768184185028076
11.969833374023438 8.232622146606445 0.38376951217651367
