VERSION .7
FIELDS x y z
SIZE 4 4 4
TYPE F F F
COUNT 1 1 1
WIDTH 856
HEIGHT 1
VIEWPOINT 0 0 0 1 0 0 0
POINTS 856
DATA ascii
17.411212921142578 -9.118620872497559 0.6761877536773682
17.475793838500977 -9.105789184570312 0.6779516935348511
17.633228302001953 -9.094099044799805 0.6837872862815857
17.709392547607422 -9.086408615112305 0.6860010027885437
17.853248596191406 -9.065937995910645 0.6913204193115234
17.931217193603516 -9.058277130126953 0.6936014294624329
18.079395294189453 -9.037763595581055 0.6990899443626404
18.32032585144043 -9.014697074890137 0.7078983783721924
18.566864013671875 -8.990577697753906 0.7169317007064819
18.73249053955078 -8.974485397338867 0.7226843237876892
18.817956924438477 -8.966564178466797 0.7257073521614075
18.969078063964844 -8.941646575927734 0.7309092283248901
19.05172348022461 -8.931426048278809 0.733831524848938
19.14006805419922 -8.923925399780273 0.7365128993988037
19.22139549255371 -8.912421226501465 0.7402094602584839
19.3035888671875 -8.901906967163086 0.7426587343215942
19.394922256469727 -8.894746780395508 0.74628746509552
19.478483200073242 -8.883275032043457 0.7492530941963196
19.57183074951172 -8.876830101013184 0.7521296143531799
19.663249969482422 -8.86861801147461 0.7557693719863892
19.737224578857422 -8.851816177368164 0.7583701610565186
19.83566665649414 -8.84604263305664 0.7614379525184631
19.922252655029297 -8.834209442138672 0.7653747200965881
20.009403228759766 -8.823213577270508 0.7680178880691528
20.098735809326172 -8.812301635742188 0.7707366943359375
20.182723999023438 -8.798301696777344 0.775076150894165
20.272663116455078 -8.78748893737793 0.7769644260406494
20.371232986450195 -8.778570175170898 0.7800220251083374
20.45887565612793 -8.76604175567627 0.7840380668640137
20.548717498779297 -8.75357437133789 0.7867770195007324
20.65937614440918 -8.749157905578613 0.7903016805648804
20.752370834350586 -8.737796783447266 0.7945428490638733
20.832429885864258 -8.720112800598145 0.7969033122062683
20.938446044921875 -8.712512016296387 0.8002536296844482
21.020984649658203 -8.695181846618652 0.8041008114814758
21.226646423339844 -8.676290512084961 0.8105697631835938
21.319225311279297 -8.661993026733398 0.8148155808448792
21.535680770874023 -8.645004272460938 0.8216959834098816
21.623220443725586 -8.627531051635742 0.8257681727409363
21.820417404174805 -8.599864959716797 0.8319098949432373
22.134836196899414 -8.563411712646484 0.8432797193527222
22.440256118774414 -8.518773078918457 0.8543132543563843
22.652606964111328 -8.49141788482666 0.8615763783454895
22.771421432495117 -8.481093406677246 0.8659495115280151
22.982624053955078 -8.449710845947266 0.8726197481155396
23.087806701660156 -8.434035301208496 0.8774494528770447
23.223777770996094 -8.42854118347168 0.8819382190704346
23.331539154052734 -8.411870002746582 0.8853545188903809
23.450481414794922 -8.39980411529541 0.8892067074775696
23.557270050048828 -8.38235092163086 0.8941166996955872
23.68498992919922 -8.371426582336426 0.8982870578765869
23.787805557250977 -8.352275848388672 0.9015283584594727
23.912567138671875 -8.3387451171875 0.9071297645568848
24.0267333984375 -8.322674751281738 0.9108031988143921
24.14377212524414 -8.306543350219727 0.9145768880844116
24.25676918029785 -8.28810977935791 0.9181920886039734
24.39142608642578 -8.277632713317871 0.9242093563079834
24.498645782470703 -8.255699157714844 0.9276038408279419
24.62140655517578 -8.240211486816406 0.9316033124923706
24.747318267822266 -8.2252836227417 0.9357178211212158
24.87066078186035 -8.207321166992188 0.941315770149231
25.00546646118164 -8.194304466247559 0.9457705020904541
25.130657196044922 -8.177003860473633 0.9498556852340698
25.252357482910156 -8.15760326385498 0.9538021087646484
25.379945755004883 -8.140694618225098 0.9596103429794312
25.526369094848633 -8.127559661865234 0.9644864797592163
25.63906478881836 -8.10488224029541 0.9681100845336914
25.767681121826172 -8.086135864257812 0.972324013710022
26.03172492980957 -8.049356460571289 0.9826711416244507
26.177490234375 -8.034317016601562 0.9875339865684509
26.45035171508789 -7.996333122253418 0.9971575736999512
26.86249542236328 -7.936968803405762 1.0118894577026367
27.560279846191406 -7.829514503479004 1.036773681640625
28.008705139160156 -7.766951560974121 1.0535614490509033
28.301990509033203 -7.7200727462768555 1.0633623600006104
28.470136642456055 -7.701307773590088 1.0697166919708252
28.608234405517578 -7.67498779296875 1.0743043422698975
28.762069702148438 -7.6516313552856445 1.0806381702423096
28.91362762451172 -7.6265339851379395 1.0857248306274414
29.08853530883789 -7.608139991760254 1.0916939973831177
29.238893508911133 -7.581984519958496 1.0967376232147217
29.407272338867188 -7.559330940246582 1.1024543046951294
29.5542049407959 -7.531057357788086 1.1092309951782227
29.722126007080078 -7.506966590881348 1.1149332523345947
29.877273559570312 -7.480230808258057 1.1201701164245605
30.054431915283203 -7.457635879516602 1.1262221336364746
30.203903198242188 -7.426975250244141 1.1312352418899536
30.39694595336914 -7.407582759857178 1.1385794878005981
30.552968978881836 -7.3764967918396 1.1450546979904175
30.736642837524414 -7.353373050689697 1.1513665914535522
30.893291473388672 -7.322382926940918 1.1566553115844727
31.084041595458984 -7.298221588134766 1.1632192134857178
31.24710464477539 -7.267393112182617 1.1687487363815308
31.425975799560547 -7.240285873413086 1.1755863428115845
31.616453170776367 -7.213814735412598 1.183401346206665
31.79669952392578 -7.184815406799316 1.1895806789398193
31.973995208740234 -7.153862953186035 1.1956455707550049
32.17111587524414 -7.127896308898926 1.202462911605835
32.34935760498047 -7.096242904663086 1.208564043045044
32.54589080810547 -7.067272186279297 1.2160859107971191
32.71714401245117 -7.0326385498046875 1.223236083984375
22.65790367126465 -4.721553802490234 0.8473063111305237
22.51541519165039 -3.859382390975952 0.8390792608261108
22.627342224121094 -3.8297348022460938 0.8429549932479858
22.796512603759766 -3.808810234069824 0.8489560484886169
22.97692108154297 -3.7899560928344727 0.8562849760055542
24.214370727539062 -3.941920280456543 0.9020925760269165
24.2850341796875 -3.900740623474121 0.903328537940979
24.290639877319336 -3.849398612976074 0.9051494002342224
24.349655151367188 -3.805997848510742 0.9075930118560791
24.423852920532227 -3.7656893730163574 0.9100641012191772
24.67437171936035 -3.697997570037842 0.9188089370727539
25.053932189941406 -3.701174736022949 0.93265300989151
25.32754898071289 -3.6879053115844727 0.9425486326217651
39.97557067871094 -5.734502792358398 1.487216591835022
40.22846221923828 -5.684697151184082 1.4961786270141602
40.4825439453125 -5.633335113525391 1.5051826238632202
40.73533630371094 -5.582365036010742 1.5141462087631226
41.025028228759766 -5.534432411193848 1.5244781970977783
41.27565383911133 -5.479417324066162 1.5333576202392578
41.54472351074219 -5.426494121551514 1.544560432434082
41.80513381958008 -5.372298240661621 1.5547585487365723
42.09618377685547 -5.319258689880371 1.565159797668457
42.36542510986328 -5.263031959533691 1.5747560262680054
42.93534851074219 -5.151281356811523 1.5951251983642578
43.738861083984375 -4.967984199523926 1.6237825155258179
44.011390686035156 -4.811285972595215 1.631178617477417
44.06843566894531 -4.724998474121094 1.63636314868927
44.136295318603516 -4.544345378875732 1.638157606124878
44.144935607910156 -4.450948715209961 1.638124942779541
44.15174102783203 -4.265605926513672 1.6377034187316895
44.16993713378906 -4.173140048980713 1.6380479335784912
44.198577880859375 -4.082328796386719 1.6387883424758911
44.1951904296875 -3.9895381927490234 1.638352394104004
44.2228889465332 -3.8978111743927 1.6390702724456787
44.220306396484375 -3.8041272163391113 1.6386749744415283
44.244300842285156 -3.7119874954223633 1.639270305633545
44.256072998046875 -3.620504856109619 1.6404167413711548
44.287109375 -3.529545307159424 1.6412889957427979
44.26688003540039 -3.433778762817383 1.6402666568756104
44.2799072265625 -3.341367721557617 1.640486240386963
44.30710220336914 -3.249238967895508 1.6412353515625
44.35259246826172 -3.1600542068481445 1.6426740884780884
44.328224182128906 -3.064880847930908 1.6415297985076904
44.33843231201172 -2.971424102783203 1.6416714191436768
44.344703674316406 -2.8784265518188477 1.641676664352417
44.355743408203125 -2.7867212295532227 1.641867756843567
44.339874267578125 -2.6916351318359375 1.641066074371338
44.39153289794922 -2.6013283729553223 1.6407861709594727
44.36664581298828 -2.5057709217071533 1.6431162357330322
44.384830474853516 -2.4134154319763184 1.6435942649841309
44.36907196044922 -2.3202221393585205 1.6428322792053223
44.40498352050781 -2.2279839515686035 1.6439850330352783
44.398231506347656 -2.134296178817749 1.6435644626617432
44.42593002319336 -2.0432310104370117 1.644430160522461
44.44035339355469 -1.9497604370117188 1.644808053970337
44.44811248779297 -1.8567007780075073 1.6449511051177979
44.481468200683594 -1.6704685688018799 1.6459050178527832
44.52525329589844 -1.3918672800064087 1.6471731662750244
44.487091064453125 -1.2031606435775757 1.6455488204956055
44.4156494140625 -1.1089950799942017 1.6428213119506836
44.38456726074219 -0.9211986064910889 1.6415116786956787
44.33833312988281 -0.6414134502410889 1.6396205425262451
44.35631561279297 -0.5478910207748413 1.6385215520858765
44.32008361816406 -0.4544699192047119 1.6371450424194336
44.32735061645508 -0.3625486493110657 1.636390209197998
44.25823211669922 -0.2684197425842285 1.6372501850128174
44.25199890136719 -0.17556121945381165 1.6370022296905518
44.23442077636719 -0.08198288083076477 1.636337399482727
41.208229064941406 0.015090905129909515 1.3798472881317139
41.209320068359375 0.10060890018939972 1.3798859119415283
41.10143280029297 0.2734449505805969 1.3763021230697632
41.08576965332031 0.35860684514045715 1.375801920890808
41.04546356201172 0.4459460377693176 1.3744745254516602
41.012481689453125 0.5307087302207947 1.3734053373336792
41.005977630615234 0.6173410415649414 1.373230218887329
41.00564956665039 0.7033519148826599 1.3732635974884033
41.023597717285156 0.7888199090957642 1.3739166259765625
41.00485610961914 1.3920567035675049 1.3713223934173584
40.877017974853516 1.4742493629455566 1.3671457767486572
40.84075927734375 1.558707594871521 1.3669393062591553
40.809478759765625 1.642331600189209 1.3676005601882935
40.7872314453125 1.7278194427490234 1.3660683631896973
40.76718521118164 1.8126256465911865 1.3655307292938232
40.77384567260742 1.8977106809616089 1.3658766746520996
40.76678466796875 1.9846665859222412 1.3657792806625366
40.75462341308594 2.068857431411743 1.3655197620391846
40.754058837890625 2.155226707458496 1.3656439781188965
40.74549102783203 2.2404706478118896 1.3655261993408203
40.66160583496094 2.492347240447998 1.3616091012954712
40.56621551513672 2.6580286026000977 1.3578927516937256
40.51959991455078 2.739433526992798 1.3565106391906738
40.47816848754883 2.9079318046569824 1.3555216789245605
40.43217086791992 3.075835943222046 1.3528163433074951
40.403953552246094 3.158033847808838 1.3520877361297607
40.347442626953125 3.3246326446533203 1.3497672080993652
40.33935546875 3.408262014389038 1.3497294187545776
40.32052230834961 3.4934349060058594 1.3493465185165405
40.27762985229492 3.5739452838897705 1.3490450382232666
40.22681427001953 3.7402472496032715 1.346968650817871
40.190406799316406 3.8225889205932617 1.346016764640808
40.142822265625 3.9871339797973633 1.3433890342712402
40.09516525268555 4.152997016906738 1.3423652648925781
40.05422592163086 4.232787132263184 1.3404006958007812
40.02654266357422 4.31545352935791 1.3397760391235352
40.005470275878906 4.48369836807251 1.3381154537200928
39.974693298339844 4.565154552459717 1.3374109268188477
39.91424560546875 4.642181396484375 1.3356984853744507
39.884605407714844 4.72422456741333 1.3341647386550903
39.8646354675293 4.80665397644043 1.3322570323944092
39.8597412109375 4.8900041580200195 1.3324333429336548
39.830482482910156 4.972805023193359 1.3318036794662476
39.79591751098633 5.0523834228515625 1.330995798110962
39.781044006347656 5.135983467102051 1.3308582305908203
39.74492263793945 5.216081619262695 1.3291349411010742
39.686859130859375 5.29226016998291 1.3259865045547485
39.670501708984375 5.375470161437988 1.3258167505264282
39.65715789794922 5.458380222320557 1.3257560729980469
39.61195755004883 5.5375213623046875 1.323745846748352
39.589141845703125 5.6190032958984375 1.3218114376068115
39.55449295043945 5.697846412658691 1.3210445642471313
39.55197525024414 5.782870769500732 1.3213706016540527
39.50249099731445 5.860274314880371 1.3201262950897217
39.43178176879883 6.019609451293945 1.3161659240722656
39.37926483154297 6.095243453979492 1.314823865890503
39.31193923950195 6.254460334777832 1.3110244274139404
39.24544143676758 6.327411651611328 1.309239149093628
39.092079162597656 6.471714019775391 1.3050135374069214
38.969261169433594 6.620114326477051 1.2994134426116943
38.91227340698242 6.693543434143066 1.2979731559753418
38.80033874511719 6.8426513671875 1.2951909303665161
38.73951721191406 6.91641092300415 1.291240930557251
38.708457946777344 6.994661331176758 1.2906914949417114
38.648109436035156 7.0666093826293945 1.2891690731048584
38.60177230834961 7.142513751983643 1.2881219387054443
38.54304504394531 7.215276718139648 1.284263014793396
38.49414825439453 7.288837432861328 1.2831368446350098
38.44788360595703 7.3651909828186035 1.2821223735809326
38.40007781982422 7.438676834106445 1.2771127223968506
38.34757614135742 7.512662410736084 1.2758930921554565
38.304718017578125 7.587713241577148 1.2749980688095093
38.24372100830078 7.65814208984375 1.2719626426696777
38.178184509277344 7.729012489318848 1.269472599029541
38.1335334777832 7.803256511688232 1.2685307264328003
38.08275604248047 7.8767924308776855 1.2658659219741821
38.039825439453125 7.95113468170166 1.2641371488571167
37.979698181152344 8.02086067199707 1.2626876831054688
37.940364837646484 8.09638786315918 1.2619487047195435
37.895263671875 8.169890403747559 1.2594964504241943
37.83984375 8.241704940795898 1.2573845386505127
37.785057067871094 8.311941146850586 1.2561314105987549
37.73307418823242 8.383503913879395 1.2534704208374023
37.66895294189453 8.452872276306152 1.2510838508605957
37.62894821166992 8.526819229125977 1.2503411769866943
37.582313537597656 8.598287582397461 1.249385118484497
37.51277160644531 8.666748046875 1.2461769580841064
37.48830032348633 8.743082046508789 1.2451199293136597
37.38290023803711 8.884662628173828 1.24135160446167
37.3399772644043 8.956367492675781 1.2396931648254395
37.2188720703125 9.093250274658203 1.2339317798614502
37.156036376953125 9.159647941589355 1.2301369905471802
37.127296447753906 9.236741065979004 1.2298388481140137
37.049251556396484 9.2990083694458 1.2278882265090942
36.931541442871094 9.434972763061523 1.2229596376419067
36.89299011230469 9.506725311279297 1.2223334312438965
36.7681770324707 9.639871597290039 1.2172088623046875
36.7637939453125 9.721840858459473 1.2177505493164062
36.666778564453125 9.77850341796875 1.2128902673721313
36.545867919921875 9.827537536621094 1.2095649242401123
36.269657135009766 9.835538864135742 1.2011141777038574
35.978179931640625 9.837542533874512 1.1898629665374756
35.66743087768555 9.833670616149902 1.180270791053772
35.34369659423828 9.824214935302734 1.1702380180358887
35.04179000854492 9.818678855895996 1.158694863319397
34.720664978027344 9.807921409606934 1.1487557888031006
34.41974639892578 9.800905227661133 1.1394755840301514
34.13298034667969 9.79587173461914 1.1284840106964111
33.83650207519531 9.788265228271484 1.119361400604248
33.55025100708008 9.781750679016113 1.1092021465301514
33.272159576416016 9.777046203613281 1.0999265909194946
32.993473052978516 9.770367622375488 1.091387391090393
32.718196868896484 9.762744903564453 1.0789400339126587
32.4532470703125 9.75846004486084 1.0701390504837036
32.175235748291016 9.748486518859863 1.0603276491165161
31.904022216796875 9.740007400512695 1.0520645380020142
31.674114227294922 9.742480278015137 1.0431315898895264
31.411813735961914 9.733201026916504 1.0351545810699463
31.163818359375 9.728620529174805 1.0276563167572021
30.923450469970703 9.724801063537598 1.0184216499328613
30.667499542236328 9.714289665222168 1.0106520652770996
30.430633544921875 9.710836410522461 1.0028280019760132
30.197235107421875 9.705448150634766 0.9945552349090576
29.959304809570312 9.698911666870117 0.9873923659324646
29.717334747314453 9.689476013183594 0.9781743288040161
29.504440307617188 9.687845230102539 0.9718278050422668
29.073345184326172 9.682123184204102 0.9570903778076172
28.838226318359375 9.670351028442383 0.9500075578689575
28.61825942993164 9.664647102355957 0.9415941834449768
28.42705726623535 9.66584300994873 0.9359625577926636
27.992006301879883 9.649620056152344 0.9211587905883789
27.78630828857422 9.643271446228027 0.9150454998016357
27.372934341430664 9.629162788391113 0.9009858965873718
26.988876342773438 9.621978759765625 0.8867989778518677
26.7978515625 9.616600036621094 0.8800624012947083
26.41099739074707 9.603517532348633 0.8669615387916565
26.210906982421875 9.592391014099121 0.8604307174682617
26.040328979492188 9.593093872070312 0.8544179201126099
25.821826934814453 9.573502540588379 0.8478980660438538
25.65079689025879 9.571828842163086 0.8423428535461426
25.490238189697266 9.57286262512207 0.8366626501083374
25.284950256347656 9.555685997009277 0.8299791812896729
25.10662269592285 9.549003601074219 0.8237353563308716
24.951875686645508 9.550094604492188 0.8187276721000671
24.778491973876953 9.542732238769531 0.8126463890075684
24.614368438720703 9.539956092834473 0.807349681854248
24.44906997680664 9.534295082092285 0.8015497922897339
24.26486587524414 9.521614074707031 0.795596182346344
24.107467651367188 9.518241882324219 0.7900747060775757
23.933216094970703 9.506897926330566 0.7850081920623779
23.78093719482422 9.504669189453125 0.7801079750061035
23.62224578857422 9.498747825622559 0.7745585441589355
23.463150024414062 9.492449760437012 0.7694416046142578
23.289949417114258 9.479264259338379 0.7634282112121582
23.147859573364258 9.477473258972168 0.7588636875152588
22.990137100219727 9.469700813293457 0.7533748149871826
22.841480255126953 9.464547157287598 0.7476416826248169
22.67951774597168 9.452629089355469 0.7429812550544739
22.534576416015625 9.448772430419922 0.7379372119903564
22.385459899902344 9.440916061401367 0.7331588268280029
22.238037109375 9.43416976928711 0.728038489818573
22.098649978637695 9.429771423339844 0.7235921621322632
21.947582244873047 9.419195175170898 0.7183506488800049
21.798011779785156 9.409628868103027 0.713581919670105
21.649795532226562 9.399560928344727 0.7084516882896423
21.524276733398438 9.398200035095215 0.7044646143913269
21.38954734802246 9.393828392028809 0.6997967958450317
21.246715545654297 9.383742332458496 0.6952474117279053
20.97551727294922 9.369731903076172 0.6862540245056152
20.850421905517578 9.365802764892578 0.6819038391113281
20.583314895629883 9.350194931030273 0.6730688214302063
20.326953887939453 9.33720874786377 0.6645992398262024
20.198131561279297 9.328841209411621 0.6605287790298462
19.953739166259766 9.318124771118164 0.6524684429168701
19.82953643798828 9.310296058654785 0.6481821537017822
19.702119827270508 9.301889419555664 0.6446653604507446
19.58219337463379 9.295012474060059 0.6408931016921997
19.468318939208984 9.291444778442383 0.6369654536247253
19.344518661499023 9.282220840454102 0.632239818572998
19.244985580444336 9.283642768859863 0.6296148896217346
19.1263370513916 9.27630615234375 0.6250747442245483
18.999004364013672 9.263815879821777 0.6215469837188721
18.89236831665039 9.260396003723145 0.6174006462097168
18.77972412109375 9.25499153137207 0.6143641471862793
18.65194320678711 9.240174293518066 0.6095376014709473
18.56122589111328 9.244157791137695 0.6072112321853638
18.45231819152832 9.238265991210938 0.603020191192627
18.338050842285156 9.2287015914917 0.5994574427604675
18.222135543823242 9.21869945526123 0.5955070853233337
18.120132446289062 9.214874267578125 0.5923556685447693
18.01167869567871 9.207700729370117 0.5886554718017578
17.903303146362305 9.19970989227295 0.5845130681991577
17.796123504638672 9.191365242004395 0.5816351175308228
17.702476501464844 9.190461158752441 0.577989935874939
17.599586486816406 9.183955192565918 0.5752581357955933
17.491849899291992 9.173969268798828 0.5711510181427002
17.390548706054688 9.168262481689453 0.5680476427078247
17.29665756225586 9.16468334197998 0.5648372173309326
17.19286346435547 9.156291961669922 0.5620782375335693
17.094741821289062 9.150108337402344 0.5594968795776367
17.00459098815918 9.147302627563477 0.556740403175354
16.90525245666504 9.14000129699707 0.552945613861084
16.81720733642578 9.138031005859375 0.5499443411827087
16.722776412963867 9.131719589233398 0.5470555424690247
16.623075485229492 9.123429298400879 0.5436893701553345
16.52669906616211 9.115211486816406 0.540738046169281
16.350990295410156 9.108319282531738 0.5343661308288574
16.257776260375977 9.100652694702148 0.5315253138542175
16.089279174804688 9.095534324645996 0.5261353254318237
15.900574684143066 9.077431678771973 0.5200915336608887
15.813787460327148 9.071450233459473 0.5167524814605713
15.654048919677734 9.067649841308594 0.511672854423523
15.583366394042969 9.069948196411133 0.509272038936615
15.481517791748047 9.054999351501465 0.5061785578727722
15.396528244018555 9.048223495483398 0.5029215216636658
15.327116012573242 9.050274848937988 0.5005726218223572
15.233800888061523 9.039119720458984 0.49776381254196167
15.166234970092773 9.04163646697998 0.4954787492752075
15.078974723815918 9.032877922058105 0.4925647974014282
15.003090858459473 9.030231475830078 0.49100035429000854
14.924187660217285 9.024984359741211 0.4886455535888672
14.842740058898926 9.019089698791504 0.48593074083328247
14.762384414672852 9.012260437011719 0.4828552007675171
14.694217681884766 9.012557983398438 0.4808560907840729
14.61092758178711 9.00448226928711 0.47808870673179626
14.546733856201172 9.00662612915039 0.4762217402458191
14.46963882446289 9.00126838684082 0.4732779860496521
14.388547897338867 8.992731094360352 0.4705798029899597
14.31414794921875 8.987593650817871 0.46838217973709106
14.244914054870605 8.98660659790039 0.4660877287387848
14.172917366027832 8.982357025146484 0.4633152484893799
14.094657897949219 8.974581718444824 0.46100670099258423
14.020503997802734 8.968748092651367 0.45854705572128296
13.937135696411133 8.956230163574219 0.4554150700569153
13.870351791381836 8.955236434936523 0.45349329710006714
13.81916332244873 8.962874412536621 0.4517843723297119
13.747208595275879 8.956788063049316 0.449036180973053
13.671436309814453 8.949081420898438 0.44682395458221436
13.601715087890625 8.943819046020508 0.44451606273651123
13.544794082641602 8.947465896606445 0.4422813057899475
13.472412109375 8.940291404724121 0.44017285108566284
13.410515785217285 8.939356803894043 0.4381267726421356
13.336355209350586 8.930703163146973 0.43569305539131165
13.269948959350586 8.92660140991211 0.43502920866012573
13.197531700134277 8.917723655700684 0.4326394200325012
13.13485336303711 8.916300773620605 0.430239200592041
13.077856063842773 8.917309761047363 0.4286285638809204
12.942399978637695 8.905025482177734 0.423841655254364
12.882102012634277 8.902982711791992 0.42212361097335815
12.757182121276855 8.896268844604492 0.41769832372665405
12.630701065063477 8.887361526489258 0.4138360917568207
12.557204246520996 8.874664306640625 0.41109132766723633
12.441763877868652 8.871882438659668 0.4075981080532074
12.383779525756836 8.86935806274414 0.4053703546524048
12.323057174682617 8.865757942199707 0.4030749499797821
12.268795013427734 8.865415573120117 0.4019010663032532
12.206136703491211 8.858753204345703 0.3995276093482971
12.142318725585938 8.852100372314453 0.397138774394989
12.087112426757812 8.850324630737305 0.3956035077571869
12.02776050567627 8.845989227294922 0.3936886787414551
11.968094825744629 8.840845108032227 0.3914332389831543
11.916498184204102 8.841012954711914 0.3894384205341339
11.858268737792969 8.83714771270752 0.3884776830673218
11.805227279663086 8.835783004760742 0.387590616941452
11.733634948730469 8.820247650146484 0.38494211435317993
11.693530082702637 8.829259872436523 0.38367390632629395
11.63797378540039 8.82529067993164 0.38212937116622925
11.576847076416016 8.817548751831055 0.3798437714576721
11.529094696044922 8.819446563720703 0.37799710035324097
11.473897933959961 8.81502628326416 0.376222163438797
11.405681610107422 8.801026344299316 0.3742760121822357
11.356654167175293 8.80125617980957 0.3723948001861572
11.304454803466797 8.799118995666504 0.37041720747947693
11.249454498291016 8.794257164001465 0.3686615228652954
11.189903259277344 8.785177230834961 0.36699357628822327
11.141561508178711 8.785360336303711 0.36514848470687866
11.096022605895996 8.787254333496094 0.3637080788612366
11.034271240234375 8.775672912597656 0.36141836643218994
10.976441383361816 8.768024444580078 0.35982656478881836
10.940930366516113 8.776912689208984 0.3584032356739044
10.887922286987305 8.771585464477539 0.35671624541282654
10.83646297454834 8.768367767333984 0.3553367257118225
10.785079956054688 8.763887405395508 0.3533981144428253
10.737197875976562 8.762735366821289 0.3515889644622803
10.67833137512207 8.752068519592285 0.34972259402275085
10.62881088256836 8.748417854309082 0.3478541970252991
10.576340675354004 8.742804527282715 0.34674060344696045
10.53084659576416 8.742439270019531 0.34554749727249146
10.482900619506836 8.739446640014648 0.3437364995479584
10.43624210357666 8.7384033203125 0.3428167998790741
10.388545989990234 8.735203742980957 0.34101563692092896
10.346692085266113 8.736726760864258 0.3394094705581665
10.288018226623535 8.724899291992188 0.3372699022293091
10.24578857421875 8.72570514678955 0.3359540104866028
10.13766098022461 8.70754337310791 0.3324968218803406
10.093077659606934 8.705713272094727 0.33081257343292236
10.05491828918457 8.710328102111816 0.3293585181236267
10.001561164855957 8.700502395629883 0.32820072770118713
9.906977653503418 8.691789627075195 0.3246864080429077
9.876401901245117 8.701300621032715 0.3234711289405823
9.776437759399414 8.686634063720703 0.32059305906295776
9.725271224975586 8.677352905273438 0.31870993971824646
9.694185256958008 8.686882972717285 0.3175036609172821
9.645671844482422 8.679567337036133 0.31571149826049805
9.598953247070312 8.673644065856934 0.3142659068107605
9.5529146194458 8.669185638427734 0.313080370426178
9.50698471069336 8.663548469543457 0.3113773465156555
9.471166610717773 8.667630195617676 0.31001973152160645
9.426019668579102 8.662710189819336 0.3091362714767456
9.374410629272461 8.651233673095703 0.3072527050971985
9.342428207397461 8.658745765686035 0.3060319125652313
9.29925537109375 8.654675483703613 0.30442988872528076
9.254158020019531 8.648612022399902 0.3027671277523041
9.211231231689453 8.645432472229004 0.30196619033813477
9.174605369567871 8.646937370300293 0.3005828261375427
9.128487586975098 8.639986038208008 0.29890209436416626
9.083714485168457 8.63379955291748 0.29726308584213257
9.048077583312988 8.635736465454102 0.29591965675354004
9.01068115234375 8.63652229309082 0.2948061525821686
8.95528793334961 8.619535446166992 0.2933092713356018
8.92471981048584 8.625864028930664 0.2921355664730072
8.884160995483398 8.62344741821289 0.2906549870967865
8.842116355895996 8.618345260620117 0.2891085147857666
8.799134254455566 8.612802505493164 0.28781893849372864
8.760160446166992 8.610703468322754 0.2868627607822418
8.7210693359375 8.607934951782227 0.2854195833206177
8.681316375732422 8.60500717163086 0.2839655578136444
8.636170387268066 8.596240997314453 0.2823339104652405
8.598417282104492 8.594258308410645 0.28094053268432617
8.56399154663086 8.596500396728516 0.27994096279144287
8.524224281311035 8.592168807983398 0.2789562940597534
8.485374450683594 8.588582992553711 0.2775312066078186
8.445556640625 8.584885597229004 0.2756226360797882
8.407678604125977 8.58193302154541 0.2742326855659485
8.330835342407227 8.575445175170898 0.27170610427856445
8.295600891113281 8.57470703125 0.2704075872898102
8.216224670410156 8.564546585083008 0.2680074870586395
8.181550979614258 8.563905715942383 0.2667325735092163
8.148780822753906 8.566166877746582 0.26553741097450256
8.110857009887695 8.561809539794922 0.2644207179546356
8.07534122467041 8.55982780456543 0.2631230056285858
8.042057037353516 8.561110496520996 0.2619157135486603
7.988521099090576 8.539563179016113 0.26049089431762695
7.929049491882324 8.547863960266113 0.2582998275756836
7.894881725311279 8.546533584594727 0.2570531964302063
7.813155651092529 8.529854774475098 0.25440168380737305
7.782459259033203 8.531822204589844 0.2532733380794525
7.743355751037598 8.525460243225098 0.2523375153541565
7.710121154785156 8.524345397949219 0.25112947821617126
7.672729969024658 8.519140243530273 0.24979767203330994
7.645885467529297 8.525221824645996 0.24880573153495789
7.60538387298584 8.515548706054688 0.24736519157886505
7.579751014709473 8.523048400878906 0.24553123116493225
7.5386152267456055 8.512680053710938 0.24477678537368774
7.506266117095947 8.511673927307129 0.2436058521270752
7.467308044433594 8.504048347473145 0.2422398179769516
7.431912899017334 8.499248504638672 0.24097386002540588
7.4116058349609375 8.511605262756348 0.2401987612247467
7.365055561065674 8.494720458984375 0.23859094083309174
7.339030742645264 8.500279426574707 0.23763293027877808
7.308732986450195 8.500785827636719 0.2365381121635437
7.272865295410156 8.495713233947754 0.23596394062042236
7.239704132080078 8.49258804321289 0.2347780168056488
7.199826240539551 8.482067108154297 0.23338644206523895
7.17820930480957 8.49263858795166 0.23258358240127563
7.131054878234863 8.472448348999023 0.23094820976257324
7.102892875671387 8.475674629211426 0.2299472987651825
7.064221382141113 8.465150833129883 0.2285902500152588
7.035126686096191 8.465938568115234 0.22754457592964172
7.003105640411377 8.464123725891113 0.2266651690006256
6.961480140686035 8.44945240020752 0.22564320266246796
6.934481620788574 8.452363014221191 0.22466841340065002
6.903979301452637 8.451940536499023 0.2235979586839676
6.872489929199219 8.449116706848145 0.22248049080371857
6.843714714050293 8.450172424316406 0.22146299481391907
6.802097797393799 8.434894561767578 0.2200261950492859
6.781041145324707 8.444585800170898 0.21840691566467285
6.749997138977051 8.442808151245117 0.2173272967338562
6.717392921447754 8.437868118286133 0.21642091870307922
6.679819107055664 8.426498413085938 0.2151167392730713
6.654241561889648 8.431167602539062 0.21463535726070404
6.621881484985352 8.426063537597656 0.21350041031837463
6.593529224395752 8.425918579101562 0.2124963402748108
6.556652069091797 8.415773391723633 0.21123546361923218
6.530265808105469 8.417879104614258 0.2102971076965332
6.499091625213623 8.414749145507812 0.20922213792800903
6.468505859375 8.411170959472656 0.2081511914730072
6.442437171936035 8.413345336914062 0.2072266787290573
6.402036190032959 8.397689819335938 0.2058592140674591
6.38409423828125 8.410295486450195 0.2054315209388733
6.35610294342041 8.409602165222168 0.2044483721256256
6.321841239929199 8.401521682739258 0.2036907821893692
6.2943596839904785 8.401230812072754 0.20272544026374817
6.262102127075195 8.39442253112793 0.2016080915927887
6.240475654602051 8.402825355529785 0.20085015892982483
6.195451736450195 8.378469467163086 0.19932420551776886
6.149726390838623 8.390317916870117 0.19771794974803925
6.118505477905273 8.384156227111816 0.1966392993927002
6.090379238128662 8.38316535949707 0.195906862616539
6.056752681732178 8.373366355895996 0.19394820928573608
6.029806137084961 8.372647285461426 0.19341346621513367
6.001253128051758 8.370649337768555 0.19244077801704407
5.978206634521484 8.375152587890625 0.1916302889585495
5.949789524078369 8.372028350830078 0.19064927101135254
5.914325714111328 8.359889030456543 0.18945994973182678
5.887033462524414 8.358044624328613 0.18851569294929504
5.864067077636719 8.362245559692383 0.18771231174468994
5.829540252685547 8.350902557373047 0.18655645847320557
5.802889823913574 8.349588394165039 0.18563753366470337
5.778779983520508 8.352916717529297 0.18481534719467163
5.75475549697876 8.355195999145508 0.18398258090019226
5.716211795806885 8.336213111877441 0.18268555402755737
5.6957855224609375 8.344589233398438 0.1819850653409958
5.668473243713379 8.341699600219727 0.18127185106277466
5.63463020324707 8.329025268554688 0.18051987886428833
5.612667083740234 8.334868431091309 0.179772287607193
5.572530746459961 8.312446594238281 0.17842912673950195
5.559508800506592 8.33144760131836 0.17796924710273743
5.527503967285156 8.320831298828125 0.1768876016139984
5.505579471588135 8.325260162353516 0.17612865567207336
5.472957134246826 8.314480781555176 0.17504578828811646
5.453205108642578 8.322025299072266 0.17435720562934875
5.418529033660889 8.306658744812012 0.17319470643997192
5.3942790031433105 8.30821418762207 0.1719973385334015
5.37004280090332 8.308585166931152 0.17116780579090118
5.3431806564331055 8.304777145385742 0.17025919258594513
5.316363334655762 8.302018165588379 0.16936630010604858
5.2928466796875 8.303186416625977 0.16856490075588226
5.26833963394165 8.302702903747559 0.1677321493625641
5.2442851066589355 8.303953170776367 0.16693086922168732
5.2144880294799805 8.294848442077637 0.16593143343925476
5.188150882720947 8.291496276855469 0.165049210190773
5.167189598083496 8.296954154968262 0.16472429037094116
5.132810115814209 8.279994010925293 0.16358107328414917
5.114470481872559 8.289901733398438 0.1629665046930313
5.085378646850586 8.281155586242676 0.16220811009407043
5.055379867553711 8.270745277404785 0.161206915974617
5.033965110778809 8.275384902954102 0.16049449145793915
5.009319305419922 8.273489952087402 0.1596662402153015
4.984107971191406 8.270540237426758 0.15881961584091187
4.956563472747803 8.264719009399414 0.15791679918766022
4.931392669677734 8.261569023132324 0.15707311034202576
4.909285068511963 8.263448715209961 0.1563265025615692
4.88881778717041 8.269174575805664 0.15565195679664612
4.861968994140625 8.26285457611084 0.15475764870643616
4.839346885681152 8.26401424407959 0.15400221943855286
4.809906005859375 8.253705978393555 0.15303802490234375
4.789209365844727 8.257533073425293 0.1523410677909851
4.762352466583252 8.251794815063477 0.1514662653207779
5.343282699584961 -10.107471466064453 0.1830342710018158
5.360015392303467 -10.086912155151367 0.18401247262954712
5.383418083190918 -10.080413818359375 0.1847945600748062
5.404906749725342 -10.070304870605469 0.18551218509674072
5.429909706115723 -10.065228462219238 0.1863296627998352
5.453096389770508 -10.058201789855957 0.18710722029209137
5.476477146148682 -10.050960540771484 0.18788456916809082
5.499358654022217 -10.042363166809082 0.18863925337791443
5.5512518882751465 -10.08737850189209 0.189507395029068
5.578667163848877 -10.086126327514648 0.19041098654270172
5.607233047485352 -10.088287353515625 0.1918252408504486
5.631723403930664 -10.083014488220215 0.19265222549438477
5.666847229003906 -10.095183372497559 0.19382277131080627
5.691742420196533 -10.090418815612793 0.19466447830200195
5.709896564483643 -10.07369327545166 0.19527728855609894
5.745699882507324 -10.086569786071777 0.19647282361984253
5.772118091583252 -10.084232330322266 0.19736941158771515
5.792531967163086 -10.071362495422363 0.19806179404258728
5.824314117431641 -10.076750755310059 0.19912295043468475
5.85147762298584 -10.075430870056152 0.20004680752754211
5.886529922485352 -10.087013244628906 0.20123514533042908
5.90695858001709 -10.073038101196289 0.20191791653633118
5.932074546813965 -10.067930221557617 0.20277553796768188
5.99427604675293 -10.076231956481934 0.2048806995153427
6.020176887512207 -10.071637153625488 0.2057603895664215
6.075671672821045 -10.068458557128906 0.20764923095703125
6.103001594543457 -10.065964698791504 0.20857995748519897
6.15925407409668 -10.063405990600586 0.21004058420658112
6.189525604248047 -10.065393447875977 0.21107417345046997
6.240644454956055 -10.053884506225586 0.21236291527748108
6.416477680206299 -10.052349090576172 0.21838942170143127
6.493776798248291 -10.03380012512207 0.2210582196712494
6.584772109985352 -10.03466796875 0.22392399609088898
6.667806625366211 -10.023261070251465 0.22680547833442688
6.785651206970215 -10.017744064331055 0.230911523103714
6.809669494628906 -10.007933616638184 0.23175300657749176
6.843128204345703 -10.011531829833984 0.2329115867614746
6.877037048339844 -10.016459465026855 0.2340996116399765
6.902031898498535 -10.007818222045898 0.23450389504432678
6.9337286949157715 -10.008438110351562 0.23560482263565063
6.958256721496582 -9.998979568481445 0.23646900057792664
6.999510765075684 -10.013044357299805 0.23789697885513306
7.028886318206787 -10.010762214660645 0.238935649394989
7.057175636291504 -10.006362915039062 0.23945382237434387
7.087056636810303 -10.003759384155273 0.24049822986125946
7.119133949279785 -10.00495719909668 0.2413601279258728
7.149367332458496 -10.00214672088623 0.24241086840629578
7.181687355041504 -10.003417015075684 0.2435542345046997
7.205707550048828 -9.993035316467285 0.24441729485988617
7.239507675170898 -9.994834899902344 0.24559254944324493
7.302278518676758 -9.993922233581543 0.24782425165176392
7.329323768615723 -9.986083984375 0.24877391755580902
7.3644561767578125 -9.990421295166016 0.25001999735832214
7.425601959228516 -9.985051155090332 0.2521856427192688
7.454809188842773 -9.98100471496582 0.25323426723480225
7.489258289337158 -9.983386993408203 0.25396835803985596
7.517927646636963 -9.977588653564453 0.25471147894859314
7.545629501342773 -9.971233367919922 0.25571194291114807
7.586765289306641 -9.981210708618164 0.2571483850479126
7.610709190368652 -9.969697952270508 0.2580240070819855
7.642417907714844 -9.968278884887695 0.25916409492492676
7.702502250671387 -9.959500312805176 0.2613145709037781
7.735383033752441 -9.958786010742188 0.2624908983707428
7.805299758911133 -9.96236801147461 0.26449695229530334
7.834009170532227 -9.955930709838867 0.26553577184677124
7.897581100463867 -9.95020580291748 0.2675383388996124
7.995875358581543 -9.945009231567383 0.2710825204849243
8.092146873474121 -9.936182022094727 0.2740713655948639
8.194372177124023 -9.932719230651855 0.27747440338134766
8.298018455505371 -9.930511474609375 0.2812352478504181
8.354963302612305 -9.91429328918457 0.2828386425971985
8.39280891418457 -9.91657829284668 0.28420290350914
8.455060005187988 -9.906017303466797 0.28671911358833313
8.499025344848633 -9.914999008178711 0.2882964313030243
8.557601928710938 -9.898661613464355 0.29046469926834106
8.596220016479492 -9.901724815368652 0.29136693477630615
8.635299682617188 -9.904703140258789 0.2927892804145813
8.670662879943848 -9.902917861938477 0.29408153891563416
8.705737113952637 -9.901443481445312 0.29508739709854126
8.741729736328125 -9.900429725646973 0.2964097261428833
8.764111518859863 -9.883584976196289 0.2972657084465027
8.802124977111816 -9.885053634643555 0.29866722226142883
8.83350658416748 -9.878503799438477 0.2993210256099701
8.877253532409668 -9.885286331176758 0.30090588331222534
8.905241012573242 -9.874713897705078 0.3016701340675354
8.954560279846191 -9.887290954589844 0.30344679951667786
8.97579574584961 -9.869497299194336 0.3042863607406616
9.01884651184082 -9.875146865844727 0.3058597445487976
9.050902366638184 -9.868268013000488 0.30653437972068787
9.092047691345215 -9.871923446655273 0.3080529570579529
9.125898361206055 -9.86629867553711 0.3093057870864868
9.196417808532715 -9.860127449035645 0.3116550147533417
9.239811897277832 -9.864320755004883 0.31323665380477905
9.30793285369873 -9.8543119430542 0.3160327672958374
9.336548805236816 -9.842839241027832 0.31712689995765686
9.383432388305664 -9.851240158081055 0.318324476480484
9.419252395629883 -9.847410202026367 0.31966984272003174
9.488574981689453 -9.837047576904297 0.32198864221572876
9.561714172363281 -9.829687118530273 0.3242034912109375
9.597847938537598 -9.825518608093262 0.3255680501461029
9.684623718261719 -9.831615447998047 0.328797310590744
9.712450981140137 -9.818591117858887 0.3295797109603882
9.783124923706055 -9.807083129882812 0.3317260146141052
9.832448959350586 -9.815702438354492 0.3335558772087097
9.903289794921875 -9.803499221801758 0.33595025539398193
10.01978874206543 -9.794877052307129 0.339826762676239
10.141430854797363 -9.789105415344238 0.34356701374053955
10.214887619018555 -9.778006553649902 0.3471873700618744
10.253366470336914 -9.773382186889648 0.34865862131118774
10.334168434143066 -9.7684326171875 0.3511985242366791
10.381410598754883 -9.771612167358398 0.3529730439186096
10.465242385864258 -9.768489837646484 0.35586708784103394
10.497955322265625 -9.757575035095215 0.35659295320510864
10.540536880493164 -9.756460189819336 0.35822856426239014
10.585030555725098 -9.755742073059082 0.3595913350582123
10.619356155395508 -9.74670124053955 0.3609483540058136
10.661181449890137 -9.743972778320312 0.3619965612888336
10.70999813079834 -9.747112274169922 0.36383745074272156
10.744739532470703 -9.738040924072266 0.36489421129226685
10.836563110351562 -9.73845386505127 0.3678303360939026
10.87479019165039 -9.731657981872559 0.3693256378173828
10.915021896362305 -9.726946830749512 0.370574951171875
10.948854446411133 -9.715644836425781 0.37191861867904663
10.98829174041748 -9.70952320098877 0.37289100885391235
11.051704406738281 -9.72402572631836 0.37524354457855225
11.079974174499512 -9.70818042755127 0.3760909140110016
11.133109092712402 -9.713537216186523 0.3781064748764038
11.183746337890625 -9.71615219116211 0.38060981035232544
11.207983016967773 -9.69603443145752 0.3816455602645874
11.257155418395996 -9.697039604187012 0.3835304379463196
11.307466506958008 -9.699573516845703 0.3845571279525757
11.348946571350098 -9.693914413452148 0.3861858546733856
11.392995834350586 -9.689953804016113 0.38790297508239746
11.432550430297852 -9.682782173156738 0.389477401971817
11.480575561523438 -9.682180404663086 0.3904205858707428
11.514293670654297 -9.669034004211426 0.39179062843322754
11.573443412780762 -9.67782211303711 0.3940395712852478
11.613714218139648 -9.670180320739746 0.3947182893753052
11.66497802734375 -9.671178817749023 0.39669203758239746
11.706928253173828 -9.66460132598877 0.39835572242736816
11.841894149780273 -9.651485443115234 0.40274229645729065
11.931267738342285 -9.640986442565918 0.4059309661388397
11.985591888427734 -9.643838882446289 0.407436728477478
12.06883430480957 -9.62736701965332 0.4107705354690552
12.222228050231934 -9.624626159667969 0.4158257842063904
12.312362670898438 -9.6118745803833 0.4196813106536865
12.36380386352539 -9.610803604125977 0.4217088222503662
12.455968856811523 -9.598567962646484 0.4244336187839508
12.513276100158691 -9.600632667541504 0.4266554117202759
12.609476089477539 -9.591124534606934 0.4295368790626526
12.658946990966797 -9.586573600769043 0.43150097131729126
12.702162742614746 -9.577448844909668 0.4332592487335205
12.747079849243164 -9.569889068603516 0.43411287665367126
12.80256462097168 -9.569290161132812 0.43628957867622375
12.851739883422852 -9.56410026550293 0.4382571876049042
12.9060640335083 -9.5621976852417 0.4394189417362213
12.952981948852539 -9.55494499206543 0.44132012128829956
12.989845275878906 -9.540578842163086 0.44288456439971924
13.049670219421387 -9.54211139678955 0.444231778383255
13.09351921081543 -9.53209400177002 0.4460340142250061
13.157116889953613 -9.53668212890625 0.44851794838905334
13.213857650756836 -9.535262107849121 0.449762761592865
13.259159088134766 -9.525728225708008 0.4516246020793915
13.314014434814453 -9.522526741027832 0.45380473136901855
13.367050170898438 -9.518590927124023 0.4549388885498047
13.420881271362305 -9.514566421508789 0.4570924639701843
13.45947265625 -9.499234199523926 0.4593716263771057
13.533690452575684 -9.5091552734375 0.46122363209724426
13.573537826538086 -9.494352340698242 0.4629083275794983
13.630348205566406 -9.492026329040527 0.46518775820732117
13.68178939819336 -9.48530101776123 0.46626222133636475
13.738384246826172 -9.481595993041992 0.46852806210517883
13.790998458862305 -9.475717544555664 0.47067323327064514
13.849313735961914 -9.473087310791016 0.47198286652565
13.901144027709961 -9.465462684631348 0.47409242391586304
13.967829704284668 -9.46805477142334 0.47634732723236084
14.02010726928711 -9.461088180541992 0.47783398628234863
14.129480361938477 -9.448537826538086 0.4812396764755249
14.24231243133545 -9.437431335449219 0.4854333996772766
14.304346084594727 -9.435876846313477 0.4872611165046692
14.456298828125 -9.406221389770508 0.4925141930580139
14.597494125366211 -9.41082763671875 0.49703603982925415
14.702805519104004 -9.391303062438965 0.5010125041007996
14.752935409545898 -9.380274772644043 0.50244140625
14.883100509643555 -9.375251770019531 0.507286548614502
14.940381050109863 -9.367273330688477 0.5089530944824219
15.06590461730957 -9.358628273010254 0.5136717557907104
15.121423721313477 -9.348869323730469 0.5152799487113953
15.19167423248291 -9.348320007324219 0.5177027583122253
15.247264862060547 -9.338960647583008 0.5193284153938293
15.303312301635742 -9.328855514526367 0.5216627717018127
15.365192413330078 -9.322434425354004 0.5238020420074463
15.427690505981445 -9.315786361694336 0.5256602764129639
15.495880126953125 -9.31266975402832 0.528020977973938
15.572301864624023 -9.314665794372559 0.5303664207458496
15.625190734863281 -9.301505088806152 0.5322047472000122
15.691240310668945 -9.296308517456055 0.5341931581497192
15.756422996520996 -9.29080581665039 0.5364651679992676
15.821060180664062 -9.283897399902344 0.5391225814819336
15.88593864440918 -9.277234077453613 0.5410736799240112
15.949841499328613 -9.269388198852539 0.5432977676391602
16.015213012695312 -9.262500762939453 0.5452733039855957
16.07866859436035 -9.254727363586426 0.5475012063980103
16.148719787597656 -9.249650955200195 0.5496319532394409
16.217464447021484 -9.243907928466797 0.5520384311676025
16.279102325439453 -9.233499526977539 0.5538831949234009
16.34825325012207 -9.227933883666992 0.5559989809989929
16.41797637939453 -9.221940040588379 0.5584455132484436
16.487686157226562 -9.215293884277344 0.5605682134628296
16.559011459350586 -9.209634780883789 0.5630763173103333
16.61865234375 -9.19770336151123 0.5648754239082336
16.686452865600586 -9.18919849395752 0.5676796436309814
16.754680633544922 -9.18102741241455 0.5693421959877014
16.902782440185547 -9.169836044311523 0.574233889579773
16.9705867767334 -9.161088943481445 0.5770683288574219
17.121158599853516 -9.14946460723877 0.5820599794387817
17.187108993530273 -9.138907432556152 0.5844144821166992
17.334495544433594 -9.123842239379883 0.5893105268478394
17.48208236694336 -9.107709884643555 0.5942226052284241
17.555343627929688 -9.099608421325684 0.5965063571929932
17.778615951538086 -9.073127746582031 0.6041305065155029
17.92089080810547 -9.051687240600586 0.6089023351669312
18.094898223876953 -9.044133186340332 0.6136204600334167
18.15488052368164 -9.026193618774414 0.6157958507537842
18.23686408996582 -9.01980209350586 0.6183896064758301
18.319482803344727 -9.012893676757812 0.6213458776473999
18.39328384399414 -9.000955581665039 0.6236540675163269
18.466917037963867 -8.989032745361328 0.6263120770454407
18.556270599365234 -8.984942436218262 0.6291631460189819
18.64347267150879 -8.978557586669922 0.6322848796844482
18.72671127319336 -8.970311164855957 0.6349244713783264
18.79619026184082 -8.954785346984863 0.6374500393867493
18.881954193115234 -8.947105407714844 0.6401808261871338
18.965660095214844 -8.938621520996094 0.6432061791419983
19.05134391784668 -8.929829597473145 0.6454702615737915
19.15251922607422 -8.928306579589844 0.6487303972244263
19.218521118164062 -8.909662246704102 0.6511512398719788
19.304729461669922 -8.901005744934082 0.6539143323898315
