VERSION .7
FIELDS x y z
SIZE 4 4 4
TYPE F F F
COUNT 1 1 1
WIDTH 841
HEIGHT 1
VIEWPOINT 0 0 0 1 0 0 0
POINTS 841
DATA ascii
20.356340408325195 2.1047120094299316 0.0526035837829113
20.3447322845459 2.1461915969848633 0.05258595943450928
20.32793617248535 2.188338041305542 0.052554599940776825
20.32819175720215 2.231048822402954 0.0525675043463707
20.321516036987305 2.2730050086975098 0.05256248265504837
20.31768226623535 2.316533327102661 0.052565138787031174
20.297786712646484 2.3569445610046387 0.052525997161865234
20.295658111572266 2.39939284324646 0.052532657980918884
20.287660598754883 2.4424033164978027 0.052525606006383896
20.285961151123047 2.484917163848877 0.05253352224826813
20.264074325561523 2.526185989379883 0.052492816001176834
20.277223587036133 2.5705692768096924 0.051638394594192505
20.24734115600586 2.609484910964966 0.051578015089035034
20.23541831970215 2.6519060134887695 0.05156251788139343
20.228113174438477 2.6936583518981934 0.05155811831355095
20.223583221435547 2.7361292839050293 0.05155886709690094
20.218467712402344 2.7790820598602295 0.051560841500759125
20.20387840270996 2.819808006286621 0.051539093255996704
20.213703155517578 2.8652141094207764 0.051578305661678314
20.193058013916016 2.905047655105591 0.0518890880048275
20.17166519165039 2.944709062576294 0.05184873566031456
20.17076301574707 2.988598585128784 0.051861293613910675
20.149850845336914 3.0282464027404785 0.05182232707738876
20.138900756835938 3.069350004196167 0.05181225389242172
20.12057876586914 3.1105525493621826 0.05178200826048851
20.112804412841797 3.152099847793579 0.051778703927993774
20.072328567504883 3.18879771232605 0.051694028079509735
20.049179077148438 3.2286956310272217 0.05165109783411026
20.005115509033203 3.26420521736145 0.051556508988142014
19.99466323852539 3.306365728378296 0.05154407024383545
19.95485496520996 3.3423399925231934 0.05146045237779617
19.950538635253906 3.3841943740844727 0.05146675929427147
19.920862197875977 3.422956943511963 0.05140918120741844
19.91063690185547 3.4637532234191895 0.05139773339033127
19.88943862915039 3.5038564205169678 0.0513637438416481
19.863941192626953 3.5418808460235596 0.051318056881427765
19.796968460083008 3.572343587875366 0.05116589367389679
19.75925064086914 3.6091387271881104 0.051086507737636566
19.704612731933594 3.641430377960205 0.05096403509378433
19.689849853515625 3.680974006652832 0.05094745755195618
19.66082191467285 3.7190327644348145 0.050890546292066574
19.626684188842773 3.7547783851623535 0.050825007259845734
19.579219818115234 3.8312416076660156 0.05229857563972473
19.549060821533203 3.867478847503662 0.052239347249269485
19.543100357055664 3.909700870513916 0.05224636197090149
19.498348236083984 3.942847728729248 0.05214765667915344
19.49566650390625 3.9844346046447754 0.05216052383184433
19.4588565826416 4.020235538482666 0.052086759358644485
19.424104690551758 4.055102825164795 0.05168048292398453
19.412353515625 4.095052719116211 0.051668550819158554
19.397525787353516 4.134881496429443 0.05165032297372818
19.35793113708496 4.168456554412842 0.05157114192843437
19.344728469848633 4.208874702453613 0.05155903846025467
19.328062057495117 4.247276306152344 0.05153636634349823
19.3214111328125 4.287865161895752 0.051542021334171295
19.27476692199707 4.320737838745117 0.05144473910331726
19.27249526977539 4.362252235412598 0.0514608696103096
19.245147705078125 4.398065567016602 0.05141027271747589
19.212249755859375 4.433753967285156 0.051350049674510956
19.187931060791016 4.470101356506348 0.05130888521671295
19.157493591308594 4.50617790222168 0.0512530580163002
19.135786056518555 4.543000221252441 0.0512201189994812
19.110301971435547 4.57886266708374 0.05117885023355484
19.082916259765625 4.615429401397705 0.05112982541322708
19.077247619628906 4.655984401702881 0.051139071583747864
19.047801971435547 4.691044330596924 0.05108950287103653
19.04224967956543 4.7325029373168945 0.05349484086036682
18.998897552490234 4.763611316680908 0.053400613367557526
18.976337432861328 4.801064968109131 0.05336591601371765
18.959501266479492 4.838689804077148 0.05334743857383728
18.938892364501953 4.875314712524414 0.05331525206565857
18.896629333496094 4.907501697540283 0.053229182958602905
18.891469955444336 4.948031425476074 0.05324166268110275
18.86202621459961 4.982170104980469 0.053188204765319824
18.820541381835938 5.014246940612793 0.05310222506523132
18.816303253173828 5.054960250854492 0.05311814323067665
18.788578033447266 5.089681625366211 0.05307149514555931
18.74591827392578 5.120793342590332 0.052981339395046234
18.7349853515625 5.159610271453857 0.052980635315179825
18.727920532226562 5.200730800628662 0.052990056574344635
18.694683074951172 5.233312129974365 0.052926525473594666
18.667757034301758 5.267574310302734 0.052880607545375824
18.650346755981445 5.305700778961182 0.052863944321870804
18.625083923339844 5.340317726135254 0.052822716534137726
18.6049861907959 5.377593517303467 0.0527990460395813
18.567855834960938 5.408637046813965 0.05272678658366203
18.563491821289062 5.449183464050293 0.05274569243192673
18.527599334716797 5.481662750244141 0.052675843238830566
18.52227020263672 5.521914958953857 0.05269236117601395
18.485145568847656 5.552642822265625 0.05262105166912079
18.474002838134766 5.592349052429199 0.053801216185092926
18.44614028930664 5.625727653503418 0.0540831983089447
18.38633918762207 5.692233562469482 0.05364977568387985
18.382579803466797 5.732901096343994 0.05399928614497185
18.35122299194336 5.766166687011719 0.05361771583557129
18.3360595703125 5.80323600769043 0.05360747128725052
18.290485382080078 5.830597877502441 0.053509484976530075
18.278087615966797 5.869688987731934 0.05350973457098007
18.25632095336914 5.904519557952881 0.053479183465242386
18.236557006835938 5.940300941467285 0.05345826596021652
18.219663619995117 5.977537155151367 0.05344507470726967
18.218839645385742 6.0191731452941895 0.053479183465242386
18.168045043945312 6.045468330383301 0.053369443863630295
18.15656089782715 6.083526611328125 0.05337005853652954
18.128192901611328 6.115893363952637 0.05332551896572113
18.118846893310547 6.1558837890625 0.053337451070547104
18.073728561401367 6.182419776916504 0.05324222892522812
18.07623291015625 6.225207805633545 0.0532858669757843
18.04097557067871 6.2562079429626465 0.05322098731994629
18.027103424072266 6.293335437774658 0.053218621760606766
18.003049850463867 6.328116416931152 0.05318716913461685
18.00020980834961 6.369117736816406 0.05321794003248215
17.946863174438477 6.392179489135742 0.053099967539310455
17.922622680664062 6.426721572875977 0.05539288371801376
17.917098999023438 6.466734886169434 0.05541657656431198
17.894315719604492 6.500858306884766 0.05538889765739441
17.86625099182129 6.5335564613342285 0.055343806743621826
17.84619903564453 6.568243026733398 0.05532452091574669
17.803403854370117 6.595710754394531 0.05523601919412613
17.780990600585938 6.6294026374816895 0.055210091173648834
17.753721237182617 6.661231994628906 0.055168554186820984
17.74220085144043 6.700181007385254 0.05517546460032463
17.725446701049805 6.7359161376953125 0.05516451224684715
17.723222732543945 6.777194976806641 0.05520127713680267
17.688705444335938 6.807343482971191 0.055139437317848206
17.64559555053711 6.832828521728516 0.05505097657442093
17.554779052734375 6.88281774520874 0.05486125126481056
17.467042922973633 6.89027214050293 0.05463920533657074
17.40776252746582 6.9098968505859375 0.05450887233018875
17.335092544555664 6.922728061676025 0.054330140352249146
17.271575927734375 6.938955307006836 0.05418022349476814
17.215669631958008 6.9592437744140625 0.05405479297041893
17.145687103271484 6.972383499145508 0.05388599634170532
16.973730087280273 6.985904693603516 0.05343872681260109
16.879730224609375 6.988213539123535 0.053189098834991455
16.790313720703125 6.99324893951416 0.053750231862068176
16.703594207763672 6.997842311859131 0.05351927876472473
16.61041831970215 6.999361515045166 0.05326854810118675
16.513025283813477 6.999898433685303 0.05300457775592804
16.45766830444336 7.016758441925049 0.0528721958398819
16.29744529724121 7.029705047607422 0.05245131254196167
16.211694717407227 7.032655239105225 0.052222833037376404
16.112394332885742 7.030512809753418 0.05225899815559387
16.0400333404541 7.038597583770752 0.051766153424978256
15.957540512084961 7.041927337646484 0.05154736712574959
15.883426666259766 7.049797534942627 0.05135488510131836
15.797900199890137 7.051115036010742 0.05142596736550331
15.716102600097656 7.054081439971924 0.05120663344860077
15.654312133789062 7.06623649597168 0.051054298877716064
15.582304000854492 7.072694778442383 0.05086756497621536
15.493700981140137 7.072434425354004 0.05062715709209442
15.430325508117676 7.082235336303711 0.0504685714840889
15.350606918334961 7.0842485427856445 0.050258345901966095
15.270133972167969 7.0867180824279785 0.050043076276779175
15.186944961547852 7.086451530456543 0.04982047900557518
15.129714965820312 7.09801721572876 0.049679212272167206
15.054693222045898 7.1020989418029785 0.05020955950021744
14.972956657409668 7.101564407348633 0.049986664205789566
14.918739318847656 7.114927291870117 0.04884786903858185
14.837984085083008 7.1142473220825195 0.04863135144114494
14.76123332977295 7.11515998840332 0.04842880740761757
14.696556091308594 7.122714042663574 0.0482652373611927
14.630732536315918 7.128344535827637 0.048809491097927094
14.555898666381836 7.129611492156982 0.04861074313521385
14.497865676879883 7.139314651489258 0.04846670851111412
14.420394897460938 7.1383867263793945 0.0482567697763443
14.356294631958008 7.144878387451172 0.048092808574438095
14.282532691955566 7.1451873779296875 0.04789624363183975
14.20956039428711 7.145586967468262 0.04769975692033768
14.150531768798828 7.153817176818848 0.047553397715091705
14.097203254699707 7.163625717163086 0.047424811869859695
14.014948844909668 7.15846061706543 0.04719747602939606
13.95284652709961 7.164363861083984 0.04704054817557335
13.887537002563477 7.1672868728637695 0.04686936363577843
13.76636791229248 7.178330421447754 0.046562496572732925
13.71415901184082 7.187342166900635 0.04643495753407478
13.637127876281738 7.184147834777832 0.04649405926465988
13.585128784179688 7.192809104919434 0.0463687926530838
13.510759353637695 7.189370155334473 0.04616433382034302
13.460978507995605 7.1998209953308105 0.04604643955826759
13.395258903503418 7.200459957122803 0.04587256908416748
13.281245231628418 7.211431503295898 0.045323241502046585
13.231990814208984 7.220281600952148 0.04520738124847412
13.159830093383789 7.217432022094727 0.04501441866159439
13.103229522705078 7.221800804138184 0.044871438294649124
13.036423683166504 7.220293045043945 0.044694140553474426
13.00047492980957 7.236716270446777 0.04462342709302902
12.938337326049805 7.237337112426758 0.04446081817150116
12.864952087402344 7.2316741943359375 0.04426261782646179
12.805628776550293 7.234076023101807 0.04410979151725769
12.75869369506836 7.242528438568115 0.04399999976158142
12.700543403625488 7.2454376220703125 0.04385218024253845
12.651905059814453 7.252532005310059 0.043735671788454056
12.590837478637695 7.252281188964844 0.04357728362083435
12.531489372253418 7.253791809082031 0.043426014482975006
12.478524208068848 7.257746696472168 0.04329412430524826
12.426204681396484 7.261868476867676 0.043163832277059555
12.365307807922363 7.261761665344238 0.04300660640001297
12.322819709777832 7.271243572235107 0.04353589937090874
12.247319221496582 7.262010097503662 0.0433247871696949
12.21847915649414 7.279223442077637 0.04352254420518875
12.151294708251953 7.273406028747559 0.04333660751581192
12.114166259765625 7.286376953125 0.043259233236312866
12.050820350646973 7.282374382019043 0.04284335672855377
12.006317138671875 7.290254592895508 0.04212673008441925
11.956327438354492 7.294188022613525 0.04200425744056702
11.910117149353027 7.299955368041992 0.04189559817314148
11.851816177368164 7.299097061157227 0.041745126247406006
11.808165550231934 7.306055068969727 0.04164515435695648
11.742337226867676 7.299064636230469 0.04146650806069374
11.703571319580078 7.309675216674805 0.041383665055036545
11.648431777954102 7.308884143829346 0.0412408709526062
11.603610038757324 7.314644813537598 0.04113819822669029
11.544855117797852 7.311835765838623 0.040985845029354095
11.493300437927246 7.31264591217041 0.0408562496304512
11.458230972290039 7.324765682220459 0.04078647866845131
11.413528442382812 7.329597473144531 0.04068105295300484
11.354660034179688 7.325118064880371 0.04135020077228546
11.306888580322266 7.328554153442383 0.04123392701148987
11.257299423217773 7.32963228225708 0.04110877215862274
11.2081937789917 7.330824851989746 0.04098527505993843
11.148758888244629 7.326003074645996 0.04082568734884262
11.120288848876953 7.340382099151611 0.040775202214717865
11.023780822753906 7.343518257141113 0.040535300970077515
10.984880447387695 7.35056209564209 0.040447916835546494
10.933764457702637 7.350221157073975 0.04031829163432121
10.882264137268066 7.348434925079346 0.03995606303215027
10.84579086303711 7.356621742248535 0.039878834038972855
10.799506187438965 7.358960151672363 0.03976498544216156
10.744668960571289 7.354290008544922 0.03962063416838646
10.659004211425781 7.3617658615112305 0.03941939026117325
10.613757133483887 7.363095283508301 0.039307497441768646
10.57351303100586 7.368683815002441 0.039218127727508545
10.518135070800781 7.3625664710998535 0.03929237276315689
10.502754211425781 7.384321212768555 0.039290908724069595
10.44205093383789 7.375026702880859 0.03912312537431717
10.400455474853516 7.378044605255127 0.03902551159262657
10.349601745605469 7.374573707580566 0.03889184817671776
10.324932098388672 7.390028953552246 0.039410803467035294
10.26917839050293 7.3824005126953125 0.039257604628801346
10.227882385253906 7.385904312133789 0.03915950655937195
10.181361198425293 7.384504795074463 0.03903989866375923
10.15875244140625 7.400325775146484 0.03901168704032898
10.103189468383789 7.392937660217285 0.038859520107507706
10.05605411529541 7.390538215637207 0.03873734921216965
10.016120910644531 7.393250465393066 0.038643088191747665
9.98553466796875 7.403680324554443 0.03858593478798866
9.933394432067871 7.397017002105713 0.038659609854221344
9.90198040008545 7.406558513641357 0.03859739005565643
9.862059593200684 7.408663272857666 0.03828711435198784
9.818381309509277 7.407774925231934 0.03817769140005112
9.769680976867676 7.403834819793701 0.03804927319288254
9.726662635803223 7.403061389923096 0.038154467940330505
9.702980041503906 7.416886806488037 0.03812152147293091
9.667004585266113 7.422157287597656 0.038043685257434845
9.610573768615723 7.410582542419434 0.038410887122154236
9.579751014709473 7.419502258300781 0.03835003823041916
9.547420501708984 7.426209449768066 0.038283929228782654
9.51162052154541 7.430095672607422 0.03820113092660904
9.461459159851074 7.423511505126953 0.038063809275627136
9.431464195251465 7.431650161743164 0.038003720343112946
9.38551139831543 7.427062034606934 0.03788171708583832
9.356046676635742 7.436302661895752 0.03782668709754944
9.30993366241455 7.4312286376953125 0.03770257160067558
9.280466079711914 7.440218925476074 0.0378548800945282
9.24150562286377 7.440540790557861 0.03775818273425102
9.203839302062988 7.44174861907959 0.03818376734852791
9.164799690246582 7.4426164627075195 0.03808766230940819
9.138364791870117 7.452672958374023 0.03804253041744232
9.09116268157959 7.445644378662109 0.03791050240397453
9.060619354248047 7.453025817871094 0.03784913569688797
9.019603729248047 7.450722694396973 0.03774160146713257
8.945384979248047 7.453014850616455 0.03756207227706909
8.911996841430664 7.456583023071289 0.038196861743927
8.874908447265625 7.457840919494629 0.03810529410839081
8.842365264892578 7.461855888366699 0.03803312033414841
8.800546646118164 7.457888603210449 0.037919703871011734
8.772422790527344 7.466313362121582 0.03786705434322357
8.74244213104248 7.472135543823242 0.037804603576660156
8.666135787963867 7.470302581787109 0.037610121071338654
8.637821197509766 7.47719669342041 0.03755442053079605
8.596607208251953 7.4737043380737305 0.03794151172041893
8.560144424438477 7.4732513427734375 0.03784869238734245
8.519021987915039 7.468559741973877 0.037933267652988434
8.5009765625 7.484916687011719 0.03792347386479378
8.455029487609863 7.475666522979736 0.03778791055083275
8.429086685180664 7.484216690063477 0.037741802632808685
8.393107414245605 7.484132766723633 0.03765146806836128
8.360101699829102 7.485902786254883 0.03757258504629135
8.325594902038574 7.4871110916137695 0.037490151822566986
8.295342445373535 7.491100311279297 0.03742297366261482
8.262067794799805 7.4922380447387695 0.03782990202307701
8.236248970031738 7.500949859619141 0.037784676998853683
8.188328742980957 7.488452911376953 0.0378296822309494
8.169507026672363 7.502431869506836 0.03781358152627945
8.132384300231934 7.500426769256592 0.03790828585624695
8.103452682495117 7.504924297332764 0.03832803666591644
8.057853698730469 7.494734287261963 0.03818939998745918
8.03803539276123 7.507472515106201 0.03816891461610794
7.996942520141602 7.500225067138672 0.038047969341278076
7.969780921936035 7.5068159103393555 0.03818533569574356
7.933710098266602 7.503972053527832 0.03808632493019104
7.9173784255981445 7.51971435546875 0.03808443993330002
7.868025779724121 7.504875183105469 0.03839728236198425
7.8472394943237305 7.516210556030273 0.03837224468588829
7.805638790130615 7.508140563964844 0.03824612870812416
7.786411285400391 7.521079063415527 0.03822920843958855
7.738059043884277 7.5054779052734375 0.03806806355714798
7.714071750640869 7.514259338378906 0.03802812099456787
7.681058883666992 7.5132293701171875 0.03794262930750847
7.662807464599609 7.526556015014648 0.03811725601553917
7.621302604675293 7.517844200134277 0.0379909873008728
7.600629806518555 7.528636932373047 0.03843109309673309
7.565371513366699 7.5257978439331055 0.038334548473358154
7.535144805908203 7.526905059814453 0.038260746747255325
7.501931190490723 7.524893760681152 0.03817088156938553
7.471414566040039 7.526371955871582 0.03809681534767151
7.440146446228027 7.5260467529296875 0.03801809623837471
7.406015396118164 7.522680282592773 0.037923362106084824
7.380199432373047 7.528560638427734 0.0382394939661026
7.360926628112793 7.540138244628906 0.03913988173007965
7.314404487609863 7.523654937744141 0.03897671774029732
7.308648109436035 7.549936771392822 0.03921402245759964
7.270796775817871 7.542093276977539 0.03909430280327797
7.241510391235352 7.543900012969971 0.03902415186166763
7.205427169799805 7.537557601928711 0.03891388699412346
7.183082103729248 7.545467853546143 0.03887888044118881
7.161378860473633 7.554922103881836 0.038846712559461594
7.1235504150390625 7.546318054199219 0.03872792050242424
7.072360992431641 7.555584907531738 0.039254188537597656
7.04148006439209 7.553953170776367 0.0391693040728569
7.0171051025390625 7.560120105743408 0.03912314027547836
6.97589111328125 7.5470662117004395 0.038980185985565186
6.964932918548584 7.566652774810791 0.03900647163391113
6.925709247589111 7.556371212005615 0.03887972980737686
6.896239757537842 7.555637359619141 0.03880041092634201
6.868013858795166 7.556144714355469 0.03917478397488594
6.846396446228027 7.564766883850098 0.039142951369285583
6.8138628005981445 7.560294151306152 0.03922491520643234
6.794217109680176 7.570955276489258 0.03920392319560051
6.753979682922363 7.557610034942627 0.039062947034835815
6.744283676147461 7.578354358673096 0.039097025990486145
6.708093643188477 7.5701904296875 0.03933531790971756
6.680426597595215 7.570560455322266 0.040142904967069626
6.661199569702148 7.580422401428223 0.04012173414230347
6.630404472351074 7.577962398529053 0.04003611207008362
6.598296642303467 7.572919845581055 0.039936140179634094
6.572906017303467 7.575728416442871 0.039878375828266144
6.545799255371094 7.576859474182129 0.039811719208955765
6.519259452819824 7.5778703689575195 0.039919570088386536
6.49046516418457 7.577080249786377 0.04027732089161873
6.4653639793396 7.579556465148926 0.04022054374217987
6.4413533210754395 7.583223342895508 0.04016824811697006
6.4209885597229 7.592059135437012 0.040141478180885315
6.383522987365723 7.5796051025390625 0.040005650371313095
6.367774963378906 7.593501091003418 0.04000803828239441
6.3381571769714355 7.59038782119751 0.03992137312889099
6.307121753692627 7.585159778594971 0.039997950196266174
6.284025192260742 7.59030818939209 0.040382836014032364
6.267131805419922 7.601963520050049 0.0403750017285347
6.228635787963867 7.5872931480407715 0.040229570120573044
6.208302021026611 7.595550537109375 0.04020210728049278
6.185739517211914 7.600079536437988 0.04015786945819855
6.162017345428467 7.6040544509887695 0.04011029377579689
6.135693073272705 7.6037750244140625 0.040040384978055954
6.116781234741211 7.612608909606934 0.04061686247587204
6.07710599899292 7.596409797668457 0.040631625801324844
6.061468124389648 7.609179496765137 0.04105544090270996
6.030524253845215 7.602655410766602 0.040952280163764954
6.0099310874938965 7.6100263595581055 0.040923550724983215
5.985776901245117 7.6118645668029785 0.040865086019039154
5.96632194519043 7.6196136474609375 0.04143177345395088
5.932939529418945 7.610417366027832 0.04131333902478218
5.906145095825195 7.608557224273682 0.04123608022928238
5.884141445159912 7.613734245300293 0.04119657352566719
5.870296001434326 7.62848424911499 0.041210055351257324
5.83274507522583 7.612318992614746 0.04105764627456665
5.814302921295166 7.621920585632324 0.041041433811187744
5.788673400878906 7.621068000793457 0.04097297415137291
5.735212326049805 7.617071151733398 0.041401974856853485
5.722741603851318 7.6334228515625 0.0414268933236599
5.681597709655762 7.612092971801758 0.041246749460697174
5.660632133483887 7.617205619812012 0.04120985418558121
5.640498161315918 7.623106002807617 0.04117709398269653
5.624795913696289 7.635947227478027 0.04118197038769722
5.58671236038208 7.617297172546387 0.04159567877650261
5.569907188415527 7.627525329589844 0.04158773273229599
5.539772033691406 7.62038516998291 0.041484612971544266
5.529540061950684 7.639593124389648 0.04152633622288704
5.497161865234375 7.629118919372559 0.041570279747247696
5.477512836456299 7.635206699371338 0.04194893687963486
5.458897590637207 7.642694473266602 0.04192895069718361
5.438422679901123 7.648520469665527 0.04230595752596855
5.402738094329834 7.6318206787109375 0.04215214401483536
5.388903617858887 7.645874977111816 0.0423300638794899
5.36340856552124 7.6443281173706055 0.042257487773895264
5.340532302856445 7.645419120788574 0.042203716933727264
5.3134989738464355 7.640442848205566 0.042113836854696274
5.3041582107543945 7.661879062652588 0.04216963052749634
5.273059844970703 7.6508331298828125 0.04245462641119957
5.2475080490112305 7.648676872253418 0.04238128662109375
5.227597236633301 7.6536545753479 0.04234687238931656
5.208407402038574 7.659639835357666 0.04248202592134476
5.178529739379883 7.65079927444458 0.042371708899736404
5.156101226806641 7.651822090148926 0.04231827333569527
5.128262519836426 7.645414352416992 0.04222211241722107
5.119454383850098 7.666915416717529 0.04268408566713333
5.091517448425293 7.659447193145752 0.04258342832326889
5.0746750831604 7.669598579406738 0.042578842490911484
5.041839599609375 7.654441833496094 0.042596541345119476
5.030172348022461 7.671335697174072 0.042631130665540695
5.000310897827148 7.66143798828125 0.04251779615879059
4.985078811645508 7.672840595245361 0.04252463951706886
4.956357955932617 7.663397312164307 0.042812928557395935
4.941106796264648 7.675724983215332 0.0428217314183712
4.91936731338501 7.676910400390625 0.04277116432785988
4.8988447189331055 7.680954933166504 0.04329080134630203
4.866507530212402 7.665292739868164 0.04314710572361946
4.851733684539795 7.67718505859375 0.04315603896975517
4.831822872161865 7.681968688964844 0.043125055730342865
4.809019565582275 7.681035041809082 0.043064553290605545
4.779960632324219 7.669963359832764 0.042946938425302505
4.765316009521484 7.682980537414551 0.0433562733232975
4.740082740783691 7.677823066711426 0.04342899098992348
4.722294330596924 7.6856913566589355 0.04341662675142288
4.69677209854126 7.679838180541992 0.043328143656253815
4.673383712768555 7.67734432220459 0.04325959086418152
4.656466960906982 7.68647575378418 0.04325345903635025
4.639000415802002 7.693625450134277 0.04324009269475937
4.611506462097168 7.684042930603027 0.04367947578430176
4.592928409576416 7.690272331237793 0.04365932196378708
4.566701889038086 7.682530403137207 0.04356164485216141
4.546429634094238 7.685453414916992 0.04352330416440964
4.5296311378479 7.693752765655518 0.043516598641872406
4.510397434234619 7.697574615478516 0.04348430782556534
4.481348514556885 7.6855926513671875 0.043751370161771774
4.465389251708984 7.694875240325928 0.04390648379921913
4.437047004699707 7.682716369628906 0.04362949728965759
4.430576324462891 7.709494590759277 0.04372761398553848
4.3986382484436035 7.690818786621094 0.04372505471110344
4.380193710327148 7.695894241333008 0.04370088875293732
4.359407424926758 7.697263717651367 0.04404130578041077
4.343488693237305 7.70640754699707 0.044042833149433136
4.31908655166626 7.701529502868652 0.04396185278892517
4.297168731689453 7.699856758117676 0.043901100754737854
4.269110679626465 7.687024116516113 0.043931394815444946
4.257028579711914 7.703995704650879 0.04397574067115784
4.232069969177246 7.696516036987305 0.04426615312695503
4.219044208526611 7.710681915283203 0.04429700970649719
4.197491645812988 7.710361480712891 0.044243521988391876
4.182412147521973 7.720773696899414 0.04425336420536041
4.150733470916748 7.701531887054443 0.044244516640901566
5.709881782531738 -10.070282936096191 0.07398675382137299
5.738558769226074 -10.070659637451172 0.07407929748296738
5.764591693878174 -10.067716598510742 0.07414549589157104
5.79248571395874 -10.067512512207031 0.07423310726881027
5.821779251098633 -10.069015502929688 0.07383003830909729
5.850843906402588 -10.070995330810547 0.07372800260782242
5.878881454467773 -10.070674896240234 0.07381594926118851
5.9099507331848145 -10.074812889099121 0.07393799722194672
5.9398088455200195 -10.077733993530273 0.07404939830303192
5.962437629699707 -10.066904067993164 0.07406328618526459
5.9845428466796875 -10.056571960449219 0.0740785077214241
6.018536567687988 -10.066102981567383 0.07373133301734924
6.046402931213379 -10.063837051391602 0.07360218465328217
6.07554817199707 -10.064973831176758 0.0737028643488884
6.096654891967773 -10.052329063415527 0.07370352745056152
6.1294403076171875 -10.058263778686523 0.0738416537642479
6.1542887687683105 -10.052038192749023 0.07388968765735626
6.17986536026001 -10.046538352966309 0.07394430786371231
6.205430507659912 -10.040371894836426 0.07348302751779556
6.237449645996094 -10.04550552368164 0.07340657711029053
6.267025947570801 -10.045190811157227 0.07371079921722412
6.294818878173828 -10.043270111083984 0.07379240542650223
6.317410469055176 -10.03298568725586 0.07381301373243332
6.3529438972473145 -10.041777610778809 0.07397736608982086
6.376466751098633 -10.032817840576172 0.0737992450594902
6.411829471588135 -10.041010856628418 0.07395994663238525
6.434665679931641 -10.030820846557617 0.07398295402526855
6.468849182128906 -10.038211822509766 0.073618084192276
6.493763446807861 -10.029753684997559 0.07365761697292328
6.525308609008789 -10.0327787399292 0.07377912104129791
6.5804219245910645 -10.02488899230957 0.07371297478675842
6.604855537414551 -10.016737937927246 0.07375337928533554
6.648065090179443 -10.035553932189941 0.07399661839008331
6.667044639587402 -10.018983840942383 0.07345375418663025
6.697973251342773 -10.020313262939453 0.07356525212526321
6.728564739227295 -10.019683837890625 0.07366598397493362
6.762254238128662 -10.024840354919434 0.07380691170692444
6.782077312469482 -10.008979797363281 0.07358121126890182
6.82397985458374 -10.025018692016602 0.07380564510822296
6.84476900100708 -10.010835647583008 0.07380564510822296
6.877904415130615 -10.014249801635742 0.07340914011001587
6.903248310089111 -10.005661010742188 0.07345322519540787
6.938541889190674 -10.01230239868164 0.07360753417015076
6.96295166015625 -10.001819610595703 0.0741683691740036
7.004305839538574 -10.016828536987305 0.07385700941085815
7.023275375366211 -9.99970531463623 0.07383805513381958
7.055093765258789 -9.99952220916748 0.07373207807540894
7.115246772766113 -9.995152473449707 0.07392030954360962
7.139743804931641 -9.985639572143555 0.07395906746387482
7.183768272399902 -10.00326919555664 0.07420020550489426
7.205061912536621 -9.98781967163086 0.07366485893726349
7.241281509399414 -9.994250297546387 0.07382296770811081
7.266810417175293 -9.985803604125977 0.07365423440933228
7.298781394958496 -9.984834671020508 0.07376164942979813
7.32942008972168 -9.983198165893555 0.07386203110218048
7.359010219573975 -9.979652404785156 0.073949433863163
7.386943340301514 -9.97322940826416 0.07401765882968903
7.426172256469727 -9.982812881469727 0.07420314848423004
7.452810287475586 -9.974059104919434 0.07371561229228973
7.486340522766113 -9.975690841674805 0.07362232357263565
7.5114593505859375 -9.96601676940918 0.07366593182086945
7.549724578857422 -9.972393035888672 0.07383240014314651
7.574977874755859 -9.96272087097168 0.07387673854827881
7.616621971130371 -9.974461555480957 0.07408126443624496
7.637860298156738 -9.958102226257324 0.07408034801483154
7.6754150390625 -9.964178085327148 0.07369790226221085
7.703377723693848 -9.957303047180176 0.07409126311540604
7.740823745727539 -9.962024688720703 0.07424797862768173
7.768345355987549 -9.954736709594727 0.07376540452241898
7.797126770019531 -9.947731018066406 0.07383672147989273
7.836825847625732 -9.955759048461914 0.0740170031785965
7.871462821960449 -9.957176208496094 0.07414881885051727
7.895489692687988 -9.943831443786621 0.07395105063915253
7.937460899353027 -9.954202651977539 0.07415052503347397
7.965857028961182 -9.946151733398438 0.07421716302633286
8.002700805664062 -9.949766159057617 0.0738133043050766
8.026729583740234 -9.937346458435059 0.07384487986564636
8.059671401977539 -9.934636116027832 0.07395222038030624
8.09798526763916 -9.939634323120117 0.07411465048789978
8.1268892288208 -9.93294620513916 0.07396328449249268
8.16392993927002 -9.934837341308594 0.07410791516304016
8.197006225585938 -9.93299388885498 0.07422120124101639
8.266191482543945 -9.931336402893066 0.07390721142292023
8.298120498657227 -9.927722930908203 0.0740080177783966
8.340007781982422 -9.93463134765625 0.07419230788946152
8.371709823608398 -9.930473327636719 0.0740615651011467
8.404473304748535 -9.927459716796875 0.07416924834251404
8.434215545654297 -9.919543266296387 0.0742446631193161
8.47713565826416 -9.92819881439209 0.07444094866514206
8.49715805053711 -9.909930229187012 0.07443594932556152
8.539155960083008 -9.91596508026123 0.07461842149496078
8.5731782913208 -9.913790702819824 0.07416671514511108
8.618762969970703 -9.92444896697998 0.07414968311786652
8.634449005126953 -9.900066375732422 0.07410372793674469
8.674616813659668 -9.90455436706543 0.0742713212966919
8.716636657714844 -9.909740447998047 0.07445078343153
8.746286392211914 -9.901935577392578 0.074527308344841
8.778212547302246 -9.896613121032715 0.0746246948838234
8.816734313964844 -9.897370338439941 0.07419657707214355
8.850695610046387 -9.89408016204834 0.07407572865486145
8.885625839233398 -9.89052677154541 0.07419021427631378
8.922542572021484 -9.890256881713867 0.0743277370929718
8.960258483886719 -9.890716552734375 0.07447045296430588
8.998212814331055 -9.890069007873535 0.07461021840572357
9.030149459838867 -9.883888244628906 0.07470417022705078
9.068092346191406 -9.884147644042969 0.07484912872314453
9.104569435119629 -9.881450653076172 0.0743924155831337
9.134937286376953 -9.873214721679688 0.07423567026853561
9.173635482788086 -9.873510360717773 0.07438188791275024
9.213769912719727 -9.874669075012207 0.07453799247741699
9.25255012512207 -9.875066757202148 0.07468554377555847
9.27536678314209 -9.857131004333496 0.0746992751955986
9.323617935180664 -9.867300033569336 0.07468423247337341
9.359750747680664 -9.864450454711914 0.07421910762786865
9.393840789794922 -9.85811710357666 0.07432164251804352
9.421630859375 -9.846284866333008 0.07437971234321594
9.465147972106934 -9.85075855255127 0.07456167787313461
9.49966049194336 -9.844497680664062 0.0746680200099945
9.538010597229004 -9.843277931213379 0.07421355694532394
9.652786254882812 -9.837220191955566 0.07438142597675323
9.695212364196777 -9.838326454162598 0.07454574108123779
9.726951599121094 -9.829648971557617 0.07463328540325165
9.765605926513672 -9.827836990356445 0.07477308064699173
9.803169250488281 -9.823578834533691 0.07429727166891098
9.848190307617188 -9.827818870544434 0.0742385983467102
9.877500534057617 -9.815044403076172 0.07430130243301392
9.926137924194336 -9.82252025604248 0.07451426982879639
9.962220191955566 -9.817391395568848 0.07463113218545914
10.00189208984375 -9.814459800720215 0.0747717097401619
10.04132080078125 -9.81233024597168 0.07491375505924225
10.084339141845703 -9.813539505004883 0.0744718685746193
10.109687805175781 -9.796245574951172 0.07425574958324432
10.163982391357422 -9.808042526245117 0.0745057687163353
10.241735458374023 -9.8001127243042 0.07452249526977539
10.272926330566406 -9.789201736450195 0.07398514449596405
10.317651748657227 -9.789851188659668 0.0741567313671112
10.353052139282227 -9.782693862915039 0.07426512241363525
10.400178909301758 -9.786452293395996 0.0744573250412941
10.435138702392578 -9.777402877807617 0.07455818355083466
10.489757537841797 -9.787778854370117 0.07480311393737793
10.511878967285156 -9.767692565917969 0.07394011318683624
10.558736801147461 -9.76928424835205 0.07412267476320267
10.60710620880127 -9.773261070251465 0.0743202418088913
10.647117614746094 -9.769006729125977 0.07445687800645828
10.691168785095215 -9.767786979675293 0.07462038099765778
10.732949256896973 -9.765172958374023 0.07476983219385147
10.77338981628418 -9.759981155395508 0.07490663230419159
10.82217788696289 -9.763367652893066 0.07484797388315201
10.844391822814941 -9.742664337158203 0.0742284506559372
10.889355659484863 -9.74110221862793 0.07439359277486801
10.92850112915039 -9.735369682312012 0.07452289760112762
10.976381301879883 -9.736045837402344 0.07470709085464478
11.022488594055176 -9.736148834228516 0.07488328218460083
11.066394805908203 -9.734122276306152 0.07504449784755707
11.15382194519043 -9.72801399230957 0.0744551494717598
11.241838455200195 -9.721725463867188 0.07476930320262909
11.284521102905273 -9.717779159545898 0.07427173107862473
11.325576782226562 -9.711929321289062 0.07440825551748276
11.419530868530273 -9.709686279296875 0.0744936391711235
11.459464073181152 -9.7015380859375 0.07461847364902496
11.504003524780273 -9.698332786560059 0.0747775286436081
11.545380592346191 -9.692299842834473 0.0749150961637497
11.602699279785156 -9.6982421875 0.07449571788311005
11.63363265991211 -9.683159828186035 0.07456497102975845
11.682509422302246 -9.682872772216797 0.07448194175958633
11.731398582458496 -9.681192398071289 0.07466210424900055
11.789395332336426 -9.687995910644531 0.07490287721157074
11.875465393066406 -9.675227165222168 0.07519077509641647
11.925970077514648 -9.675270080566406 0.0747162252664566
11.970992088317871 -9.669462203979492 0.07486860454082489
12.00510311126709 -9.655916213989258 0.07468519359827042
12.070796966552734 -9.667570114135742 0.0749688670039177
12.109683990478516 -9.65632438659668 0.07508186995983124
12.154163360595703 -9.650601387023926 0.07523372024297714
12.193619728088379 -9.640741348266602 0.07535390555858612
12.254027366638184 -9.646031379699707 0.07492198050022125
12.304031372070312 -9.644105911254883 0.0751054435968399
12.347278594970703 -9.635493278503418 0.0752435177564621
12.389771461486816 -9.627350807189941 0.07442305982112885
12.443304061889648 -9.627602577209473 0.07462422549724579
12.485074043273926 -9.617352485656738 0.07475128024816513
12.537246704101562 -9.6161527633667 0.07425783574581146
12.580723762512207 -9.607749938964844 0.07439610362052917
12.640427589416504 -9.61101245880127 0.07462857663631439
12.679888725280762 -9.599556922912598 0.07474377751350403
12.739426612854004 -9.601887702941895 0.07497365772724152
12.78430461883545 -9.59417724609375 0.07483905553817749
12.823141098022461 -9.581789016723633 0.07494961470365524
12.878046035766602 -9.580013275146484 0.07515111565589905
12.93706226348877 -9.582275390625 0.07467992603778839
12.975499153137207 -9.569109916687012 0.07478700578212738
13.04698371887207 -9.578866958618164 0.07508091628551483
13.079686164855957 -9.561165809631348 0.07515476644039154
13.139500617980957 -9.562763214111328 0.0750972181558609
13.187198638916016 -9.554803848266602 0.07525388151407242
13.238685607910156 -9.550276756286621 0.07543438673019409
13.292816162109375 -9.546217918395996 0.07491578906774521
13.355010986328125 -9.54893684387207 0.07515446096658707
13.403902053833008 -9.541922569274902 0.07531801611185074
13.445117950439453 -9.528050422668457 0.07543506473302841
13.50719165802002 -9.529995918273926 0.07538149505853653
13.564119338989258 -9.52806282043457 0.07588019967079163
13.609743118286133 -9.516757011413574 0.07530009746551514
13.66982364654541 -9.516590118408203 0.07523000240325928
13.727212905883789 -9.513071060180664 0.07543383538722992
13.787029266357422 -9.51223373413086 0.07492637634277344
13.831741333007812 -9.500776290893555 0.07506202161312103
13.887587547302246 -9.495536804199219 0.07525497674942017
13.944786071777344 -9.49223804473877 0.07545778155326843
14.01651668548584 -9.498200416564941 0.07573825865983963
14.055322647094727 -9.481107711791992 0.07554087042808533
14.118870735168457 -9.481401443481445 0.07577650994062424
14.173079490661621 -9.474828720092773 0.07522042840719223
14.23843765258789 -9.474934577941895 0.07546040415763855
14.283135414123535 -9.4619722366333 0.07559291273355484
14.338830947875977 -9.454856872558594 0.07578073441982269
14.395511627197266 -9.449427604675293 0.07597634941339493
14.465219497680664 -9.452290534973145 0.0762404128909111
14.499662399291992 -9.430658340454102 0.07601160556077957
14.577488899230957 -9.438285827636719 0.07556204497814178
14.678466796875 -9.416172981262207 0.07587957382202148
14.742208480834961 -9.41393756866455 0.07610772550106049
14.812650680541992 -9.414433479309082 0.07636725157499313
14.86556339263916 -9.404809951782227 0.07653917372226715
14.946359634399414 -9.412552833557129 0.07685452699661255
15.001846313476562 -9.402798652648926 0.07626670598983765
15.054645538330078 -9.392434120178223 0.07643653452396393
15.105230331420898 -9.380501747131348 0.07659453898668289
15.173237800598145 -9.377881050109863 0.07606320083141327
15.23492431640625 -9.372368812561035 0.07627308368682861
15.297645568847656 -9.365966796875 0.07648854702711105
15.358142852783203 -9.359245300292969 0.07637643069028854
15.41651439666748 -9.350997924804688 0.07657012343406677
15.477249145507812 -9.342667579650879 0.07677317410707474
15.597804069519043 -9.3269624710083 0.07717707008123398
15.673175811767578 -9.327009201049805 0.0766599029302597
15.734916687011719 -9.319589614868164 0.07686645537614822
15.794261932373047 -9.310144424438477 0.0767393410205841
15.860761642456055 -9.304120063781738 0.07696650177240372
15.920608520507812 -9.29487419128418 0.07716318219900131
15.982656478881836 -9.28537654876709 0.07736768573522568
16.04529571533203 -9.2772855758667 0.07757803797721863
16.116064071655273 -9.27363109588623 0.07701880484819412
16.1928768157959 -9.271842956542969 0.07729041576385498
16.254392623901367 -9.2623291015625 0.07749223709106445
16.315757751464844 -9.252119064331055 0.07736261934041977
16.399660110473633 -9.253833770751953 0.07766668498516083
16.461498260498047 -9.243741989135742 0.07820158451795578
16.524972915649414 -9.233009338378906 0.07758598774671555
16.601490020751953 -9.230607032775879 0.07785506546497345
16.665172576904297 -9.220792770385742 0.07806465029716492
16.736377716064453 -9.213546752929688 0.07830517739057541
16.80706787109375 -9.207066535949707 0.07854707539081573
16.880720138549805 -9.201922416687012 0.07880088686943054
16.942691802978516 -9.188810348510742 0.07866007089614868
17.004873275756836 -9.176918029785156 0.078021340072155
17.09339141845703 -9.177591323852539 0.07833600789308548
17.168237686157227 -9.171929359436035 0.0785917192697525
17.241474151611328 -9.165116310119629 0.07883867621421814
17.319900512695312 -9.159404754638672 0.07910886406898499
17.387290954589844 -9.148921012878418 0.07932839542627335
17.46916389465332 -9.145370483398438 0.07961584627628326
17.535104751586914 -9.132610321044922 0.07862094044685364
17.601476669311523 -9.120795249938965 0.07883325219154358
17.672954559326172 -9.110968589782715 0.07906866073608398
17.76144790649414 -9.1090087890625 0.07937722653150558
17.824832916259766 -9.094847679138184 0.07957606762647629
17.902637481689453 -9.086397171020508 0.07983675599098206
17.981792449951172 -9.079692840576172 0.08010496199131012
18.0610408782959 -9.072721481323242 0.08001881092786789
18.13023567199707 -9.059028625488281 0.07935871928930283
18.218563079833984 -9.055967330932617 0.08037801831960678
18.375072479248047 -9.037456512451172 0.08090109378099442
18.444074630737305 -9.023910522460938 0.08112160861492157
18.52912139892578 -9.016511917114258 0.0810479149222374
18.60523223876953 -9.005847930908203 0.08129958808422089
18.69457244873047 -9.00125503540039 0.08070515096187592
18.766849517822266 -8.986721992492676 0.08093680441379547
18.84884262084961 -8.977947235107422 0.08120979368686676
19.00464630126953 -8.954160690307617 0.08171910047531128
19.096393585205078 -8.94900894165039 0.08203065395355225
19.184669494628906 -8.940444946289062 0.08195878565311432
19.263362884521484 -8.928506851196289 0.08129053562879562
19.35624885559082 -8.922807693481445 0.08160601556301117
19.43555450439453 -8.909074783325195 0.08185763657093048
19.5331974029541 -8.904828071594238 0.08219054341316223
19.60382652282715 -8.887519836425781 0.08241038024425507
19.71331024169922 -8.88685417175293 0.08278891444206238
19.79437255859375 -8.874018669128418 0.08305377513170242
19.882568359375 -8.863630294799805 0.0829637348651886
19.960437774658203 -8.847700119018555 0.08226139098405838
20.06706428527832 -8.845184326171875 0.08262311667203903
20.142261505126953 -8.826988220214844 0.0828566774725914
20.227890014648438 -8.814520835876465 0.08390942215919495
20.320528030395508 -8.804758071899414 0.08382883667945862
20.431617736816406 -8.80109977722168 0.08420979976654053
20.503692626953125 -8.781746864318848 0.08443126082420349
20.598569869995117 -8.77141284942627 0.08474549651145935
20.691722869873047 -8.75933837890625 0.08505242317914963
20.783864974975586 -8.747529029846191 0.08535785973072052
20.87721824645996 -8.734367370605469 0.08566344529390335
20.97928237915039 -8.725956916809082 0.08600780367851257
21.06724739074707 -8.71130657196045 0.08589093387126923
21.152246475219727 -8.693588256835938 0.08516255766153336
21.21795654296875 -8.669169425964355 0.08534429222345352
21.292999267578125 -8.648309707641602 0.0855659767985344
21.363279342651367 -8.623735427856445 0.08576563000679016
21.432674407958984 -8.600067138671875 0.08596397936344147
21.497591018676758 -8.572843551635742 0.0861421525478363
21.584808349609375 -8.555749893188477 0.08641232550144196
21.606069564819336 -8.51233959197998 0.08602309226989746
21.62935447692871 -8.468179702758789 0.08502593636512756
21.638959884643555 -8.420195579528809 0.08499407768249512
21.639223098754883 -8.315537452697754 0.08485746383666992
21.639312744140625 -8.264076232910156 0.08479099720716476
21.651668548583984 -8.215838432312012 0.08476930856704712
21.68158721923828 -8.175760269165039 0.08521691709756851
21.66558837890625 -8.118414878845215 0.08610332012176514
21.69952392578125 -8.027076721191406 0.08570122718811035
21.718887329101562 -7.9830403327941895 0.08571319282054901
21.71878433227539 -7.930378437042236 0.08463026583194733
21.69434928894043 -7.870471954345703 0.08447346091270447
21.713037490844727 -7.773931980133057 0.08441862463951111
21.698974609375 -7.718132019042969 0.08429745584726334
21.6746883392334 -7.657373428344727 0.08414332568645477
21.692874908447266 -7.6132001876831055 0.08415155112743378
21.640544891357422 -7.544432163238525 0.08349715173244476
21.670570373535156 -7.503018379211426 0.08354957401752472
21.615230560302734 -7.433660507202148 0.08228129893541336
21.660186767578125 -7.3984761238098145 0.08238936960697174
21.68760108947754 -7.356558799743652 0.08243055641651154
21.68024253845215 -7.303930759429932 0.08234803378582001
21.70824432373047 -7.261763572692871 0.08238890767097473
21.716148376464844 -7.214334487915039 0.08236747980117798
21.746416091918945 -7.174315452575684 0.08242146670818329
21.773651123046875 -7.131760597229004 0.08207382261753082
21.77899169921875 -7.083499908447266 0.0810331478714943
21.797046661376953 -7.038974285125732 0.08104290813207626
21.792118072509766 -6.986423492431641 0.08136224001646042
21.832576751708984 -6.949463844299316 0.08246074616909027
21.81435203552246 -6.8923749923706055 0.08233720064163208
21.825782775878906 -6.84620475769043 0.08232547342777252
21.844636917114258 -6.802358627319336 0.08234201371669769
21.842836380004883 -6.750646591186523 0.08188629895448685
21.862516403198242 -6.707057952880859 0.0819082111120224
21.864212036132812 -6.657966613769531 0.08186359703540802
21.874853134155273 -6.610177040100098 0.0818505585193634
21.844650268554688 -6.551610469818115 0.08168797194957733
21.859914779663086 -6.50636625289917 0.08069498836994171
21.849609375 -6.45292854309082 0.0806063786149025
21.87296485900879 -6.410506248474121 0.08064122498035431
21.835250854492188 -6.348833084106445 0.08045344799757004
21.859323501586914 -6.30666446685791 0.08010411262512207
21.8693904876709 -6.260437488555908 0.08009253442287445
21.893070220947266 -6.21664571762085 0.08012919872999191
21.887453079223633 -6.165997505187988 0.08006332814693451
21.873279571533203 -6.062693119049072 0.07891716808080673
21.88469696044922 -6.0169806480407715 0.078915074467659
21.898468017578125 -5.9704813957214355 0.0789172500371933
21.905227661132812 -5.9235148429870605 0.0788961797952652
21.915443420410156 -5.877499103546143 0.07888851314783096
21.885286331176758 -5.819325923919678 0.0787397250533104
21.897754669189453 -5.774012565612793 0.0797322615981102
21.90950584411621 -5.678534984588623 0.07968587428331375
21.92713165283203 -5.63456916809082 0.07970856130123138
21.89879035949707 -5.577444076538086 0.07917462289333344
21.920286178588867 -5.5345048904418945 0.07921051979064941
21.957950592041016 -5.445748805999756 0.07826565206050873
21.955305099487305 -5.396754264831543 0.07821771502494812
21.909469604492188 -5.239651679992676 0.07792782783508301
21.888317108154297 -5.089335918426514 0.07735422253608704
21.910964965820312 -5.045289516448975 0.07739522308111191
21.88934326171875 -4.992499828338623 0.07728084921836853
21.848739624023438 -4.935562610626221 0.07611468434333801
21.819252014160156 -4.8799357414245605 0.07597661018371582
21.823808670043945 -4.833422660827637 0.07595907151699066
21.648269653320312 -4.746054172515869 0.07532814890146255
21.339508056640625 -4.63197135925293 0.07425428181886673
21.78929901123047 -4.682277202606201 0.07573522627353668
21.795820236206055 -4.634990215301514 0.07572561502456665
21.740528106689453 -4.576096534729004 0.07648146152496338
21.71495819091797 -4.523675918579102 0.07597709447145462
21.702178955078125 -4.472661972045898 0.07492515444755554
21.71704864501953 -4.428765773773193 0.07494374364614487
21.692136764526367 -4.376431465148926 0.07482805848121643
21.668663024902344 -4.323927879333496 0.07471519708633423
21.698747634887695 -4.283127784729004 0.07478521764278412
21.708131790161133 -4.236820697784424 0.07478727400302887
21.471790313720703 -4.14445686340332 0.07389143109321594
