VERSION .7
FIELDS x y z
SIZE 4 4 4
TYPE F F F
COUNT 1 1 1
WIDTH 854
HEIGHT 1
VIEWPOINT 0 0 0 1 0 0 0
POINTS 854
DATA ascii
4.8325605392456055 6.5070624351501465 0.1620490401983261
4.805396556854248 6.498616695404053 0.16109654307365417
4.791945457458496 6.509469032287598 0.16061772406101227
4.768463134765625 6.505804061889648 0.15979065001010895
4.743377208709717 6.4998250007629395 0.15935447812080383
4.715511322021484 6.490714073181152 0.15839330852031708
4.691960334777832 6.486562252044678 0.15756534039974213
4.672600269317627 6.488108158111572 0.15687917172908783
4.652377605438232 6.48921537399292 0.15622420608997345
4.622892379760742 6.476428508758545 0.15519902110099792
4.5751214027404785 6.466926574707031 0.1535407304763794
4.562016010284424 6.476867198944092 0.15306806564331055
4.536381721496582 6.469787120819092 0.1521889716386795
4.526495933532715 6.4842729568481445 0.15182603895664215
4.498000621795654 6.4720258712768555 0.15083862841129303
4.480105876922607 6.475752353668213 0.15022151172161102
4.455704689025879 6.469134330749512 0.1494194120168686
4.434484481811523 6.46701192855835 0.14867882430553436
4.410735130310059 6.461930274963379 0.1478671133518219
4.394249439239502 6.466557502746582 0.14728668332099915
4.367894172668457 6.457322120666504 0.14638802409172058
4.352055072784424 6.462846279144287 0.1458319127559662
4.3288350105285645 6.45724630355835 0.14502811431884766
4.307907581329346 6.455804824829102 0.14431507885456085
4.28773832321167 6.454549789428711 0.14361417293548584
4.267925262451172 6.453742027282715 0.14335420727729797
4.248331546783447 6.454037189483643 0.14268703758716583
4.218630313873291 6.437965393066406 0.14166685938835144
4.206221103668213 6.448956489562988 0.141241654753685
4.1873674392700195 6.449341773986816 0.14058968424797058
4.167662620544434 6.448251247406006 0.13990835845470428
4.136812210083008 6.430610656738281 0.13891088962554932
4.12765645980835 6.445736885070801 0.13858558237552643
4.109031677246094 6.446069717407227 0.1379421502351761
4.083497047424316 6.436304092407227 0.1370803564786911
4.064127445220947 6.4352569580078125 0.13641346991062164
4.036825656890869 6.421504974365234 0.13548120856285095
4.024465084075928 6.432297706604004 0.1350639909505844
3.9940240383148193 6.413202285766602 0.1340271532535553
3.975404977798462 6.413715362548828 0.13339972496032715
3.9652583599090576 6.427176475524902 0.13309137523174286
3.9441418647766113 6.422738075256348 0.13236954808235168
3.909705400466919 6.397265911102295 0.1312139332294464
3.8911046981811523 6.396625518798828 0.1305777132511139
3.877441883087158 6.404058933258057 0.1301078051328659
3.868957757949829 6.420966148376465 0.12982608377933502
3.848599910736084 6.4172682762146 0.12913262844085693
3.829824447631836 6.416109561920166 0.1284928023815155
3.804419994354248 6.404598236083984 0.1276441216468811
3.791938304901123 6.413861274719238 0.12721705436706543
3.7717530727386475 6.410046577453613 0.1265317052602768
3.7519755363464355 6.407712936401367 0.12587381899356842
3.728768825531006 6.398494720458984 0.12508773803710938
3.6784873008728027 6.373765468597412 0.12340191751718521
6.916313648223877 -12.266311645507812 0.2188565582036972
7.007036209106445 -12.246613502502441 0.2227320522069931
7.076197147369385 -12.247539520263672 0.2250162959098816
7.111678600311279 -12.250194549560547 0.2270650714635849
7.176657676696777 -12.243083000183105 0.22654220461845398
7.210320472717285 -12.242206573486328 0.22766929864883423
7.28465461730957 -12.250142097473145 0.23020987212657928
7.308902263641357 -12.233060836791992 0.2318299114704132
7.38064432144165 -12.23580551147461 0.23421314358711243
7.583401679992676 -12.221821784973145 0.2419833093881607
9.013803482055664 -12.125045776367188 0.29200243949890137
9.125645637512207 -12.115665435791016 0.295930951833725
9.16727066040039 -12.11851692199707 0.2983204126358032
9.235243797302246 -12.102103233337402 0.3007297217845917
9.272095680236816 -12.098254203796387 0.3020423948764801
9.318315505981445 -12.104914665222168 0.3037274479866028
9.355059623718262 -12.100610733032227 0.30588412284851074
9.43175220489502 -12.094207763671875 0.3085963726043701
9.469184875488281 -12.090384483337402 0.30993711948394775
9.590988159179688 -12.088574409484863 0.3151995837688446
9.708120346069336 -12.079460144042969 0.3203320801258087
11.119484901428223 -11.975844383239746 0.36792653799057007
11.199569702148438 -11.960678100585938 0.3709075450897217
11.241666793823242 -11.955811500549316 0.37257760763168335
11.334280014038086 -11.953035354614258 0.37598735094070435
11.370421409606934 -11.941421508789062 0.37828025221824646
11.431510925292969 -11.954336166381836 0.38047271966934204
11.47533893585205 -11.950424194335938 0.38211703300476074
11.49985408782959 -11.926313400268555 0.3832170367240906
11.599725723266602 -11.928937911987305 0.38689976930618286
11.640947341918945 -11.921730041503906 0.3893861472606659
11.730228424072266 -11.912384033203125 0.392732709646225
11.8729887008667 -11.90670394897461 0.39304348826408386
12.014718055725098 -11.89828872680664 0.3984483778476715
13.239078521728516 -11.801212310791016 0.44174253940582275
13.339130401611328 -11.789960861206055 0.44559478759765625
13.387313842773438 -11.78315544128418 0.44856497645378113
13.499932289123535 -11.781752586364746 0.452860563993454
13.54779052734375 -11.774080276489258 0.45474156737327576
13.593242645263672 -11.764017105102539 0.45654237270355225
13.644384384155273 -11.757532119750977 0.45851781964302063
13.705338478088379 -11.760584831237793 0.46084803342819214
13.80992603302002 -11.749710083007812 0.46491163969039917
13.860411643981934 -11.74316692352295 0.4668993651866913
13.966741561889648 -11.73257064819336 0.47104066610336304
14.020729064941406 -11.728381156921387 0.474165141582489
14.13200569152832 -11.720659255981445 0.47860532999038696
14.17724609375 -11.708467483520508 0.4796786308288574
14.266056060791016 -11.681242942810059 0.47716179490089417
14.4537353515625 -11.683765411376953 0.4844852387905121
15.681108474731445 -11.571962356567383 0.5268450379371643
15.730271339416504 -11.556562423706055 0.5288603901863098
15.861126899719238 -11.55150318145752 0.5340383648872375
15.924872398376465 -11.546087265014648 0.5365567207336426
16.00388526916504 -11.55263900756836 0.5396133661270142
16.058393478393555 -11.540030479431152 0.5418289303779602
16.13164710998535 -11.54198169708252 0.5447028875350952
16.177345275878906 -11.52385425567627 0.5466480851173401
16.250356674194336 -11.523755073547363 0.5495012402534485
16.305408477783203 -11.512017250061035 0.5517728924751282
16.4356632232666 -11.500567436218262 0.5569872260093689
16.502376556396484 -11.49616527557373 0.5596646666526794
16.63640785217285 -11.485918045043945 0.5650367736816406
16.687198638916016 -11.469778060913086 0.5671868324279785
16.824493408203125 -11.460265159606934 0.5726969838142395
17.029348373413086 -11.443592071533203 0.580004096031189
17.224895477294922 -11.418476104736328 0.5811483263969421
18.293867111206055 -11.31446361541748 0.6232828497886658
18.512651443481445 -11.289497375488281 0.6321530342102051
18.66654396057129 -11.275774955749512 0.6372405290603638
18.747072219848633 -11.271384239196777 0.6394988298416138
18.82462501525879 -11.263483047485352 0.6426655054092407
18.900897979736328 -11.255769729614258 0.638523280620575
18.966176986694336 -11.239980697631836 0.6411352753639221
19.056713104248047 -11.240113258361816 0.6447558999061584
19.12539291381836 -11.227191925048828 0.6476445198059082
19.211196899414062 -11.222599029541016 0.6510975956916809
19.284778594970703 -11.211820602416992 0.6541622281074524
19.37706184387207 -11.210306167602539 0.6578493118286133
19.452625274658203 -11.200207710266113 0.6597558856010437
19.685720443725586 -11.170074462890625 0.6692787408828735
19.763174057006836 -11.159868240356445 0.6725101470947266
19.92108917236328 -11.138654708862305 0.6790695190429688
20.17913818359375 -11.1170015335083 0.688284158706665
20.440601348876953 -11.094118118286133 0.699073314666748
21.215436935424805 -11.000219345092773 0.7209636569023132
21.406578063964844 -10.985185623168945 0.7273511290550232
21.497331619262695 -10.975457191467285 0.7311334609985352
21.672473907470703 -10.950058937072754 0.7383396029472351
21.758808135986328 -10.937058448791504 0.740648627281189
21.945465087890625 -10.915351867675781 0.7484260201454163
22.040771484375 -10.905759811401367 0.7522600889205933
22.15088653564453 -10.901403427124023 0.7553685903549194
22.240175247192383 -10.888073921203613 0.7591533660888672
22.332990646362305 -10.874594688415527 0.763046145439148
22.423763275146484 -10.861124038696289 0.7668955326080322
22.529911041259766 -10.85487174987793 0.7711356282234192
22.638704299926758 -10.847925186157227 0.7742142677307129
22.735004425048828 -10.83595085144043 0.7782734036445618
22.827733993530273 -10.820530891418457 0.7821996808052063
22.931640625 -10.811395645141602 0.7854955196380615
23.03021812438965 -10.79951286315918 0.788251519203186
23.129501342773438 -10.78585433959961 0.7852212190628052
23.227479934692383 -10.772917747497559 0.7893525958061218
23.33266830444336 -10.762925148010254 0.7923163175582886
23.426456451416016 -10.74555492401123 0.796142578125
23.530832290649414 -10.734382629394531 0.8005106449127197
23.752445220947266 -10.714859962463379 0.8082536458969116
23.869760513305664 -10.708222389221191 0.8129338026046753
24.180681228637695 -10.665609359741211 0.8244508504867554
25.06726837158203 -10.555908203125 0.8584645390510559
25.39083480834961 -10.504727363586426 0.8706239461898804
25.625682830810547 -10.475716590881348 0.8780357241630554
25.740806579589844 -10.460487365722656 0.8752604126930237
25.87049674987793 -10.450691223144531 0.8804728388786316
26.220417022705078 -10.40079116821289 0.8920269012451172
26.44465446472168 -10.36106014251709 0.9014660716056824
26.703153610229492 -10.332832336425781 0.9107040166854858
26.813854217529297 -10.309865951538086 0.915311336517334
26.962120056152344 -10.302700996398926 0.9198117256164551
27.081287384033203 -10.283882141113281 0.9247471690177917
27.338380813598633 -10.249984741210938 0.9340004920959473
27.471172332763672 -10.234800338745117 0.9394282102584839
27.60028648376465 -10.215813636779785 0.9432684183120728
27.715824127197266 -10.193232536315918 0.948293924331665
27.967243194580078 -10.152190208435059 0.9572429060935974
28.367156982421875 -10.09598445892334 0.9724186062812805
28.497692108154297 -10.075675010681152 0.9771326184272766
28.78018569946289 -10.03958797454834 0.9788078665733337
29.60598373413086 -9.909908294677734 1.0100005865097046
29.908239364624023 -9.873039245605469 1.0210139751434326
30.06021499633789 -9.852239608764648 1.025483250617981
30.334787368774414 -9.800948143005371 1.0353792905807495
30.505929946899414 -9.786376953125 1.0424833297729492
30.794231414794922 -9.73602294921875 1.0528980493545532
30.933042526245117 -9.709346771240234 1.058744192123413
31.085872650146484 -9.686298370361328 1.0634725093841553
31.239898681640625 -9.661327362060547 1.0698412656784058
31.391263961791992 -9.636609077453613 1.0745292901992798
31.545787811279297 -9.610556602478027 1.0809352397918701
31.71320343017578 -9.589686393737793 1.0861839056015015
31.872791290283203 -9.563677787780762 1.092785120010376
32.03514862060547 -9.539974212646484 1.0972778797149658
32.195125579833984 -9.514924049377441 1.1041299104690552
32.380836486816406 -9.494640350341797 1.102347731590271
32.53632736206055 -9.466954231262207 1.1090397834777832
32.69691467285156 -9.439918518066406 1.1138418912887573
32.84962463378906 -9.408241271972656 1.1204456090927124
33.01205825805664 -9.3806791305542 1.125317931175232
33.19205093383789 -9.355241775512695 1.1328790187835693
33.36854553222656 -9.330283164978027 1.1382384300231934
33.53398132324219 -9.301342010498047 1.1453461647033691
33.70664596557617 -9.271947860717773 1.150566816329956
33.87179183959961 -9.241809844970703 1.1555466651916504
34.40130615234375 -9.154095649719238 1.1759722232818604
33.889801025390625 -8.638065338134766 1.1604056358337402
20.301929473876953 -5.03898811340332 0.6948531270027161
20.26861000061035 -4.894473552703857 0.6949335932731628
20.441143035888672 -4.846312999725342 0.6967933177947998
20.451459884643555 -4.802764892578125 0.6967949271202087
136.5862274169922 -31.470008850097656 4.6511664390563965
38.023338317871094 -8.50913143157959 1.2971278429031372
38.23129653930664 -8.472397804260254 1.3057825565338135
38.43794631958008 -8.432089805603027 1.312453031539917
38.651756286621094 -8.3949613571167 1.3191566467285156
38.86198425292969 -8.355971336364746 1.3281641006469727
39.073455810546875 -8.314390182495117 1.3347818851470947
39.28945541381836 -8.275165557861328 1.3415708541870117
39.50811767578125 -8.23311710357666 1.3509007692337036
39.71082305908203 -8.189410209655762 1.3572466373443604
39.943565368652344 -8.15078353881836 1.366870641708374
40.17815399169922 -8.10953426361084 1.3745450973510742
40.388916015625 -8.064881324768066 1.3811802864074707
40.62403106689453 -8.023954391479492 1.3909341096878052
40.837425231933594 -7.975748062133789 1.3978991508483887
41.0656852722168 -7.931644439697266 1.405144453048706
41.51997756958008 -7.838406085968018 1.4218815565109253
42.23454284667969 -7.698397159576416 1.4401756525039673
42.97669982910156 -7.554836273193359 1.466500997543335
43.46336364746094 -7.451826572418213 1.4847168922424316
43.711143493652344 -7.398484706878662 1.4926395416259766
44.24216079711914 -7.299345970153809 1.5121999979019165
44.50811004638672 -7.2458577156066895 1.5210245847702026
44.762752532958984 -7.191723823547363 1.5292121171951294
45.009220123291016 -7.132995128631592 1.5371086597442627
45.34652328491211 -7.09001350402832 1.5506584644317627
45.55028533935547 -7.024795055389404 1.5573914051055908
45.822261810302734 -6.966832160949707 1.5661808252334595
46.069801330566406 -6.906408309936523 1.5741472244262695
46.34388732910156 -6.846580982208252 1.5855950117111206
46.633140563964844 -6.7904582023620605 1.5952848196029663
46.9141960144043 -6.731712341308594 1.6044172048568726
47.21577453613281 -6.672359466552734 1.6168771982192993
47.4621467590332 -6.60674524307251 1.625119924545288
47.75991439819336 -6.544221878051758 1.6348334550857544
48.02719497680664 -6.479337692260742 1.6408411264419556
48.31694412231445 -6.416075706481934 1.6505677700042725
48.605098724365234 -6.348997116088867 1.6599451303482056
48.88829040527344 -6.282540798187256 1.6691664457321167
49.4853630065918 -6.14783239364624 1.691408395767212
49.79731750488281 -6.081384181976318 1.7016351222991943
50.048370361328125 -6.003859996795654 1.7100681066513062
50.40861129760742 -5.9406890869140625 1.7219516038894653
51.010955810546875 -5.794272422790527 1.7445145845413208
51.341129302978516 -5.7235798835754395 1.755395770072937
52.30815505981445 -5.498684883117676 1.787550687789917
53.56036376953125 -5.174595355987549 1.832076072692871
53.8925895690918 -5.0938334465026855 1.8430757522583008
54.55868911743164 -4.925060272216797 1.8651297092437744
54.91975784301758 -4.839724063873291 1.8804850578308105
55.59238052368164 -4.666231632232666 1.902835726737976
55.945919036865234 -4.575902462005615 1.9145985841751099
56.291587829589844 -4.486266136169434 1.9261047840118408
56.65288543701172 -4.393622398376465 1.9381425380706787
57.0190544128418 -4.3030009269714355 1.9506953954696655
57.37650680541992 -4.209911346435547 1.9626203775405884
57.74919128417969 -4.11358642578125 1.9750643968582153
58.09804153442383 -4.016934394836426 1.9867048263549805
58.50653839111328 -3.9199600219726562 2.0003843307495117
58.85073471069336 -3.820017099380493 2.011875867843628
59.23697280883789 -3.72165846824646 2.028090476989746
59.63299560546875 -3.619014263153076 2.0413808822631836
60.009254455566406 -3.51652193069458 2.0540125370025635
60.31959915161133 -3.4091176986694336 2.064401149749756
60.66102981567383 -3.298778533935547 2.075854778289795
60.97486114501953 -3.1886000633239746 2.086373805999756
60.86494445800781 -3.05283522605896 2.0827338695526123
60.70630645751953 -2.9182522296905518 2.077094554901123
60.52903366088867 -2.7838428020477295 2.070828676223755
60.276878356933594 -2.6435630321502686 2.0620017051696777
60.01579284667969 -2.5069987773895264 2.052886962890625
59.66046905517578 -2.2405049800872803 2.0400540828704834
59.431270599365234 -2.1084015369415283 2.0320613384246826
59.24659729003906 -1.9751354455947876 2.0255985260009766
59.08815383911133 -1.8471060991287231 2.020048141479492
58.63670349121094 -1.5858393907546997 2.0043649673461914
58.358253479003906 -1.4571218490600586 1.9947350025177002
58.02275085449219 -1.2042582035064697 1.983078956604004
57.69102478027344 -0.9543269872665405 1.9715887308120728
57.47086715698242 -0.8313931822776794 1.964002251625061
57.179534912109375 -0.7053331136703491 1.9539873600006104
56.984859466552734 -0.5843379497528076 1.947286605834961
56.783443450927734 -0.461283415555954 1.9403642416000366
56.57012939453125 -0.34182804822921753 1.933046817779541
56.412681579589844 -0.22380639612674713 1.9276481866836548
56.18393325805664 -0.10319589078426361 1.919819712638855
71.90343475341797 0.01316591165959835 3.045870780944824
72.68067932128906 0.3193995952606201 3.078860282897949
72.81584930419922 0.4711052179336548 3.084632396697998
72.28663635253906 0.6221110224723816 3.062256336212158
72.05408477783203 0.7696499824523926 3.0524659156799316
71.74930572509766 0.9192835092544556 3.039630889892578
71.65628814697266 1.0672258138656616 3.0357797145843506
69.0374755859375 2.0438573360443115 2.9215617179870605
68.47594451904297 2.1698553562164307 2.8979814052581787
67.84175109863281 2.294454574584961 2.871337413787842
67.52513122558594 2.4244279861450195 2.8581433296203613
67.21504211425781 2.552969455718994 2.845236301422119
66.9124755859375 2.684635639190674 2.8326621055603027
66.58524322509766 2.8099184036254883 2.8182902336120605
66.26292419433594 2.9377565383911133 2.801226854324341
65.947265625 3.0612733364105225 2.7881431579589844
65.77780151367188 3.190216064453125 2.781254768371582
65.5455551147461 3.3193163871765137 2.771728992462158
65.24500274658203 3.439854383468628 2.759315252304077
65.03864288330078 3.5643324851989746 2.750894784927368
64.82337188720703 3.6914448738098145 2.7421188354492188
64.54579162597656 3.8100335597991943 2.7307043075561523
64.08879089355469 4.053972244262695 2.711703300476074
63.635353088378906 4.294430732727051 2.6932578086853027
63.394020080566406 4.410317420959473 2.6799004077911377
63.15330505371094 4.529153823852539 2.6701302528381348
62.97404861450195 4.647673606872559 2.6629552841186523
62.68000030517578 4.756773948669434 2.650930643081665
62.41881561279297 4.871082782745361 2.640315055847168
62.20646667480469 4.984409809112549 2.6317644119262695
61.97503662109375 5.098776340484619 2.6224255561828613
61.788204193115234 5.2128729820251465 2.614974021911621
61.55534362792969 5.321898460388184 2.6052262783050537
61.27165222167969 5.429264068603516 2.593698263168335
61.15411376953125 5.546775817871094 2.5892090797424316
60.96205520629883 5.660331726074219 2.5774874687194824
60.76431655883789 5.76953125 2.5692811012268066
60.55234146118164 5.876220226287842 2.5608255863189697
60.380313873291016 5.9897541999816895 2.5507233142852783
60.21270751953125 6.099336624145508 2.544173240661621
60.01874923706055 6.208900451660156 2.5365304946899414
59.86585998535156 6.3190202713012695 2.5306196212768555
59.642921447753906 6.420665740966797 2.52175235748291
59.52946472167969 6.537123680114746 2.5175414085388184
59.326454162597656 6.6394572257995605 2.5091896057128906
59.13009262084961 6.745067596435547 2.50148606300354
58.98246383666992 6.852591514587402 2.4925475120544434
58.79962921142578 6.955047607421875 2.4854249954223633
58.619319915771484 7.060728549957275 2.4784367084503174
58.47621536254883 7.166633129119873 2.473011016845703
58.29264450073242 7.266951560974121 2.4658772945404053
58.101829528808594 7.369246482849121 2.458465099334717
57.935569763183594 7.470353126525879 2.451746940612793
57.734397888183594 7.569496154785156 2.4406845569610596
57.50673294067383 7.661404609680176 2.4317264556884766
57.32347106933594 7.758091926574707 2.424654006958008
57.09262466430664 7.851082801818848 2.415592908859253
56.919105529785156 7.947607040405273 2.408944606781006
56.5478630065918 8.138705253601074 2.390512228012085
56.375343322753906 8.23332405090332 2.383608102798462
56.19420623779297 8.329513549804688 2.3766980171203613
56.048309326171875 8.426790237426758 2.3712642192840576
55.73618698120117 8.620052337646484 2.356449842453003
55.539451599121094 8.707674026489258 2.3488900661468506
55.34927749633789 8.799044609069824 2.341313123703003
55.2276611328125 8.897254943847656 2.336948871612549
55.037567138671875 8.983848571777344 2.329688549041748
54.897979736328125 9.081503868103027 2.3215136528015137
54.73529052734375 9.17132568359375 2.315432071685791
54.53190994262695 9.256733894348145 2.3073391914367676
54.358333587646484 9.343684196472168 2.3008131980895996
54.21418380737305 9.437867164611816 2.295558214187622
54.07710647583008 9.529987335205078 2.287548065185547
53.89092254638672 9.612525939941406 2.2805073261260986
53.687408447265625 9.694607734680176 2.272453546524048
53.5389404296875 9.782567024230957 2.2670228481292725
53.427040100097656 9.876738548278809 2.2631494998931885
53.326385498046875 9.975988388061523 2.2567813396453857
53.202938079833984 10.067209243774414 2.2524361610412598
52.93878173828125 10.134095191955566 2.2418434619903564
52.472015380859375 10.157979965209961 2.22297739982605
51.69572067260742 10.11904239654541 2.190065860748291
51.064170837402344 10.108734130859375 2.1613292694091797
50.453407287597656 10.096673965454102 2.1363611221313477
49.78860855102539 10.074005126953125 2.106297254562378
49.184288024902344 10.058314323425293 2.081610918045044
48.607669830322266 10.045527458190918 2.057798385620117
48.02557373046875 10.031963348388672 2.0340583324432373
47.448822021484375 10.014577865600586 2.007824420928955
46.327396392822266 9.981866836547852 1.9618568420410156
45.77009582519531 9.961225509643555 1.93912935256958
45.213172912597656 9.941226959228516 1.9138643741607666
44.672325134277344 9.919539451599121 1.8918378353118896
44.14803695678711 9.899296760559082 1.8702422380447388
43.65071487426758 9.885766983032227 1.850066065788269
43.12879943847656 9.861701011657715 1.826355218887329
42.092872619628906 9.81155014038086 1.783973217010498
41.57319259643555 9.78141975402832 1.7628026008605957
41.12982940673828 9.769878387451172 1.742544412612915
40.61119079589844 9.735757827758789 1.7214223146438599
40.17536163330078 9.721835136413574 1.7035869359970093
39.71547317504883 9.698078155517578 1.6849405765533447
39.222007751464844 9.663869857788086 1.662611484527588
38.748680114746094 9.634857177734375 1.6429557800292969
38.31529235839844 9.611802101135254 1.6232357025146484
37.8597412109375 9.583303451538086 1.6045722961425781
37.411434173583984 9.55270767211914 1.5864081382751465
36.99518585205078 9.528242111206055 1.5674779415130615
36.53889083862305 9.494001388549805 1.5489983558654785
36.14257049560547 9.471135139465332 1.5328117609024048
35.736026763916016 9.443894386291504 1.5163969993591309
35.348201751708984 9.422236442565918 1.4987674951553345
34.97236633300781 9.399829864501953 1.483447551727295
34.57305908203125 9.371528625488281 1.467349886894226
34.216426849365234 9.351335525512695 1.451072335243225
33.850242614746094 9.32679271697998 1.4361598491668701
33.492733001708984 9.305315017700195 1.4218285083770752
33.15739822387695 9.286309242248535 1.4065009355545044
32.82075500488281 9.267481803894043 1.3930578231811523
32.459232330322266 9.238373756408691 1.3783292770385742
32.127418518066406 9.216047286987305 1.3631951808929443
31.839031219482422 9.206781387329102 1.3517930507659912
31.512706756591797 9.183520317077637 1.3385549783706665
31.184371948242188 9.159960746765137 1.3236334323883057
30.87596893310547 9.13921070098877 1.3113467693328857
30.574214935302734 9.118940353393555 1.2991498708724976
30.293533325195312 9.105742454528809 1.2862964868545532
29.96493148803711 9.074812889099121 1.2729578018188477
29.69554901123047 9.060550689697266 1.2605915069580078
29.402267456054688 9.03976821899414 1.2472552061080933
29.12387466430664 9.020368576049805 1.2360612154006958
28.582399368286133 8.984752655029297 1.213016152381897
28.304941177368164 8.962120056152344 1.2018572092056274
28.023372650146484 8.938878059387207 1.1907061338424683
27.772695541381836 8.922457695007324 1.17905855178833
27.25278091430664 8.882217407226562 1.1585646867752075
27.016443252563477 8.867252349853516 1.147558331489563
26.533309936523438 8.832632064819336 1.1270583868026733
26.2630558013916 8.804864883422852 1.1162118911743164
26.040111541748047 8.790443420410156 1.1075122356414795
25.804012298583984 8.770434379577637 1.0967332124710083
25.56588363647461 8.750301361083984 1.0872446298599243
25.344161987304688 8.73337459564209 1.0785847902297974
25.14141082763672 8.721918106079102 1.0690981149673462
24.912776947021484 8.7022705078125 1.0601633787155151
24.68546485900879 8.680387496948242 1.049804449081421
24.47291374206543 8.664275169372559 1.0413970947265625
24.27048110961914 8.649487495422363 1.0335463285446167
24.07515525817871 8.636223793029785 1.0245743989944458
23.885042190551758 8.625659942626953 1.0157133340835571
23.674081802368164 8.605053901672363 1.0074976682662964
23.50105094909668 8.598886489868164 0.9995284080505371
23.290203094482422 8.576735496520996 0.991173267364502
23.08920669555664 8.557172775268555 0.9833715558052063
22.908218383789062 8.545646667480469 0.9749431014060974
22.736818313598633 8.535648345947266 0.9684038758277893
22.537975311279297 8.515828132629395 0.9593709707260132
22.370681762695312 8.505858421325684 0.9528614282608032
22.199748992919922 8.493636131286621 0.9463315606117249
22.02232551574707 8.479583740234375 0.9380918145179749
21.833904266357422 8.459247589111328 0.9308131337165833
21.66880989074707 8.447042465209961 0.9230971932411194
21.499618530273438 8.434040069580078 0.9166551828384399
21.340375900268555 8.422712326049805 0.9093406796455383
21.007112503051758 8.393601417541504 0.8952537775039673
20.841533660888672 8.377638816833496 0.8888056874275208
20.68589210510254 8.366450309753418 0.8829278945922852
20.527732849121094 8.352090835571289 0.8755611181259155
20.39227867126465 8.346343994140625 0.8705214262008667
20.24441146850586 8.336359024047852 0.8637564182281494
20.09246826171875 8.322599411010742 0.8578810095787048
19.80340576171875 8.300745964050293 0.8446471095085144
19.647525787353516 8.284664154052734 0.8387491106987
19.521331787109375 8.279340744018555 0.8327996134757996
19.37818145751953 8.266117095947266 0.8274227976799011
19.233047485351562 8.252681732177734 0.820695161819458
19.078460693359375 8.233406066894531 0.8148283958435059
18.96360969543457 8.230565071105957 0.8095079064369202
18.829984664916992 8.220417022705078 0.8044333457946777
18.688671112060547 8.204939842224121 0.7979910373687744
18.544723510742188 8.188910484313965 0.7924703359603882
18.442289352416992 8.189581871032715 0.7877036929130554
18.300569534301758 8.17215633392334 0.7822559475898743
18.19599723815918 8.17199993133545 0.7774264812469482
18.045879364013672 8.149749755859375 0.7716187238693237
17.921968460083008 8.138608932495117 0.765953004360199
17.781232833862305 8.120562553405762 0.7605630159378052
17.680360794067383 8.118880271911621 0.7558915615081787
17.5473575592041 8.103116035461426 0.7508291006088257
17.43674659729004 8.096101760864258 0.7468154430389404
17.313989639282227 8.0828218460083 0.7411073446273804
17.203691482543945 8.07601547241211 0.737120509147644
17.083538055419922 8.063037872314453 0.7315342426300049
16.983985900878906 8.06033992767334 0.7280051112174988
16.843053817749023 8.036442756652832 0.7216463685035706
16.75230598449707 8.03586483001709 0.7174437046051025
16.66065788269043 8.035727500915527 0.7131228446960449
16.558055877685547 8.028637886047363 0.709442675113678
16.43138885498047 8.009377479553223 0.7036087512969971
16.3039493560791 7.990407466888428 0.6988793015480042
16.224634170532227 7.993334770202637 0.6950840950012207
16.016321182250977 7.974703788757324 0.6864988803863525
15.910024642944336 7.963021755218506 0.6826489567756653
15.80621337890625 7.953334331512451 0.6778419017791748
15.719788551330566 7.950770378112793 0.6748424768447876
15.60074234008789 7.931258678436279 0.6693665981292725
15.525015830993652 7.934542179107666 0.6668438911437988
15.401987075805664 7.912017822265625 0.6612030863761902
15.225080490112305 7.9023566246032715 0.6539837718009949
15.034933090209961 7.884216785430908 0.6461991667747498
14.932865142822266 7.870245933532715 0.6415777802467346
14.850807189941406 7.867470741271973 0.6386743783950806
14.752647399902344 7.854829788208008 0.6341319680213928
14.655203819274902 7.842022895812988 0.6306419968605042
14.584837913513184 7.844493865966797 0.6273226141929626
14.49052906036377 7.832582950592041 0.6240589022636414
14.405555725097656 7.826354503631592 0.6193021535873413
14.279769897460938 7.796548366546631 0.6144949197769165
14.232992172241211 7.809391975402832 0.6121870875358582
14.142904281616211 7.799210071563721 0.6090254783630371
14.055246353149414 7.789057731628418 0.6049650311470032
13.966747283935547 7.777941703796387 0.601848840713501
13.893229484558105 7.775930881500244 0.5984229445457458
13.794289588928223 7.7581915855407715 0.5939775109291077
13.715974807739258 7.752655982971191 0.591224193572998
13.644149780273438 7.74956750869751 0.5878622531890869
13.56199836730957 7.740174293518066 0.5850135684013367
13.478401184082031 7.73057746887207 0.5811669826507568
13.404623985290527 7.725378036499023 0.5778220891952515
13.31534194946289 7.711758613586426 0.5745910406112671
13.240196228027344 7.705076694488525 0.5711915493011475
13.155965805053711 7.69265079498291 0.5681562423706055
13.087640762329102 7.690263271331787 0.5649865865707397
13.018281936645508 7.6858954429626465 0.561843752861023
12.924222946166992 7.666576385498047 0.5583817362785339
12.862035751342773 7.666879177093506 0.5555732250213623
12.787601470947266 7.6585211753845215 0.5529561042785645
12.723824501037598 7.65720272064209 0.5499958395957947
12.645100593566895 7.645717144012451 0.5464621186256409
12.5741605758667 7.638500690460205 0.5440801978111267
12.525823593139648 7.645817279815674 0.5418826937675476
12.433619499206543 7.624996185302734 0.5376853942871094
12.372820854187012 7.623088359832764 0.5348511338233948
12.290393829345703 7.608573913574219 0.5319889783859253
12.236907005310059 7.610632419586182 0.52947598695755
12.080843925476074 7.584313869476318 0.5232283473014832
12.025151252746582 7.58418607711792 0.5206281542778015
11.97283935546875 7.586991786956787 0.5190639495849609
11.895277976989746 7.572484970092773 0.5155198574066162
11.765453338623047 7.559655666351318 0.5104139447212219
11.710712432861328 7.558865547180176 0.5078669786453247
11.626239776611328 7.539574146270752 0.5049006342887878
11.572441101074219 7.538845539093018 0.5023983716964722
11.517760276794434 7.537315368652344 0.499861478805542
11.44854736328125 7.527000904083252 0.49755430221557617
11.384607315063477 7.5188469886779785 0.4946187436580658
11.323116302490234 7.512929439544678 0.49181100726127625
11.267714500427246 7.509986400604248 0.49008262157440186
11.197615623474121 7.496872901916504 0.48688578605651855
11.135795593261719 7.489984035491943 0.4840719699859619
11.084120750427246 7.488682746887207 0.4825001060962677
11.024134635925293 7.481520175933838 0.47974973917007446
10.970711708068848 7.479545593261719 0.4773849546909332
10.905360221862793 7.468186855316162 0.47513747215270996
10.853848457336426 7.466045379638672 0.47276192903518677
10.783295631408691 7.451498985290527 0.469656378030777
10.747117042541504 7.459497928619385 0.4686778485774994
10.682391166687012 7.4483442306518555 0.46575021743774414
10.64099407196045 7.452437400817871 0.46390223503112793
10.56470012664795 7.4326019287109375 0.46119019389152527
10.502103805541992 7.421282768249512 0.4583446681499481
10.452016830444336 7.418458461761475 0.456121027469635
10.395974159240723 7.412128448486328 0.45429080724716187
10.333731651306152 7.400144100189209 0.4514642357826233
10.285260200500488 7.397770404815674 0.44931572675704956
10.220035552978516 7.384035110473633 0.44638368487358093
10.174620628356934 7.383407115936279 0.4449955224990845
10.120116233825684 7.3759636878967285 0.4425145387649536
10.069284439086914 7.371903896331787 0.44028952717781067
10.008087158203125 7.359049320220947 0.4382077753543854
9.951172828674316 7.349913597106934 0.43564459681510925
9.910106658935547 7.351504802703857 0.43383339047431946
9.865063667297363 7.349876880645752 0.4324570298194885
9.805245399475098 7.337935447692871 0.42977219820022583
9.756723403930664 7.333259582519531 0.42763692140579224
9.724944114685059 7.341004371643066 0.42684027552604675
9.674448013305664 7.335383415222168 0.42456841468811035
9.614291191101074 7.32124137878418 0.42185553908348083
9.527510643005371 7.318755149841309 0.4186626076698303
9.481633186340332 7.31484842300415 0.4165807366371155
9.422691345214844 7.301540374755859 0.41394704580307007
9.379019737243652 7.298900127410889 0.41203606128692627
9.287793159484863 7.290915489196777 0.40858325362205505
9.243047714233398 7.286843299865723 0.4066285192966461
9.200996398925781 7.285616397857666 0.40539392828941345
9.150257110595703 7.276384353637695 0.4031085968017578
9.098512649536133 7.266108989715576 0.40078073740005493
9.04654312133789 7.256310939788818 0.39853206276893616
9.032291412353516 7.27573299407959 0.39850160479545593
8.969645500183105 7.256832599639893 0.395713210105896
8.935933113098145 7.260378360748291 0.3941882848739624
8.879560470581055 7.2452192306518555 0.3917306065559387
8.838373184204102 7.243118762969971 0.39052870869636536
8.800312995910645 7.242507457733154 0.3888137936592102
8.762885093688965 7.242257595062256 0.38719484210014343
8.709588050842285 7.229579448699951 0.38482967019081116
8.667713165283203 7.225253105163574 0.38357532024383545
8.629194259643555 7.22354793548584 0.3817799687385559
8.596521377563477 7.227485656738281 0.38039588928222656
8.55300521850586 7.221247673034668 0.37844887375831604
8.500978469848633 7.20839786529541 0.37675991654396057
8.460394859313965 7.2043046951293945 0.3750109076499939
8.429354667663574 7.208103179931641 0.37361976504325867
8.384223937988281 7.200575351715088 0.37162521481513977
8.342522621154785 7.1948957443237305 0.3703734874725342
8.305980682373047 7.1942949295043945 0.3687591552734375
8.267834663391113 7.191421985626221 0.3671235740184784
8.215794563293457 7.176158905029297 0.36480653285980225
8.189778327941895 7.184335708618164 0.36426886916160583
8.13893985748291 7.169680118560791 0.3620058298110962
8.102937698364258 7.1678853034973145 0.3604670763015747
8.061081886291504 7.161612510681152 0.3586258590221405
8.027649879455566 7.161773204803467 0.357736200094223
7.981650352478027 7.151332378387451 0.355709969997406
7.953003883361816 7.155557632446289 0.35450461506843567
7.905941009521484 7.142956256866455 0.3524158000946045
7.869813442230225 7.1409101486206055 0.35083502531051636
7.827575206756592 7.132258415222168 0.3495495319366455
7.79628324508667 7.133413314819336 0.34816694259643555
7.755873680114746 7.126936912536621 0.34645915031433105
7.712677001953125 7.116819858551025 0.34448570013046265
7.681633949279785 7.117746353149414 0.34311869740486145
7.646512508392334 7.115622520446777 0.34216737747192383
7.614934921264648 7.115781307220459 0.34077760577201843
7.545065402984619 7.110249042510986 0.3377814292907715
7.520598888397217 7.116715908050537 0.33728617429733276
7.473046779632568 7.102038860321045 0.33520272374153137
7.442478656768799 7.10244083404541 0.333863765001297
7.353949546813965 7.077370643615723 0.33003827929496765
7.326977252960205 7.080759048461914 0.3294275403022766
7.304478645324707 7.089256286621094 0.32847490906715393
7.263212203979492 7.078535079956055 0.32665902376174927
7.234713554382324 7.080092906951904 0.32547807693481445
7.194692611694336 7.071080684661865 0.32374006509780884
7.155739784240723 7.062049388885498 0.3225870728492737
7.122340202331543 7.058322906494141 0.32112833857536316
7.107886791229248 7.074159622192383 0.3205452561378479
7.068034648895264 7.063753128051758 0.318855881690979
7.025081634521484 7.05080509185791 0.316987007856369
6.992154121398926 7.04702615737915 0.315555214881897
6.957700252532959 7.041467666625977 0.31460145115852356
6.922613620758057 7.035958290100098 0.3130909502506256
6.8945722579956055 7.036607265472412 0.3118229806423187
6.865027904510498 7.0356011390686035 0.3106035590171814
6.83632230758667 7.036190986633301 0.3093842566013336
6.79305362701416 7.020749568939209 0.30802786350250244
6.7728495597839355 7.029775619506836 0.30719393491744995
6.736351013183594 7.021076202392578 0.30560624599456787
6.705722332000732 7.018248558044434 0.30428385734558105
6.660092830657959 7.000289440155029 0.3023548722267151
6.643102645874023 7.011592388153076 0.30165520310401917
6.601457595825195 6.997435092926025 0.3003840148448944
6.583288669586182 7.007334232330322 0.29963281750679016
6.540817737579346 6.991142749786377 0.2977744936943054
6.530637264251709 7.010137557983398 0.2974056601524353
6.485989570617676 6.991326808929443 0.29550701379776
6.461886405944824 6.994399547576904 0.29448792338371277
6.419713497161865 6.978602886199951 0.2926650643348694
6.394398212432861 6.980099678039551 0.292114794254303
6.360863208770752 6.97248649597168 0.2906671464443207
6.333921909332275 6.972814559936523 0.28954076766967773
6.290454864501953 6.953902721405029 0.287639319896698
6.23745059967041 6.953951835632324 0.28546568751335144
6.2177958488464355 6.961048126220703 0.284656286239624
6.161463260650635 6.956729412078857 0.2827949821949005
6.127688407897949 6.947590351104736 0.2813398241996765
6.100750923156738 6.946908473968506 0.28021901845932007
6.072665691375732 6.9439377784729 0.2790265679359436
6.049232006072998 6.946177959442139 0.2785572409629822
6.019507884979248 6.941934108734131 0.2773098945617676
5.992315292358398 6.939618110656738 0.2761595845222473
5.9385986328125 6.936249256134033 0.27396610379219055
5.90057373046875 6.9208550453186035 0.27231788635253906
5.8489580154418945 6.919125556945801 0.27017122507095337
5.791992664337158 6.91055965423584 0.2682780921459198
5.770971298217773 6.914574146270752 0.2674182057380676
5.740206241607666 6.907573699951172 0.2661783993244171
5.717601776123047 6.909573554992676 0.26524874567985535
5.688918113708496 6.904029369354248 0.2640351951122284
5.656862735748291 6.895087718963623 0.26268550753593445
5.637454986572266 6.900586128234863 0.26190537214279175
5.609861850738525 6.895967960357666 0.2607440650463104
5.578380584716797 6.887271404266357 0.25942254066467285
5.566097259521484 6.901339054107666 0.2589752972126007
5.527423858642578 6.883345603942871 0.25780612230300903
5.502178192138672 6.881190776824951 0.2567570209503174
5.4796223640441895 6.882214069366455 0.25583356618881226
5.457472324371338 6.884442329406738 0.2549980580806732
5.414996147155762 6.860137939453125 0.2531457245349884
5.399356842041016 6.869589328765869 0.2525467872619629
5.372633457183838 6.865727424621582 0.25144970417022705
5.350847244262695 6.867201805114746 0.25056523084640503
5.321622371673584 6.859004974365234 0.24933181703090668
5.300004959106445 6.861356258392334 0.248475581407547
5.278651237487793 6.863105297088623 0.24761316180229187
5.252364635467529 6.859116077423096 0.2465367168188095
5.2205400466918945 6.847027778625488 0.24566055834293365
5.207467555999756 6.859358787536621 0.2451891303062439
5.172320365905762 6.84328556060791 0.24374622106552124
5.150244235992432 6.843637466430664 0.24285373091697693
5.122707843780518 6.8365302085876465 0.24170155823230743
5.108053684234619 6.847407341003418 0.24117827415466309
5.073063850402832 6.830029487609863 0.23967503011226654
5.053327560424805 6.833824634552002 0.23891028761863708
5.017492771148682 6.814984321594238 0.23736941814422607
5.0079522132873535 6.831674098968506 0.23707124590873718
4.9809417724609375 6.825275897979736 0.23596417903900146
4.947741508483887 6.809495449066162 0.234547421336174
4.9180169105529785 6.7982072830200195 0.2332940548658371
4.9098711013793945 6.817568778991699 0.23313447833061218
4.877615928649902 6.802504539489746 0.23176124691963196
4.862150192260742 6.810736656188965 0.23118610680103302
4.84097957611084 6.811806678771973 0.23082253336906433
4.808534145355225 6.795975685119629 0.22943821549415588
4.771350860595703 6.80401611328125 0.2280634343624115
4.73867654800415 6.787341117858887 0.22666829824447632
4.69938850402832 6.791828632354736 0.22514580190181732
4.675013542175293 6.786655902862549 0.22414930164813995
4.6497883796691895 6.780999660491943 0.2231312096118927
4.64058256149292 6.79777717590332 0.2228643000125885
4.601088523864746 6.770051956176758 0.22114109992980957
4.580965518951416 6.771513938903809 0.220368891954422
4.559338092803955 6.769772052764893 0.2195058912038803
4.53788423538208 6.768188953399658 0.21865060925483704
4.5144429206848145 6.764423370361328 0.21772052347660065
4.497481346130371 6.76939058303833 0.21708324551582336
4.455387592315674 6.767696380615234 0.2154354453086853
4.431743144989014 6.762293815612793 0.21447664499282837
4.410754203796387 6.761730194091797 0.21366563439369202
4.3786420822143555 6.743039608001709 0.21229684352874756
4.362133026123047 6.749050617218018 0.2117489129304886
4.342404842376709 6.749295711517334 0.210982546210289
4.313551425933838 6.735124588012695 0.2097703069448471
4.297574520111084 6.741759777069092 0.20920370519161224
4.28073263168335 6.746272087097168 0.20857858657836914
4.250919342041016 6.730119228363037 0.20731937885284424
4.2353973388671875 6.737378120422363 0.20677857100963593
4.207940578460693 6.724634170532227 0.2056339830160141
4.194114685058594 6.733572959899902 0.2051561176776886
4.1654887199401855 6.719558238983154 0.20397478342056274
4.152646541595459 6.729989051818848 0.2035466879606247
4.130679130554199 6.725580215454102 0.20267128944396973
4.106183052062988 6.717833042144775 0.2017378956079483
4.081884860992432 6.709329605102539 0.20074811577796936
4.073098182678223 6.727120399475098 0.2005404382944107
4.041140079498291 6.7057952880859375 0.19917528331279755
4.027904510498047 6.7153167724609375 0.19873104989528656
4.000844955444336 6.702620506286621 0.19762521982192993
3.986937999725342 6.710927963256836 0.19714905321598053
3.954465389251709 6.687836170196533 0.19575442373752594
3.940823554992676 6.697380065917969 0.19531232118606567
3.9169015884399414 6.688441753387451 0.19434089958667755
3.9073572158813477 6.70400857925415 0.19408345222473145
3.8735153675079346 6.6786980628967285 0.19263878464698792
3.8621160984039307 6.6909990310668945 0.19233550131320953
3.837005138397217 6.679471015930176 0.19130448997020721
3.822185754776001 6.686705589294434 0.19123248755931854
3.7972922325134277 6.675270080566406 0.19021061062812805
3.7796688079833984 6.677347660064697 0.18957087397575378
3.7633585929870605 6.680927276611328 0.18855856359004974
3.740687131881714 6.673027038574219 0.18764877319335938
3.7198190689086914 6.669161796569824 0.18684977293014526
3.710420846939087 6.6848835945129395 0.18660719692707062
3.685544967651367 6.672661304473877 0.18558669090270996
3.6655499935150146 6.670088291168213 0.18483197689056396
3.6397225856781006 6.655777931213379 0.18376241624355316
3.603020668029785 6.655088901519775 0.18239854276180267
3.5789830684661865 6.643582820892334 0.18141835927963257
7.538041114807129 -12.206846237182617 0.357004314661026
7.612584114074707 -12.212212562561035 0.36031049489974976
7.648061275482178 -12.212596893310547 0.358487993478775
7.716424942016602 -12.207172393798828 0.36192503571510315
7.822896957397461 -12.205044746398926 0.3659687638282776
7.92133092880249 -12.189263343811035 0.37053269147872925
8.024585723876953 -12.179874420166016 0.3753373622894287
8.127166748046875 -12.16836929321289 0.3792305290699005
8.244718551635742 -12.177915573120117 0.38472992181777954
9.389938354492188 -12.093779563903809 0.4277607202529907
9.509995460510254 -12.090721130371094 0.4325776696205139
9.607809066772461 -12.05829906463623 0.4373372793197632
9.743132591247559 -12.071636199951172 0.4438243508338928
9.813517570495605 -12.054615020751953 0.4466131925582886
9.853568077087402 -12.05263900756836 0.4482475519180298
9.927787780761719 -12.039592742919922 0.4521726667881012
9.974702835083008 -12.045473098754883 0.4541252851486206
10.065269470214844 -12.051162719726562 0.45785290002822876
10.09504508972168 -12.035959243774414 0.45989707112312317
10.182546615600586 -12.03696060180664 0.4635888636112213
11.635272026062012 -11.915918350219727 0.5195038318634033
11.78174877166748 -11.915143966674805 0.5266855955123901
11.822349548339844 -11.906682968139648 0.5284197926521301
11.915128707885742 -11.899473190307617 0.5324788689613342
11.957209587097168 -11.892038345336914 0.5342856049537659
12.009735107421875 -11.893353462219238 0.5365288257598877
12.061375617980957 -11.895017623901367 0.5397025346755981
12.10856819152832 -11.892094612121582 0.5417459607124329
12.157635688781738 -11.889368057250977 0.5438427925109863
12.193297386169434 -11.874839782714844 0.5453740954399109
12.249733924865723 -11.88037395477295 0.5479373335838318
12.334660530090332 -11.862340927124023 0.5525326728820801
13.856234550476074 -11.739627838134766 0.6098746061325073
14.012939453125 -11.721866607666016 0.6168652772903442
14.077560424804688 -11.726351737976074 0.619756817817688
14.180359840393066 -11.71117877960205 0.625477135181427
14.233036994934082 -11.705086708068848 0.62785404920578
14.28470230102539 -11.697826385498047 0.6301859617233276
14.336212158203125 -11.689074516296387 0.6324887275695801
14.387266159057617 -11.68108081817627 0.6348028182983398
14.445623397827148 -11.677350044250488 0.637410581111908
14.516390800476074 -11.684828758239746 0.6406006217002869
14.561039924621582 -11.671056747436523 0.6426410675048828
14.670232772827148 -11.65744400024414 0.6475777626037598
14.734585762023926 -11.658777236938477 0.650497317314148
14.844125747680664 -11.644134521484375 0.655468225479126
15.010772705078125 -11.623027801513672 0.6571524739265442
16.464351654052734 -11.625596046447754 0.7235344052314758
16.770437240600586 -11.6830472946167 0.7298503518104553
16.93075942993164 -11.690520286560059 0.7372216582298279
17.784090042114258 -12.115337371826172 0.7750006318092346
17.847515106201172 -12.102949142456055 0.7779567241668701
17.917306900024414 -12.096071243286133 0.7812243103981018
17.974132537841797 -12.078620910644531 0.7838985323905945
18.0550537109375 -12.078686714172363 0.7876598834991455
18.14189910888672 -12.082220077514648 0.7916828989982605
18.216035842895508 -12.075644493103027 0.7951288223266602
18.271085739135742 -12.057634353637695 0.7977754473686218
18.353515625 -12.05728530883789 0.8014973402023315
18.428577423095703 -12.05046558380127 0.8049976229667664
18.571352005004883 -12.033940315246582 0.8117464184761047
18.72763442993164 -12.023529052734375 0.8190773725509644
18.9656982421875 -12.008667945861816 0.8290408849716187
19.99158477783203 -11.963214874267578 0.868547260761261
20.22176170349121 -11.92895221710205 0.8782798051834106
20.486080169677734 -11.911908149719238 0.8908352255821228
20.656997680664062 -11.895164489746094 0.8988548517227173
20.726205825805664 -11.876296043395996 0.9022237062454224
20.889049530029297 -11.854551315307617 0.9087686538696289
20.971006393432617 -11.842069625854492 0.9127060770988464
21.065061569213867 -11.837433815002441 0.9159262180328369
21.15428352355957 -11.829876899719238 0.9202167987823486
21.239290237426758 -11.818086624145508 0.9162461757659912
21.327844619750977 -11.809300422668457 0.9204939007759094
21.409807205200195 -11.795159339904785 0.9244393110275269
21.50112533569336 -11.787210464477539 0.9288198351860046
