VERSION .7
FIELDS x y z
SIZE 4 4 4
TYPE F F F
COUNT 1 1 1
WIDTH 831
HEIGHT 1
VIEWPOINT 0 0 0 1 0 0 0
POINTS 831
DATA ascii
5.32011604309082 6.711251735687256 -0.16693010926246643
5.300683975219727 6.715534687042236 -0.1662394404411316
5.272683143615723 6.70926570892334 -0.1652853935956955
5.256839275360107 6.717752933502197 -0.16470643877983093
5.240020751953125 6.7258148193359375 -0.16462695598602295
5.215779781341553 6.723432540893555 -0.163784921169281
5.201975345611572 6.734447479248047 -0.1632704734802246
5.181364059448242 6.737466335296631 -0.1625576764345169
5.155622482299805 6.732861518859863 -0.16166862845420837
5.143445014953613 6.746133327484131 -0.16159431636333466
5.123559951782227 6.749690055847168 -0.16103537380695343
5.10729455947876 6.757334232330322 -0.1604471355676651
5.072976112365723 6.741820335388184 -0.15930896997451782
5.0643486976623535 6.7595062255859375 -0.15895849466323853
5.046648025512695 6.7650909423828125 -0.15871214866638184
5.025615692138672 6.7670111656188965 -0.15799057483673096
5.004901885986328 6.76841926574707 -0.1572677195072174
4.963055610656738 6.771294593811035 -0.15595349669456482
4.951666355133057 6.785242557525635 -0.15552310645580292
4.9107184410095215 6.788991928100586 -0.15690310299396515
4.89426851272583 6.795904159545898 -0.15631578862667084
4.8719282150268555 6.79544734954834 -0.1555563062429428
4.850118637084961 6.794760704040527 -0.15517854690551758
4.8388671875 6.808834075927734 -0.15475958585739136
4.817009925842285 6.808835983276367 -0.15401609241962433
4.7918477058410645 6.803168773651123 -0.153285413980484
4.756811618804932 6.814203262329102 -0.15206687152385712
4.736993789672852 6.815906047821045 -0.15137845277786255
4.713828086853027 6.813586711883545 -0.15097245573997498
4.694209098815918 6.815413475036621 -0.15029144287109375
4.676994323730469 6.820674419403076 -0.14968842267990112
4.655779838562012 6.8209333419799805 -0.14897190034389496
4.641232967376709 6.83001708984375 -0.14845538139343262
4.625850200653076 6.838529109954834 -0.14805233478546143
4.600044250488281 6.831112384796143 -0.1471802443265915
4.586938381195068 6.842254638671875 -0.14671127498149872
4.573519706726074 6.853848934173584 -0.14662089943885803
4.540811061859131 6.835513114929199 -0.14552609622478485
4.522520065307617 6.838726997375488 -0.1448938548564911
4.508289813995361 6.848964691162109 -0.14440606534481049
4.488532066345215 6.849858283996582 -0.1437278538942337
4.47223424911499 6.8559794425964355 -0.1432894468307495
4.448113441467285 6.850939750671387 -0.1443389505147934
4.433182716369629 6.859066963195801 -0.1438172608613968
4.415953159332275 6.864531517028809 -0.14323516190052032
4.397688865661621 6.867419242858887 -0.1431046426296234
4.3830485343933105 6.875934600830078 -0.1425941288471222
4.363759994506836 6.878046989440918 -0.14194750785827637
4.342987060546875 6.876811504364014 -0.141239196062088
4.326361656188965 6.882077693939209 -0.14066579937934875
4.305741786956787 6.881861209869385 -0.13997779786586761
4.285410404205322 6.881081581115723 -0.1392858922481537
4.2729268074035645 6.892872333526611 -0.13884922862052917
4.2484002113342285 6.88611364364624 -0.1380358785390854
4.239381790161133 6.903513431549072 -0.137714222073555
4.217571258544922 6.901012897491455 -0.1369902491569519
4.199563503265381 6.903703689575195 -0.13637706637382507
4.173770904541016 6.893481731414795 -0.1360030174255371
4.166792392730713 6.915256023406982 -0.13576413691043854
4.145808696746826 6.912842750549316 -0.13505545258522034
4.125917911529541 6.912155628204346 -0.13438303768634796
4.11021614074707 6.919394493103027 -0.13386179506778717
4.096867561340332 6.929633140563965 -0.1334037184715271
4.0551042556762695 6.925403594970703 -0.13201197981834412
4.039132595062256 6.931073188781738 -0.13159620761871338
4.008214473724365 6.9450883865356445 -0.13165175914764404
12.15621566772461 -6.6260600090026855 -0.3295283913612366
12.174805641174316 -6.537252426147461 -0.3299705386161804
12.19950008392334 -6.386436462402344 -0.3307126462459564
12.191404342651367 -6.284869194030762 -0.330863356590271
12.134334564208984 -5.2872395515441895 -0.3338407874107361
12.151110649108887 -5.2039031982421875 -0.33420315384864807
12.143911361694336 -5.110714912414551 -0.3341221809387207
12.140897750854492 -5.0493669509887695 -0.3342602849006653
12.150333404541016 -5.023740768432617 -0.33422571420669556
12.159167289733887 -4.967535495758057 -0.3346947729587555
12.157914161682129 -4.9376068115234375 -0.33496490120887756
12.163738250732422 -4.880398273468018 -0.33535850048065186
12.111632347106934 -4.136593341827393 -0.3384169042110443
12.106415748596191 -4.049396514892578 -0.33832722902297974
12.105048179626465 -3.96450138092041 -0.3391420841217041
12.098668098449707 -3.906676769256592 -0.3436928689479828
12.103647232055664 -3.8799614906311035 -0.34359949827194214
12.098938941955566 -3.822941780090332 -0.3437896966934204
12.100687980651855 -3.7952914237976074 -0.3438052535057068
12.093546867370605 -3.765504837036133 -0.34338098764419556
12.08338737487793 -3.7340452671051025 -0.3434405028820038
12.092865943908691 -3.7094991207122803 -0.34368568658828735
12.085675239562988 -3.6796634197235107 -0.3432655334472656
12.086021423339844 -3.6517820358276367 -0.3436232805252075
12.08209228515625 -3.623044013977051 -0.34349673986434937
12.079605102539062 -3.5671274662017822 -0.343568354845047
12.083423614501953 -3.5408029556274414 -0.3436625301837921
12.088235855102539 -3.4598441123962402 -0.34394195675849915
12.089360237121582 -3.378085136413574 -0.34412747621536255
12.037328720092773 -2.9582738876342773 -0.34791454672813416
12.060572624206543 -2.9101815223693848 -0.34879133105278015
12.051372528076172 -2.881509780883789 -0.3485470414161682
12.060396194458008 -2.8300256729125977 -0.3490220606327057
12.045146942138672 -2.8000879287719727 -0.3486063778400421
12.041945457458496 -2.745941638946533 -0.3481757938861847
12.050765991210938 -2.7216575145721436 -0.3488268554210663
12.056843757629395 -2.6959726810455322 -0.3490300178527832
12.04664421081543 -2.6674554347991943 -0.34857377409935
12.027509689331055 -2.636476755142212 -0.347857266664505
12.042219161987305 -2.613323211669922 -0.348682701587677
12.036340713500977 -2.5859055519104004 -0.35170167684555054
12.042158126831055 -2.560255527496338 -0.35171160101890564
12.036317825317383 -2.5329179763793945 -0.3519468605518341
12.028565406799316 -2.5052311420440674 -0.3517587184906006
12.042879104614258 -2.481381893157959 -0.3520219326019287
12.040213584899902 -2.4547970294952393 -0.3517962694168091
12.024494171142578 -2.424849033355713 -0.3517397940158844
12.055688858032227 -2.4051151275634766 -0.35270029306411743
12.03445053100586 -2.3749208450317383 -0.35193300247192383
12.024864196777344 -2.3463523387908936 -0.35150304436683655
12.03467082977295 -2.3223507404327393 -0.3522059917449951
12.034117698669434 -2.2438671588897705 -0.3519626259803772
12.024754524230957 -2.1639881134033203 -0.35203152894973755
12.026701927185059 -2.086174964904785 -0.3524424135684967
11.972739219665527 -1.8703913688659668 -0.35153767466545105
11.952232360839844 -1.7897356748580933 -0.35133498907089233
11.964553833007812 -1.7662031650543213 -0.3515874743461609
11.950668334960938 -1.7386283874511719 -0.3510749936103821
11.949355125427246 -1.7125705480575562 -0.3511171340942383
11.945209503173828 -1.6866860389709473 -0.35144054889678955
11.953140258789062 -1.661769986152649 -0.35156741738319397
11.928192138671875 -1.6330771446228027 -0.3507336378097534
11.932936668395996 -1.6083152294158936 -0.3507741391658783
11.917866706848145 -1.5554004907608032 -0.3508722186088562
11.90262508392334 -1.5281068086624146 -0.350327730178833
11.900799751281738 -1.5022276639938354 -0.35018089413642883
11.897172927856445 -1.4766945838928223 -0.3499774634838104
11.904552459716797 -1.4517942667007446 -0.35029447078704834
11.88974666595459 -1.4249545335769653 -0.35031452775001526
11.887295722961426 -1.3994545936584473 -0.35015669465065
11.897385597229004 -1.3750708103179932 -0.3503649830818176
11.894878387451172 -1.3497732877731323 -0.35020560026168823
11.872505187988281 -1.3220957517623901 -0.3478422164916992
11.873958587646484 -1.296773076057434 -0.3478016257286072
11.883774757385254 -1.2727060317993164 -0.34801170229911804
11.878204345703125 -1.2466384172439575 -0.3483150601387024
11.862564086914062 -1.2201141119003296 -0.34796804189682007
11.873335838317871 -1.196138620376587 -0.3482075035572052
11.864879608154297 -1.1698771715164185 -0.3478889465332031
11.866290092468262 -1.1449687480926514 -0.34786075353622437
11.838373184204102 -1.0921627283096313 -0.34743836522102356
11.868837356567383 -1.0699495077133179 -0.34845709800720215
11.848567962646484 -0.9930710792541504 -0.34767282009124756
11.825156211853027 -0.9409756660461426 -0.34686478972435
11.819711685180664 -0.8658022880554199 -0.3472604751586914
11.817813873291016 -0.8156414031982422 -0.34710270166397095
11.802933692932129 -0.7900079488754272 -0.3466157913208008
11.818395614624023 -0.7410614490509033 -0.3476981818675995
11.803179740905762 -0.7149837017059326 -0.34398964047431946
11.786601066589355 -0.6892470121383667 -0.343464195728302
11.780220031738281 -0.6643469333648682 -0.3432370722293854
11.78810977935791 -0.6397184729576111 -0.3434271514415741
11.783600807189941 -0.6147655248641968 -0.3432570695877075
11.77701187133789 -0.5893833637237549 -0.34321361780166626
11.781022071838379 -0.5650774240493774 -0.3438304662704468
11.774778366088867 -0.540103554725647 -0.3436148166656494
11.777056694030762 -0.5151846408843994 -0.34364843368530273
11.758465766906738 -0.4897404909133911 -0.3430749475955963
11.753132820129395 -0.4650880992412567 -0.3428906202316284
11.764152526855469 -0.4405413866043091 -0.34318411350250244
11.743267059326172 -0.4151723384857178 -0.34254878759384155
11.743075370788574 -0.39023512601852417 -0.34251832962036133
11.732996940612793 -0.3653419017791748 -0.3423861861228943
11.733327865600586 -0.34098121523857117 -0.34290656447410583
11.732841491699219 -0.3160681128501892 -0.34287208318710327
11.731180191040039 -0.29147782921791077 -0.34280428290367126
11.727254867553711 -0.26703017950057983 -0.34267303347587585
11.727394104003906 -0.24196907877922058 -0.34266114234924316
11.74825668334961 -0.21801024675369263 -0.3432569205760956
11.747590065002441 -0.19361184537410736 -0.3432249426841736
11.74124526977539 -0.16841930150985718 -0.34302854537963867
11.736247062683105 -0.14398829638957977 -0.3430580198764801
11.744752883911133 -0.11918462067842484 -0.3390369415283203
11.750711441040039 -0.094673290848732 -0.3399212658405304
11.753644943237305 -0.07030461728572845 -0.3399991989135742
11.748108863830566 -0.04517422243952751 -0.3398364186286926
11.735420227050781 -0.020771944895386696 -0.3394666314125061
13.372909545898438 0.004081088583916426 -0.281216025352478
13.383127212524414 0.03185686841607094 -0.2814318537712097
13.360997200012207 0.06013663113117218 -0.2809683382511139
13.380447387695312 0.08820246905088425 -0.2813807725906372
13.363225936889648 0.11582186818122864 -0.2812330424785614
13.361557006835938 0.14414358139038086 -0.2818099558353424
13.348434448242188 0.17191623151302338 -0.2815394401550293
13.323009490966797 0.3676469922065735 -0.2764626443386078
13.318445205688477 0.39518213272094727 -0.27638450264930725
13.294509887695312 0.4220866560935974 -0.27590417861938477
13.298429489135742 0.4506502151489258 -0.2760046124458313
13.302301406860352 0.4784199595451355 -0.2761088013648987
13.295677185058594 0.5066232681274414 -0.27599215507507324
13.297090530395508 0.5343135595321655 -0.2760424017906189
13.307784080505371 0.5908883810043335 -0.27631232142448425
13.281708717346191 0.6173495650291443 -0.2757967710494995
13.283011436462402 0.6456409096717834 -0.27585119009017944
13.274811744689941 0.6730669140815735 -0.27571025490760803
13.267766952514648 0.7003166675567627 -0.2755934000015259
13.256291389465332 0.7281115651130676 -0.2753879427909851
13.238439559936523 0.7546895146369934 -0.27505066990852356
13.23670482635498 0.7823604345321655 -0.2750450372695923
13.260162353515625 0.8119672536849976 -0.2755667567253113
13.25661849975586 0.839367151260376 -0.2755301892757416
13.250164985656738 0.86738121509552 -0.27543461322784424
13.240764617919922 0.8943645358085632 -0.27548307180404663
13.244043350219727 0.9221993088722229 -0.27077606320381165
13.221025466918945 0.9489809274673462 -0.2703441381454468
13.238791465759277 0.9778748750686646 -0.270749568939209
13.233957290649414 1.005344033241272 -0.27069252729415894
13.223179817199707 1.0327317714691162 -0.27051353454589844
13.197012901306152 1.0582460165023804 -0.2700217366218567
13.201147079467773 1.0869646072387695 -0.27015596628189087
13.182350158691406 1.112963080406189 -0.2698220908641815
13.191325187683105 1.141295313835144 -0.2700487971305847
13.177835464477539 1.1684950590133667 -0.26982590556144714
13.182788848876953 1.1965113878250122 -0.2699757218360901
13.15389633178711 1.2222256660461426 -0.26943859457969666
13.14810562133789 1.2492135763168335 -0.2693707048892975
13.141838073730469 1.2763501405715942 -0.2693018913269043
13.159353256225586 1.3062248229980469 -0.26970940828323364
13.151607513427734 1.3330227136611938 -0.2696009874343872
13.157146453857422 1.3895878791809082 -0.26982828974723816
13.122919082641602 1.4135156869888306 -0.2691906988620758
13.1450777053833 1.4443154335021973 -0.2697071433067322
13.139646530151367 1.4713215827941895 -0.2696583569049835
13.134162902832031 1.5267415046691895 -0.2696799039840698
13.125905990600586 1.553395390510559 -0.2697790861129761
13.11054801940918 1.607593297958374 -0.2654033303260803
13.116127967834473 1.635912537574768 -0.26558125019073486
13.100143432617188 1.6623464822769165 -0.2653292715549469
13.122794151306152 1.6928991079330444 -0.26586049795150757
13.094614028930664 1.745359182357788 -0.26544344425201416
13.088571548461914 1.7722055912017822 -0.2653835415840149
13.099266052246094 1.802157998085022 -0.2656828761100769
13.086250305175781 1.8280458450317383 -0.2652856111526489
13.064663887023926 1.8528878688812256 -0.2649294137954712
13.062070846557617 1.8807847499847412 -0.2649465799331665
13.056309700012207 1.9076197147369385 -0.26491594314575195
13.068487167358398 1.9379210472106934 -0.2646379768848419
13.056951522827148 1.963910698890686 -0.26448869705200195
13.057178497314453 1.9916625022888184 -0.26457592844963074
13.05441951751709 2.019787311553955 -0.2646050453186035
13.04362678527832 2.045842409133911 -0.26447170972824097
13.024463653564453 2.0707480907440186 -0.26418396830558777
13.022268295288086 2.0987212657928467 -0.26420900225639343
13.006722450256348 2.123917818069458 -0.26398661732673645
12.99709701538086 2.1508612632751465 -0.26368263363838196
13.021195411682129 2.1826205253601074 -0.26426535844802856
12.974272727966309 2.2026541233062744 -0.26381397247314453
12.974437713623047 2.230998992919922 -0.2619110941886902
12.962499618530273 2.2566511631011963 -0.26176097989082336
12.966510772705078 2.2858989238739014 -0.26192706823349
12.93718433380127 2.3084206581115723 -0.2614343464374542
12.93122673034668 2.3352653980255127 -0.26141664385795593
12.916278839111328 2.36086106300354 -0.2606205940246582
12.892145156860352 2.384107828140259 -0.26024436950683594
12.886832237243652 2.411001205444336 -0.2602236270904541
12.881905555725098 2.4383645057678223 -0.2602325975894928
12.8808012008667 2.4658544063568115 -0.2600952982902527
12.865070343017578 2.491344451904297 -0.25988972187042236
12.846498489379883 2.515418291091919 -0.25961291790008545
12.846928596496582 2.5717272758483887 -0.25923624634742737
12.829137802124023 2.595867156982422 -0.25899186730384827
12.804887771606445 2.6471433639526367 -0.2585269510746002
12.777750015258789 2.669194459915161 -0.25808772444725037
12.782383918762207 2.6986730098724365 -0.2582961618900299
12.743967056274414 2.7181992530822754 -0.2576432228088379
12.723775863647461 2.7699666023254395 -0.2568711042404175
12.727490425109863 2.7984516620635986 -0.2570665180683136
12.707623481750488 2.8225555419921875 -0.25699084997177124
12.70009994506836 2.848552703857422 -0.25793156027793884
12.682880401611328 2.8725550174713135 -0.25770923495292664
12.672810554504395 2.898540496826172 -0.2576359212398529
12.669506072998047 2.9254651069641113 -0.25709208846092224
12.650201797485352 2.948880672454834 -0.25682926177978516
12.643869400024414 2.9756884574890137 -0.25681740045547485
12.645293235778809 3.0037314891815186 -0.25697362422943115
12.639545440673828 3.030905246734619 -0.2567707300186157
12.610599517822266 3.051652431488037 -0.2563256025314331
12.607521057128906 3.078824758529663 -0.2557975649833679
12.606099128723145 3.1068196296691895 -0.25590652227401733
12.604001998901367 3.134061336517334 -0.2559838891029358
12.580574035644531 3.1561801433563232 -0.25544601678848267
12.572739601135254 3.182569980621338 -0.2554292380809784
12.56895923614502 3.2095909118652344 -0.2554856836795807
12.544057846069336 3.231583595275879 -0.25452664494514465
12.544651985168457 3.259511947631836 -0.2546784281730652
12.534228324890137 3.285403251647949 -0.2544088661670685
12.536885261535645 3.3139188289642334 -0.2545938491821289
12.51404857635498 3.335890054702759 -0.2542811334133148
12.492419242858887 3.3585150241851807 -0.253395676612854
12.486268997192383 3.3846611976623535 -0.25341394543647766
12.493574142456055 3.4146981239318848 -0.2535037398338318
12.473793983459473 3.437736988067627 -0.2534583508968353
12.459304809570312 3.4615790843963623 -0.25682973861694336
12.456584930419922 3.489504337310791 -0.2569202184677124
12.459249496459961 3.5181515216827393 -0.25712552666664124
12.434198379516602 3.5676865577697754 -0.2561289966106415
12.420262336730957 3.5916008949279785 -0.2559949457645416
12.38068962097168 3.6367268562316895 -0.2554933726787567
12.399441719055176 3.670203685760498 -0.2558351755142212
12.368086814880371 3.6896772384643555 -0.254768043756485
12.342620849609375 3.7099905014038086 -0.2543987035751343
12.3601655960083 3.7720930576324463 -0.25488221645355225
12.322474479675293 3.7885615825653076 -0.2536720931529999
12.319015502929688 3.8163208961486816 -0.2537790834903717
12.297386169433594 3.837606906890869 -0.25350379943847656
12.30744743347168 3.8690030574798584 -0.2538710832595825
12.271683692932129 3.8863751888275146 -0.25309932231903076
12.287202835083008 3.9193644523620605 -0.25300002098083496
12.273431777954102 3.9432621002197266 -0.2528800964355469
12.249570846557617 3.9642741680145264 -0.25255995988845825
12.2283935546875 3.9854736328125 -0.2521061301231384
12.213689804077148 4.0095648765563965 -0.25139158964157104
12.2135009765625 4.037598609924316 -0.2517622411251068
12.210090637207031 4.064809799194336 -0.2569292187690735
12.181680679321289 4.0840678215026855 -0.2565123438835144
12.189632415771484 4.114892959594727 -0.2568560242652893
12.187333106994629 4.143139362335205 -0.25640609860420227
12.156172752380371 4.160707473754883 -0.2557348906993866
12.153921127319336 4.188133716583252 -0.25586995482444763
12.1549711227417 4.217566013336182 -0.256079763174057
12.125144004821777 4.2354278564453125 -0.2548522353172302
12.108867645263672 4.258788585662842 -0.2547019422054291
12.092794418334961 4.281354904174805 -0.2545522153377533
12.096253395080566 4.310849189758301 -0.2542249262332916
12.074627876281738 4.3322343826293945 -0.25376737117767334
12.080314636230469 4.3625922203063965 -0.2540718913078308
12.054315567016602 4.381714344024658 -0.25371989607810974
12.058626174926758 4.412254333496094 -0.2532236874103546
12.023653984069824 4.42777156829834 -0.25268372893333435
12.041296005249023 4.463502883911133 -0.25325316190719604
12.01632308959961 4.482629299163818 -0.25234317779541016
12.005915641784668 4.536437034606934 -0.25232234597206116
11.972464561462402 4.552212715148926 -0.2518211305141449
11.957131385803223 4.604111194610596 -0.2511143088340759
11.958763122558594 4.633258819580078 -0.2515471875667572
11.959366798400879 4.662899971008301 -0.2574101984500885
11.943796157836914 4.68540620803833 -0.2572837173938751
11.94002914428711 4.713384628295898 -0.2574191689491272
11.923276901245117 4.73539400100708 -0.256686270236969
11.926513671875 4.765357494354248 -0.2567676305770874
11.896812438964844 4.782986640930176 -0.25634732842445374
11.901248931884766 4.813483715057373 -0.2560741603374481
11.877476692199707 4.8621721267700195 -0.25580060482025146
11.85598087310791 4.882123947143555 -0.2547728419303894
11.8523588180542 4.910270690917969 -0.25491949915885925
11.830058097839355 4.929819583892822 -0.2546595633029938
11.831242561340332 4.9591546058654785 -0.2541229724884033
11.834066390991211 4.990086555480957 -0.2544114291667938
11.82115364074707 5.0135602951049805 -0.25435712933540344
11.802709579467773 5.034878730773926 -0.2534024119377136
11.801785469055176 5.064093112945557 -0.2536126375198364
11.775163650512695 5.081630706787109 -0.2532667815685272
11.778740882873535 5.11305046081543 -0.2527945041656494
11.762557029724121 5.1350603103637695 -0.252674400806427
11.74669361114502 5.15718412399292 -0.2525636851787567
11.731792449951172 5.180562496185303 -0.2516975402832031
11.72923755645752 5.208548069000244 -0.2518746256828308
11.700054168701172 5.2255401611328125 -0.25090479850769043
11.70631217956543 5.257500171661377 -0.2559390664100647
11.69481086730957 5.2815260887146 -0.25514286756515503
11.672775268554688 5.3016252517700195 -0.2549070715904236
11.67136287689209 5.330228328704834 -0.2549186050891876
11.659305572509766 5.354853630065918 -0.25431957840919495
11.649539947509766 5.379670143127441 -0.25434914231300354
11.633853912353516 5.401744842529297 -0.25346845388412476
11.620235443115234 5.425627708435059 -0.2534253001213074
11.61776065826416 5.4538655281066895 -0.2536168396472931
11.608861923217773 5.479116439819336 -0.25288695096969604
11.59908676147461 5.504831314086914 -0.25292882323265076
11.583887100219727 5.527100563049316 -0.2520644962787628
11.576469421386719 5.553951740264893 -0.2521584630012512
11.563952445983887 5.5774970054626465 -0.25213873386383057
11.560757637023926 5.605558395385742 -0.2515367567539215
11.542409896850586 5.627147674560547 -0.2513978183269501
11.544106483459473 5.657654762268066 -0.2509053647518158
11.52557373046875 5.708894729614258 -0.250823438167572
11.507580757141113 5.729752063751221 -0.25010430812835693
11.473864555358887 5.743584632873535 -0.2496371567249298
11.457019805908203 5.76491641998291 -0.24874740839004517
11.443679809570312 5.7879958152771 -0.2487189769744873
11.4268159866333 5.810154438018799 -0.25036972761154175
11.42440128326416 5.838795185089111 -0.25038158893585205
11.41080379486084 5.86262321472168 -0.24977147579193115
11.408584594726562 5.891439437866211 -0.2499900460243225
11.40553092956543 5.919874668121338 -0.24940839409828186
11.422918319702148 5.959909915924072 -0.250069260597229
11.397281646728516 5.976657390594482 -0.2489926815032959
11.395898818969727 6.0061163902282715 -0.24923205375671387
11.372636795043945 6.024934768676758 -0.24880126118659973
11.353485107421875 6.0449957847595215 -0.24806883931159973
11.300524711608887 6.047816753387451 -0.2471940964460373
11.282018661499023 6.068064212799072 -0.2462800294160843
11.230963706970215 6.070686340332031 -0.2454400360584259
11.193918228149414 6.081596851348877 -0.2441357970237732
11.164185523986816 6.095483779907227 -0.24376355111598969
11.124405860900879 6.104422569274902 -0.2424004077911377
11.074740409851074 6.107332229614258 -0.24159684777259827
11.041711807250977 6.119034290313721 -0.2403838038444519
10.990487098693848 6.121371746063232 -0.23955124616622925
10.96054458618164 6.134530067443848 -0.23897981643676758
10.917342185974121 6.140137672424316 -0.23774558305740356
10.882266998291016 6.151047706604004 -0.2372680902481079
10.83279037475586 6.1527791023254395 -0.23570460081100464
10.79081916809082 6.159465312957764 -0.2350783497095108
10.747264862060547 6.164208889007568 -0.23365381360054016
10.711942672729492 6.173526763916016 -0.2326003760099411
10.669572830200195 6.179509162902832 -0.23177571594715118
10.633834838867188 6.188315391540527 -0.230717271566391
10.58182430267334 6.1874799728393555 -0.22967562079429626
10.541117668151855 6.193933486938477 -0.22852183878421783
10.492745399475098 6.194838047027588 -0.2277524620294571
10.463924407958984 6.208005428314209 -0.22667190432548523
10.416009902954102 6.208837985992432 -0.22591103613376617
10.395285606384277 6.2257585525512695 -0.22500406205654144
10.339086532592773 6.2221479415893555 -0.2240726351737976
10.28898811340332 6.221118927001953 -0.22253203392028809
10.23189926147461 6.245595455169678 -0.22113482654094696
10.180242538452148 6.24309778213501 -0.22029605507850647
10.108192443847656 6.257645606994629 -0.21857967972755432
10.085762023925781 6.272747039794922 -0.21765199303627014
10.027778625488281 6.266432285308838 -0.2166869342327118
10.013243675231934 6.286281108856201 -0.21593345701694489
9.934821128845215 6.295533180236816 -0.21409425139427185
9.889829635620117 6.295825481414795 -0.21340560913085938
9.855317115783691 6.30348014831543 -0.21223486959934235
9.80860424041748 6.3023223876953125 -0.20886661112308502
9.787263870239258 6.317344665527344 -0.2086906135082245
9.73892879486084 6.315659046173096 -0.2072385549545288
9.714059829711914 6.3282060623168945 -0.20698827505111694
9.678325653076172 6.333573818206787 -0.20580056309700012
9.626143455505371 6.328836917877197 -0.20479726791381836
9.602544784545898 6.341901779174805 -0.20405267179012299
9.571419715881348 6.350751876831055 -0.20349879562854767
9.529461860656738 6.351433277130127 -0.20236700773239136
9.502220153808594 6.361794948577881 -0.2018897384405136
9.461847305297852 6.364078998565674 -0.20080244541168213
9.434517860412598 6.374173164367676 -0.20032456517219543
9.392780303955078 6.375025272369385 -0.19920921325683594
9.362249374389648 6.382937431335449 -0.19866742193698883
9.318581581115723 6.381532669067383 -0.1975078582763672
9.285236358642578 6.387877941131592 -0.19640196859836578
9.240358352661133 6.3852949142456055 -0.1955561637878418
9.226451873779297 6.404015064239502 -0.19503365457057953
9.188291549682617 6.406656265258789 -0.19434043765068054
9.155887603759766 6.41234016418457 -0.1934284269809723
9.111501693725586 6.409692764282227 -0.19259904325008392
9.10110855102539 6.4312744140625 -0.19216209650039673
9.061481475830078 6.431506156921387 -0.19092810153961182
9.033968925476074 6.441044807434082 -0.19063764810562134
8.984230995178223 6.43374490737915 -0.1863601803779602
8.956216812133789 6.441843509674072 -0.18588262796401978
8.922402381896973 6.4464874267578125 -0.18479327857494354
8.87520980834961 6.440464496612549 -0.18409426510334015
8.852442741394043 6.452030181884766 -0.1832299679517746
8.83825969696045 6.470648765563965 -0.18322141468524933
8.796531677246094 6.468179702758789 -0.18196745216846466
8.767701148986816 6.4752678871154785 -0.18098583817481995
8.72352409362793 6.471275806427002 -0.1803564876317978
8.706923484802246 6.4870147705078125 -0.1796276569366455
8.665531158447266 6.485010147094727 -0.1790594756603241
8.638808250427246 6.4930219650268555 -0.17812606692314148
8.605005264282227 6.495604038238525 -0.17721590399742126
8.583556175231934 6.508244037628174 -0.1768929660320282
8.536831855773926 6.500761032104492 -0.1755513697862625
8.510332107543945 6.509350299835205 -0.17529329657554626
8.476242065429688 6.511200904846191 -0.17421689629554749
8.452938079833984 6.521236419677734 -0.17353029549121857
8.414212226867676 6.52008056640625 -0.1728544682264328
8.399736404418945 6.536806106567383 -0.17218543589115143
8.3264799118042 6.536285400390625 -0.17060020565986633
8.292001724243164 6.537076950073242 -0.17017260193824768
8.27364730834961 6.551313400268555 -0.16943737864494324
8.232316970825195 6.546429634094238 -0.1650543063879013
8.206670761108398 6.553879261016846 -0.1646432876586914
8.179342269897461 6.560721397399902 -0.1639004349708557
8.152610778808594 6.567129135131836 -0.16347378492355347
8.120746612548828 6.569504737854004 -0.16263605654239655
8.085081100463867 6.56906795501709 -0.16156740486621857
8.06570816040039 6.581161022186279 -0.16128812730312347
8.045753479003906 6.592949867248535 -0.16069261729717255
8.003039360046387 6.58636474609375 -0.15995384752750397
7.991154670715332 6.604445934295654 -0.15935826301574707
7.952858924865723 6.600831031799316 -0.15840166807174683
7.9261579513549805 6.607105255126953 -0.1579846739768982
7.889513969421387 6.60435676574707 -0.1570630520582199
7.874568939208984 6.62050724029541 -0.15688452124595642
7.842292785644531 6.621197700500488 -0.15588681399822235
7.806273460388184 6.61879301071167 -0.15498489141464233
7.780701637268066 6.625522613525391 -0.15459409356117249
7.761898040771484 6.63734769821167 -0.15386947989463806
7.731472015380859 6.639975547790527 -0.15308284759521484
7.707280158996582 6.647039890289307 -0.15271595120429993
7.667522430419922 6.640758514404297 -0.1515890657901764
7.651772499084473 6.655566692352295 -0.15109291672706604
7.608437538146973 6.645658016204834 -0.15035191178321838
7.594785690307617 6.661779403686523 -0.14973977208137512
7.571557998657227 6.669867515563965 -0.14697265625
7.540337562561035 6.670206546783447 -0.14647722244262695
7.507422924041748 6.669122695922852 -0.14565017819404602
7.475474834442139 6.669157028198242 -0.1451568305492401
7.449087142944336 6.673640251159668 -0.14430184662342072
7.431643962860107 6.686474800109863 -0.14377890527248383
7.38928747177124 6.676164627075195 -0.14307700097560883
7.373530864715576 6.689984321594238 -0.14243541657924652
7.34763765335083 6.694953441619873 -0.14159654080867767
7.3279876708984375 6.704933166503906 -0.14148837327957153
7.274074554443359 6.712103366851807 -0.13978298008441925
7.248176097869873 6.716107368469238 -0.13955098390579224
7.193784713745117 6.722236633300781 -0.13784492015838623
7.1363043785095215 6.7250447273254395 -0.13668735325336456
7.121288299560547 6.738849639892578 -0.13607104122638702
7.067255020141602 6.744359970092773 -0.13498245179653168
7.008411407470703 6.744828224182129 -0.13380974531173706
6.99249792098999 6.757519721984863 -0.13317713141441345
6.926208972930908 6.750100612640381 -0.1305519938468933
6.914122104644775 6.766352653503418 -0.1305830180644989
6.896933555603027 6.7778215408325195 -0.12993204593658447
6.85617733001709 6.766408443450928 -0.12885421514511108
6.837456703186035 6.775999546051025 -0.12875887751579285
6.817605018615723 6.784639358520508 -0.12806856632232666
6.781851291656494 6.777743339538574 -0.12708604335784912
6.763099670410156 6.787327766418457 -0.12684769928455353
6.7427897453308105 6.795705318450928 -0.1262935996055603
6.7253289222717285 6.806298732757568 -0.12565280497074127
6.690154075622559 6.799077033996582 -0.1251133233308792
6.674045562744141 6.811537742614746 -0.12449707090854645
6.646277904510498 6.811415672302246 -0.12381376326084137
6.623006343841553 6.8160200119018555 -0.12349620461463928
6.592100143432617 6.8130598068237305 -0.12260739505290985
6.570588111877441 6.819087505340576 -0.12204304337501526
6.543240070343018 6.819183826446533 -0.1212257593870163
6.531865119934082 6.8362884521484375 -0.12112973630428314
6.501706123352051 6.833271503448486 -0.12025952339172363
6.480672836303711 6.840153217315674 -0.11971405148506165
6.458453178405762 6.845096111297607 -0.11941733956336975
6.434028625488281 6.847837924957275 -0.11865317821502686
6.41196870803833 6.85342264175415 -0.11794199049472809
6.386187553405762 6.854539394378662 -0.1173124685883522
6.363784313201904 6.859600067138672 -0.1175818145275116
6.345116138458252 6.868007183074951 -0.1169334352016449
6.315439224243164 6.864626407623291 -0.11608251929283142
6.291258335113525 6.867512226104736 -0.11534044146537781
6.269288063049316 6.872106552124023 -0.11504633724689484
6.253238201141357 6.883364677429199 -0.11459436267614365
6.215394496917725 6.870926380157471 -0.11360877752304077
6.202157974243164 6.884958744049072 -0.11347518116235733
6.173891067504883 6.8824639320373535 -0.11265822499990463
6.156102180480957 6.891979694366455 -0.1121862530708313
6.110562324523926 6.899259567260742 -0.11117569357156754
6.085115909576416 6.899321556091309 -0.11040864884853363
6.037381172180176 6.903590679168701 -0.10910175740718842
6.018911361694336 6.911361217498779 -0.10887874662876129
5.982055187225342 6.927736282348633 -0.1076173484325409
5.9470744132995605 6.916187763214111 -0.10725072771310806
5.904153347015381 6.92505407333374 -0.10588832199573517
5.858942031860352 6.93093729019165 -0.10489986091852188
5.848057746887207 6.947251319885254 -0.10455138981342316
5.803079128265381 6.95304536819458 -0.10495175421237946
5.779157638549805 6.95388650894165 -0.1046380028128624
5.755228519439697 6.955044269561768 -0.10392080247402191
5.729413986206055 6.9531755447387695 -0.10316203534603119
5.713359355926514 6.963306903839111 -0.10272786766290665
5.6871113777160645 6.961368083953857 -0.10238449275493622
5.673057556152344 6.9736528396606445 -0.10183925926685333
5.648375034332275 6.973042964935303 -0.10111023485660553
5.6350202560424805 6.9867963790893555 -0.10058769583702087
5.609543800354004 6.984821319580078 -0.09998659789562225
5.589118480682373 6.98927116394043 -0.09974467754364014
5.568548679351807 6.993902206420898 -0.09909045696258545
5.548248291015625 6.998384952545166 -0.09844789654016495
5.525100231170654 6.999625205993652 -0.09775381535291672
5.501351833343506 6.999357223510742 -0.09745460748672485
5.47796630859375 6.999678611755371 -0.09689441323280334
5.45157527923584 6.996474742889404 -0.09615043550729752
5.43486213684082 7.0049591064453125 -0.09556850790977478
5.430178165435791 7.029219150543213 -0.09520106017589569
5.39249324798584 7.011117935180664 -0.09466502070426941
5.377900123596191 7.022251129150391 -0.09425767511129379
5.344608783721924 7.009092330932617 -0.09339919686317444
5.337469100952148 7.030599117279053 -0.09313236176967621
5.306000232696533 7.019575119018555 -0.09469714760780334
5.292780876159668 7.0330400466918945 -0.09418950974941254
5.273680210113525 7.038010120391846 -0.09357348829507828
5.257390975952148 7.0475945472717285 -0.09301172196865082
5.2315473556518555 7.043400764465332 -0.0926770344376564
5.211232662200928 7.046552658081055 -0.09204117953777313
5.1965413093566895 7.058176040649414 -0.09165067970752716
5.169933319091797 7.052643299102783 -0.09090247005224228
5.151083946228027 7.057831764221191 -0.09029900282621384
5.142331123352051 7.077306747436523 -0.0902707502245903
5.113308429718018 7.0681610107421875 -0.08948559314012527
5.088534355163574 7.064976215362549 -0.08878226578235626
5.071081161499023 7.0723185539245605 -0.08820442855358124
5.055183410644531 7.0811309814453125 -0.0877893716096878
5.034570693969727 7.083530902862549 -0.0871579498052597
5.003767490386963 7.071901321411133 -0.0867520198225975
4.990713596343994 7.084587097167969 -0.08625005930662155
4.978462219238281 7.099360466003418 -0.08576888591051102
4.945409774780273 7.0834503173828125 -0.08492587506771088
4.903709888458252 7.087125778198242 -0.08380608260631561
4.893729209899902 7.10416316986084 -0.08335953950881958
4.857901573181152 7.116117000579834 -0.08259476721286774
4.833209991455078 7.11159610748291 -0.08437740802764893
4.81955099105835 7.124186992645264 -0.08387912809848785
4.792361259460449 7.115768909454346 -0.0831397995352745
4.779538631439209 7.128612518310547 -0.08265036344528198
4.758020401000977 7.129398345947266 -0.08240555226802826
4.743374824523926 7.139496326446533 -0.081885427236557
4.694363117218018 7.130697727203369 -0.08051556348800659
4.679163932800293 7.139827728271484 -0.07998676598072052
4.654825687408447 7.135893821716309 -0.07944537699222565
4.636746883392334 7.14051628112793 -0.07886980473995209
4.625657081604004 7.155906677246094 -0.07841309159994125
4.598248481750488 7.146946907043457 -0.0776890218257904
4.590085506439209 7.166900634765625 -0.07766851037740707
4.559118747711182 7.151182174682617 -0.07687835395336151
4.548589706420898 7.168404579162598 -0.07644033432006836
4.518192291259766 7.153268814086914 -0.07566192746162415
4.503061294555664 7.1631598472595215 -0.07514835149049759
4.484572410583496 7.166713237762451 -0.07457205653190613
4.468782901763916 7.174548149108887 -0.07417349517345428
4.441235542297363 7.164380073547363 -0.07345568388700485
4.427940368652344 7.176143646240234 -0.07296792417764664
4.402448654174805 7.168074607849121 -0.07266052812337875
4.390712738037109 7.183331489562988 -0.07220534235239029
4.368860721588135 7.181027412414551 -0.073615163564682
4.358945369720459 7.198328018188477 -0.07318597286939621
4.3321051597595215 7.1886186599731445 -0.07248081266880035
4.318362712860107 7.199568748474121 -0.07198812067508698
4.293227195739746 7.192448139190674 -0.07131327688694
4.284694671630859 7.212120056152344 -0.0709083154797554
4.263378143310547 7.210272789001465 -0.0702923834323883
4.239223003387451 7.204505920410156 -0.06963695585727692
4.215988636016846 7.19915771484375 -0.06899075955152512
4.2056732177734375 7.215840816497803 -0.06855732202529907
4.178971290588379 7.205363750457764 -0.06786423921585083
4.162803649902344 7.211930751800537 -0.06733600795269012
4.14711332321167 7.220066070556641 -0.0668218582868576
4.131827354431152 7.2284064292907715 -0.06644178926944733
4.102275848388672 7.21140193939209 -0.0657004714012146
4.087544918060303 7.221090793609619 -0.06557881832122803
4.071044921875 7.227149486541748 -0.0650504007935524
4.060024738311768 7.242693901062012 -0.06460762768983841
4.034405708312988 7.233175754547119 -0.06394016742706299
4.017546653747559 7.238216400146484 -0.06340541690587997
3.9921822547912598 7.227826118469238 -0.06273817270994186
3.9828906059265137 7.2475433349609375 -0.06233024597167969
3.960480213165283 7.242330551147461 -0.06171064078807831
3.920936107635498 7.242306232452393 -0.06181231141090393
3.9104907512664795 7.2589521408081055 -0.06138230115175247
13.999350547790527 -7.143507480621338 -0.25077226758003235
14.056236267089844 -6.87767219543457 -0.25351062417030334
14.004228591918945 -5.756257057189941 -0.2586572468280792
14.053730010986328 -5.67359733581543 -0.2628836929798126
14.016664505004883 -5.5564117431640625 -0.2626814842224121
14.035415649414062 -5.4955620765686035 -0.26328542828559875
14.044021606445312 -5.46534538269043 -0.2634563744068146
14.03066635131836 -5.392220497131348 -0.2636928856372833
14.012489318847656 -5.351889133453369 -0.263155996799469
14.005558013916016 -5.281762599945068 -0.2635226249694824
14.024051666259766 -5.255520820617676 -0.26434028148651123
14.007316589355469 -5.182080268859863 -0.2638487219810486
13.990840911865234 -5.076221942901611 -0.2638385593891144
13.943445205688477 -4.341498374938965 -0.27110958099365234
13.932110786437988 -4.2420783042907715 -0.2712584435939789
13.926688194274902 -4.176419734954834 -0.27080249786376953
13.923749923706055 -4.144064903259277 -0.2714618444442749
13.90908432006836 -4.076013088226318 -0.2708415687084198
13.920934677124023 -4.048135280609131 -0.2770485579967499
13.89748764038086 -4.009820938110352 -0.2764180302619934
13.905099868774414 -3.9800963401794434 -0.27705517411231995
13.893400192260742 -3.9455723762512207 -0.27688536047935486
13.904075622558594 -3.917205810546875 -0.2769324481487274
13.903486251831055 -3.885235071182251 -0.2774091958999634
13.895915985107422 -3.85205078125 -0.27733027935028076
13.880772590637207 -3.78497576713562 -0.27735817432403564
13.883916854858398 -3.754661798477173 -0.2774888873100281
13.868587493896484 -3.688142776489258 -0.2775227427482605
13.8595609664917 -3.654730796813965 -0.2771877646446228
13.866798400878906 -3.5942485332489014 -0.27725470066070557
13.853006362915039 -3.5600109100341797 -0.27747857570648193
13.852617263793945 -3.4977855682373047 -0.27739617228507996
13.828522682189941 -3.031921863555908 -0.28409573435783386
13.804022789001465 -2.9357216358184814 -0.2840695381164551
13.802217483520508 -2.9054131507873535 -0.2839074730873108
13.795044898986816 -2.8731415271759033 -0.283633291721344
13.778288841247559 -2.839832067489624 -0.2838042378425598
13.781185150146484 -2.8106284141540527 -0.2839645445346832
13.785114288330078 -2.7807698249816895 -0.2839224338531494
13.771780014038086 -2.748350143432617 -0.28352993726730347
13.790600776672363 -2.7217116355895996 -0.28465625643730164
13.796893119812012 -2.692993640899658 -0.28466933965682983
13.796426773071289 -2.6631932258605957 -0.2845451235771179
13.778800010681152 -2.629271984100342 -0.28470027446746826
13.768665313720703 -2.5977368354797363 -0.2845996022224426
13.756704330444336 -2.5652830600738525 -0.2840186357498169
13.777519226074219 -2.5393660068511963 -0.28814616799354553
13.767539978027344 -2.507997512817383 -0.28782588243484497
13.75850772857666 -2.47622013092041 -0.2881626784801483
13.76233959197998 -2.4472124576568604 -0.2883577346801758
13.757658958435059 -2.4169387817382812 -0.2881529927253723
13.755305290222168 -2.3862452507019043 -0.28799334168434143
13.781160354614258 -2.3612818717956543 -0.28906548023223877
13.773113250732422 -2.3002381324768066 -0.2889125347137451
13.766493797302246 -2.26977801322937 -0.2886740267276764
13.743096351623535 -2.206509590148926 -0.288617342710495
13.737667083740234 -2.1764049530029297 -0.28862476348876953
13.756316184997559 -2.1200103759765625 -0.2888295650482178
13.724763870239258 -1.8500365018844604 -0.28885364532470703
13.68768310546875 -1.7870099544525146 -0.2891662120819092
13.669364929199219 -1.7551467418670654 -0.28891435265541077
13.69005298614502 -1.6998586654663086 -0.2898290157318115
13.659073829650879 -1.6666091680526733 -0.28909704089164734
13.642288208007812 -1.6062822341918945 -0.2885923683643341
13.642683029174805 -1.577631950378418 -0.2887459993362427
13.616451263427734 -1.5457533597946167 -0.2887464165687561
13.628355026245117 -1.5178403854370117 -0.2889302372932434
13.625646591186523 -1.4889189004898071 -0.2888045310974121
13.627685546875 -1.4603135585784912 -0.2887837886810303
13.602636337280273 -1.4284603595733643 -0.28840041160583496
13.60015869140625 -1.3996717929840088 -0.28828999400138855
13.574356079101562 -1.3677177429199219 -0.2882961332798004
13.566009521484375 -1.3384451866149902 -0.2880554497241974
13.564308166503906 -1.3096448183059692 -0.28796350955963135
13.572798728942871 -1.2814207077026367 -0.28808826208114624
13.564215660095215 -1.2520015239715576 -0.28806185722351074
13.578250885009766 -1.2242649793624878 -0.288921982049942
13.56120491027832 -1.1943621635437012 -0.2885079085826874
13.542523384094238 -1.164185881614685 -0.28805556893348694
13.54139518737793 -1.1351677179336548 -0.2879793047904968
13.531660079956055 -1.106077790260315 -0.28588157892227173
13.542692184448242 -1.0784786939620972 -0.28606319427490234
13.542585372924805 -1.0495758056640625 -0.2860156297683716
13.533241271972656 -1.0203893184661865 -0.28577107191085815
13.520524978637695 -0.9623974561691284 -0.2860320210456848
13.52792739868164 -0.9344996809959412 -0.2863588035106659
13.5137939453125 -0.8765692710876465 -0.28597721457481384
13.51901626586914 -0.8485255241394043 -0.2860535979270935
13.519895553588867 -0.7914331555366516 -0.2859976887702942
13.489081382751465 -0.7326400876045227 -0.28588706254959106
13.473979949951172 -0.703779399394989 -0.28574639558792114
13.481192588806152 -0.6472383737564087 -0.2858409881591797
13.49439811706543 -0.6191942691802979 -0.2860944867134094
13.458507537841797 -0.5613701939582825 -0.285280704498291
13.46261215209961 -0.532946765422821 -0.2853420376777649
13.448617935180664 -0.5042309165000916 -0.2850235402584076
13.461088180541992 -0.4767269194126129 -0.2858768403530121
13.448822021484375 -0.44774049520492554 -0.2858073115348816
13.437906265258789 -0.41925033926963806 -0.2818993926048279
13.428707122802734 -0.3904617726802826 -0.2816883325576782
13.427398681640625 -0.3625375032424927 -0.28164416551589966
13.433369636535645 -0.3345915377140045 -0.2817545235157013
13.451847076416016 -0.3065105676651001 -0.28212830424308777
13.429359436035156 -0.2779054045677185 -0.281854510307312
13.416025161743164 -0.24977785348892212 -0.28217077255249023
13.423126220703125 -0.22122633457183838 -0.2823101580142975
13.41988754272461 -0.19331739842891693 -0.28223344683647156
13.410160064697266 -0.1647360771894455 -0.2820201814174652
13.406997680664062 -0.13666053116321564 -0.2819472551345825
13.384552955627441 -0.10865385085344315 -0.2814699113368988
13.383354187011719 -0.08026298135519028 -0.2814410626888275
13.374234199523926 -0.052243366837501526 -0.2812461256980896
13.383953094482422 -0.023900248110294342 -0.2814488410949707
12.427640914916992 1.683856725692749 -0.28819453716278076
12.429864883422852 1.8172379732131958 -0.2881072759628296
12.045011520385742 2.7290287017822266 -0.28790760040283203
12.027275085449219 2.804616689682007 -0.2873406708240509
12.002483367919922 2.852184295654297 -0.2868361473083496
11.976621627807617 2.8723089694976807 -0.2863594591617584
11.966044425964355 2.92311954498291 -0.28584563732147217
11.954873085021973 3.000154733657837 -0.28602170944213867
11.639684677124023 3.7406070232391357 -0.28328388929367065
11.602265357971191 3.809217929840088 -0.2855053246021271
11.584382057189941 3.85746693611145 -0.2847152054309845
11.5772705078125 3.8818068504333496 -0.28474289178848267
11.557355880737305 3.929351806640625 -0.28465986251831055
11.530303955078125 3.9468657970428467 -0.2839926779270172
11.537511825561523 4.003695011138916 -0.28403735160827637
11.49048900604248 4.068490028381348 -0.2827574610710144
11.21313762664795 4.72864294052124 -0.27853792905807495
11.182933807373047 4.798932075500488 -0.2779848873615265
11.164122581481934 4.846635818481445 -0.27782589197158813
11.152803421020508 4.869253158569336 -0.27779823541641235
11.140670776367188 4.919920444488525 -0.27687308192253113
11.12568473815918 4.940918922424316 -0.27675846219062805
11.110065460205078 4.990104675292969 -0.2761443853378296
11.09669017791748 5.011796951293945 -0.27607545256614685
11.086738586425781 5.063623905181885 -0.2756073474884033
11.073129653930664 5.085207939147949 -0.2755352556705475
11.058597564697266 5.13503885269165 -0.27515947818756104
11.005850791931152 5.194900035858154 -0.27389684319496155
10.74748420715332 5.780966281890869 -0.2660975754261017
10.706679344177246 5.846095561981201 -0.2652432918548584
10.689224243164062 5.895139217376709 -0.26523733139038086
10.687023162841797 5.922881603240967 -0.26494109630584717
10.65757942199707 5.9653730392456055 -0.26465582847595215
10.620960235595703 5.973855972290039 -0.2635100781917572
10.585963249206543 6.012998580932617 -0.25939905643463135
10.534478187561035 6.012701988220215 -0.2582496404647827
10.4719877243042 6.035646915435791 -0.25679999589920044
10.442645072937012 6.047638893127441 -0.2561996579170227
10.354683876037598 6.055073261260986 -0.2541165053844452
10.317102432250977 6.061863422393799 -0.25277236104011536
10.253626823425293 6.082802772521973 -0.2518455982208252
10.194480895996094 6.076350212097168 -0.249973326921463
10.122315406799316 6.091257095336914 -0.2486439347267151
9.247465133666992 6.247583389282227 -0.22504672408103943
9.140898704528809 6.259640693664551 -0.2227376103401184
9.073814392089844 6.269997596740723 -0.22106480598449707
9.044861793518066 6.278369903564453 -0.22001314163208008
8.976441383361816 6.286454200744629 -0.21831700205802917
8.946342468261719 6.293692111968994 -0.2179119735956192
8.877933502197266 6.301020622253418 -0.21374721825122833
8.839459419250488 6.301943302154541 -0.2131434679031372
8.803792953491211 6.3043212890625 -0.2119370847940445
8.78194808959961 6.316891670227051 -0.2117341309785843
8.742408752441406 6.316020965576172 -0.21043801307678223
8.706562042236328 6.317873001098633 -0.20989401638507843
8.690701484680176 6.334538459777832 -0.20934773981571198
8.649591445922852 6.3321027755737305 -0.20850646495819092
8.622245788574219 6.339816570281982 -0.20768000185489655
8.588052749633789 6.342774391174316 -0.20700915157794952
8.555192947387695 6.346194744110107 -0.20653845369815826
8.530742645263672 6.355544567108154 -0.20561841130256653
8.45378589630127 6.353748321533203 -0.20375756919384003
