VERSION .7
FIELDS x y z
SIZE 4 4 4
TYPE F F F
COUNT 1 1 1
WIDTH 837
HEIGHT 1
VIEWPOINT 0 0 0 1 0 0 0
POINTS 837
DATA ascii
9.889690399169922 7.141684532165527 0.03111959993839264
9.842226028442383 7.138805389404297 0.031017431989312172
9.79784107208252 7.137687683105469 0.03092293068766594
9.762742042541504 7.144092559814453 0.030861154198646545
9.728117942810059 7.149800777435303 0.03079938516020775
9.676374435424805 7.143383979797363 0.030681880190968513
9.650104522705078 7.155251502990723 0.030645787715911865
9.605659484863281 7.153237342834473 0.03128346800804138
9.575006484985352 7.161985874176025 0.03123270347714424
9.539661407470703 7.166741371154785 0.031165271997451782
9.493128776550293 7.1626505851745605 0.030554454773664474
9.453603744506836 7.164299488067627 0.030043847858905792
9.422162055969238 7.171574592590332 0.029990296810865402
9.371763229370117 7.16397762298584 0.030597127974033356
9.344480514526367 7.174800395965576 0.030558981001377106
9.305978775024414 7.175983905792236 0.03048034757375717
9.27614974975586 7.18436336517334 0.030434105545282364
9.196056365966797 7.183858871459961 0.03026774525642395
9.158731460571289 7.1859893798828125 0.030194923281669617
9.076242446899414 7.183228015899658 0.03002414107322693
8.98061466217041 7.199827194213867 0.030347472056746483
8.864609718322754 7.198836326599121 0.03031710907816887
8.76456356048584 7.209497928619385 0.03012860380113125
8.686975479125977 7.207226753234863 0.030450819060206413
8.655817031860352 7.212023735046387 0.029912713915109634
8.577524185180664 7.207940101623535 0.03022465668618679
8.554576873779297 7.219265460968018 0.030197232961654663
8.488965034484863 7.225058555603027 0.030073661357164383
8.445384979248047 7.218508720397949 0.029971491545438766
8.42085075378418 7.228458404541016 0.02993886172771454
8.38249397277832 7.226067543029785 0.030058538541197777
8.353682518005371 7.231503963470459 0.030007947236299515
8.306063652038574 7.221112251281738 0.030364252626895905
8.291629791259766 7.2390971183776855 0.030365057289600372
8.244729995727539 7.228357315063477 0.030248867347836494
8.216347694396973 7.234308242797852 0.030201584100723267
8.183314323425293 7.235692977905273 0.03013591468334198
8.161184310913086 7.246982097625732 0.03011045604944229
8.113471984863281 7.235048294067383 0.02999017760157585
8.085758209228516 7.240514278411865 0.02994360774755478
8.060346603393555 7.248577117919922 0.03056795708835125
8.030411720275879 7.252122402191162 0.03051134943962097
7.993660926818848 7.249106407165527 0.030428895726799965
7.971645355224609 7.259969234466553 0.030403729528188705
7.929140090942383 7.251684665679932 0.030299022793769836
7.89913272857666 7.255023002624512 0.030244119465351105
7.867464542388916 7.256093978881836 0.03018002398312092
7.843014717102051 7.263989448547363 0.030601080507040024
7.800043106079102 7.254940986633301 0.03049355000257492
7.779144287109375 7.265937805175781 0.030666347593069077
7.740066051483154 7.259570121765137 0.030571388080716133
7.714648723602295 7.266503810882568 0.0305318646132946
7.6782050132751465 7.262572765350342 0.03044784814119339
7.662864685058594 7.278251647949219 0.030445657670497894
7.624839782714844 7.272913932800293 0.03035713918507099
7.6021809577941895 7.281756401062012 0.03077669069170952
7.562110900878906 7.274148941040039 0.030676592141389847
7.533711910247803 7.276989936828613 0.030815456062555313
7.50648832321167 7.281134605407715 0.030766628682613373
7.475534915924072 7.281900882720947 0.030701708048582077
7.416831016540527 7.2858428955078125 0.030587930232286453
7.391094207763672 7.2907609939575195 0.0309859961271286
7.322505474090576 7.284203052520752 0.03082674741744995
7.246483325958252 7.299785614013672 0.030887819826602936
7.161375999450684 7.3053388595581055 0.031157441437244415
7.095232963562012 7.299104690551758 0.0311899334192276
7.084957122802734 7.31886100769043 0.03121178410947323
7.015593528747559 7.308548927307129 0.03122710809111595
6.987051963806152 7.309384346008301 0.03160141408443451
6.938540935516357 7.319838523864746 0.03151872381567955
6.9017839431762695 7.31165885925293 0.031421273946762085
6.847637176513672 7.3155059814453125 0.0313144251704216
6.820690631866455 7.317363739013672 0.031444162130355835
6.799927234649658 7.326135635375977 0.03184693679213524
6.765772342681885 7.3197431564331055 0.03175778314471245
6.747306823730469 7.330495357513428 0.03174316883087158
6.704880714416504 7.315434455871582 0.03161773458123207
6.683433532714844 7.322751998901367 0.03158839792013168
6.661909103393555 7.330288887023926 0.03155907616019249
6.639243125915527 7.335877418518066 0.03170721232891083
6.604765892028809 7.328561782836914 0.03161358833312988
6.58579683303833 7.33870792388916 0.03201904520392418
6.544791221618652 7.323531150817871 0.0318944975733757
6.529484748840332 7.337261199951172 0.031892403960227966
6.507462501525879 7.343775749206543 0.031861454248428345
6.480237007141113 7.343969345092773 0.03180456906557083
6.450463771820068 7.340876579284668 0.032091811299324036
6.432244777679443 7.351484298706055 0.03249388188123703
6.397904872894287 7.343202114105225 0.032577961683273315
6.381709098815918 7.356009483337402 0.03257324546575546
6.344769477844238 7.34416389465332 0.03246282786130905
6.320281982421875 7.346855640411377 0.032417163252830505
6.293034553527832 7.346595764160156 0.032357241958379745
6.281768321990967 7.364320755004883 0.032377708703279495
6.238574028015137 7.344770431518555 0.03264671564102173
6.221562385559082 7.356261253356934 0.03281474858522415
6.194616794586182 7.355576515197754 0.032752130180597305
6.1597137451171875 7.345650672912598 0.03265221416950226
6.141397476196289 7.3547539710998535 0.03263479843735695
6.126152038574219 7.367794990539551 0.03263656422495842
6.090390205383301 7.356420516967773 0.03293617442250252
6.068578720092773 7.361120223999023 0.03290002793073654
6.045821189880371 7.3648762702941895 0.033035758882761
6.018617153167725 7.363480567932129 0.03297300636768341
5.995586395263672 7.366448879241943 0.03292825073003769
5.970632553100586 7.36788272857666 0.03287934139370918
5.945057392120361 7.367526054382324 0.033226724714040756
5.895413398742676 7.369293212890625 0.033122770488262177
5.868712425231934 7.367205619812012 0.03323183208703995
5.827871322631836 7.379494667053223 0.033694759011268616
5.778798580169678 7.381054878234863 0.03399084508419037
5.744414329528809 7.368588924407959 0.03387674689292908
5.702078819274902 7.378155708312988 0.03398367762565613
5.687652587890625 7.391137599945068 0.033988188952207565
5.630353927612305 7.380783557891846 0.03422737121582031
5.608123779296875 7.383366107940674 0.03418316692113876
5.569260597229004 7.396666526794434 0.03413481265306473
5.546360969543457 7.398436069488525 0.03426036611199379
5.517427921295166 7.392411231994629 0.034180011600255966
5.50361442565918 7.405915260314941 0.03458087146282196
5.46676778793335 7.388593673706055 0.03444933891296387
5.445734024047852 7.392859935760498 0.03441571444272995
5.419177055358887 7.388869285583496 0.03434443473815918
5.411864280700684 7.41204833984375 0.03456239029765129
5.375892639160156 7.394956588745117 0.03482552617788315
5.35611629486084 7.399991035461426 0.03479599580168724
5.3415422439575195 7.413145065307617 0.03480308875441551
5.321131229400635 7.41722297668457 0.03476854786276817
5.289900779724121 7.406378746032715 0.03516923636198044
5.272110462188721 7.414621353149414 0.03515508025884628
5.250479698181152 7.41674280166626 0.03550015017390251
5.230256080627441 7.4210710525512695 0.03563528507947922
5.199498653411865 7.410711288452148 0.03553614392876625
5.18184757232666 7.418248653411865 0.03551948070526123
5.157862186431885 7.417613983154297 0.03545956686139107
5.142657279968262 7.428589344024658 0.035849086940288544
5.1140360832214355 7.420392990112305 0.03575986623764038
5.096755027770996 7.4289422035217285 0.035747066140174866
5.068041801452637 7.420050621032715 0.035813745111227036
5.0500030517578125 7.426979064941406 0.035798586905002594
5.021505832672119 7.418811321258545 0.03571281582117081
5.005844593048096 7.428836822509766 0.03608771413564682
4.980842590332031 7.425229549407959 0.03601952642202377
4.966344356536865 7.437617778778076 0.03603082895278931
4.940997123718262 7.433011054992676 0.03612121567130089
4.920334815979004 7.436336517333984 0.03608731925487518
4.891425132751465 7.426084518432617 0.03636683151125908
4.850104331970215 7.431293487548828 0.03629440441727638
4.824134826660156 7.425122261047363 0.03621644154191017
4.808038711547852 7.435065269470215 0.03621019795536995
4.794851779937744 7.448526382446289 0.03676968067884445
4.775872707366943 7.4529805183410645 0.03706536442041397
4.751151084899902 7.449383735656738 0.03699944540858269
4.724355220794678 7.441386699676514 0.036913786083459854
4.712554454803467 7.456953048706055 0.03709939494729042
4.684065818786621 7.4470534324646 0.037377264350652695
4.6649699211120605 7.450957298278809 0.03734969720244408
4.6260271072387695 7.458409309387207 0.037287015467882156
4.599703788757324 7.450442314147949 0.03719884157180786
4.585605621337891 7.463226318359375 0.03774760663509369
4.562342643737793 7.460028648376465 0.03768673539161682
4.539684772491455 7.458014488220215 0.037627436220645905
4.518918037414551 7.459423065185547 0.037587158381938934
4.502632141113281 7.46746301651001 0.03758159279823303
4.480288982391357 7.4657087326049805 0.037522196769714355
4.465604782104492 7.477084636688232 0.03806358575820923
4.431757926940918 7.4555158615112305 0.03790969401597977
4.419919013977051 7.471892356872559 0.037946730852127075
4.3920159339904785 7.460007667541504 0.037835657596588135
4.377524375915527 7.4708099365234375 0.03821415826678276
4.355140686035156 7.469143867492676 0.03816048055887222
4.340130805969238 7.479027271270752 0.03816143795847893
4.31432580947876 7.470541954040527 0.03823171928524971
4.295794486999512 7.4749650955200195 0.038570836186409
4.2713165283203125 7.468202590942383 0.038809724152088165
4.257382869720459 7.480876922607422 0.03882766142487526
4.231773376464844 7.471904754638672 0.03873793035745621
4.214829444885254 7.478134632110596 0.038725901395082474
4.1885857582092285 7.468828201293945 0.038996901363134384
4.174739360809326 7.4804816246032715 0.03900916501879692
4.154096603393555 7.4799275398254395 0.038961734622716904
4.130275726318359 7.474610328674316 0.039051447063684464
4.112590312957764 7.479227066040039 0.039394814521074295
4.101897239685059 7.497671127319336 0.039442211389541626
4.072736740112305 7.481199264526367 0.03930824249982834
4.057811737060547 7.490759372711182 0.03931717574596405
4.0296950340271 7.476949691772461 0.03920001909136772
4.006024360656738 7.4923810958862305 0.03972764313220978
6.287580966949463 -10.467721939086914 0.07863417267799377
6.369328022003174 -10.453926086425781 0.07882877439260483
6.456536293029785 -10.44865608215332 0.07886358350515366
6.551101207733154 -10.45414924621582 0.078689806163311
6.574349880218506 -10.443022727966309 0.0789324939250946
6.608329772949219 -10.44785213470459 0.07884810864925385
6.638786792755127 -10.447527885437012 0.07895498722791672
6.673602104187012 -10.454326629638672 0.0791105404496193
6.697535991668701 -10.44256591796875 0.079127237200737
6.731570243835449 -10.447855949401855 0.07874191552400589
6.753371238708496 -10.434072494506836 0.07874436676502228
6.791845798492432 -10.444536209106445 0.0787060335278511
6.816720962524414 -10.43533992767334 0.07874143123626709
6.911281585693359 -10.436211585998535 0.07907639443874359
6.99966287612915 -10.42572021484375 0.07856234908103943
7.754597187042236 -10.380184173583984 0.07923822849988937
7.853092193603516 -10.374951362609863 0.07902083545923233
7.980849266052246 -10.362520217895508 0.07918542623519897
8.053464889526367 -10.366205215454102 0.07891853153705597
8.087099075317383 -10.365028381347656 0.07927991449832916
8.123112678527832 -10.3658447265625 0.07941780239343643
8.149374961853027 -10.354635238647461 0.07921666651964188
8.185076713562012 -10.355706214904785 0.0793546512722969
8.216312408447266 -10.349699974060059 0.07944090664386749
8.26152515411377 -10.362421035766602 0.07967422157526016
8.285388946533203 -10.348223686218262 0.0791289433836937
8.356358528137207 -10.347244262695312 0.07939207553863525
8.460082054138184 -10.341987609863281 0.07951118797063828
8.567607879638672 -10.339205741882324 0.07933355122804642
9.55312728881836 -10.282820701599121 0.0803573951125145
9.588126182556152 -10.27763843536377 0.08021742105484009
9.656847953796387 -10.264294624328613 0.07981935143470764
9.70551872253418 -10.273226737976074 0.08004963397979736
9.780341148376465 -10.26547622680664 0.08030980825424194
9.812132835388184 -10.256142616271973 0.07978741079568863
9.859845161437988 -10.26241397857666 0.07974261045455933
9.892725944519043 -10.253583908081055 0.07983221858739853
9.930187225341797 -10.24975872039795 0.07996237277984619
10.005545616149902 -10.240886688232422 0.08022104203701019
10.048442840576172 -10.242186546325684 0.08039621263742447
10.132787704467773 -10.241520881652832 0.07984612882137299
10.256580352783203 -10.237112045288086 0.08031117916107178
10.369437217712402 -10.22043514251709 0.0804232805967331
10.499062538146973 -10.217999458312988 0.08030123263597488
11.447434425354004 -10.155618667602539 0.08079680800437927
11.546478271484375 -10.157283782958984 0.08053968846797943
11.584723472595215 -10.147985458374023 0.0803704559803009
11.670072555541992 -10.136207580566406 0.0806681364774704
11.724870681762695 -10.141193389892578 0.08090084791183472
11.814512252807617 -10.132063865661621 0.07932260632514954
11.859968185424805 -10.128410339355469 0.07948845624923706
11.896092414855957 -10.115767478942871 0.07958272099494934
11.943581581115723 -10.113142967224121 0.07947541028261185
12.004780769348145 -10.122262954711914 0.07974161952733994
12.04344654083252 -10.111302375793457 0.07985550910234451
12.084068298339844 -10.102352142333984 0.07998446375131607
12.133820533752441 -10.101242065429688 0.08017278462648392
12.228806495666504 -10.093426704406738 0.07955070585012436
12.278955459594727 -10.092052459716797 0.07974489778280258
12.381169319152832 -10.088996887207031 0.08013127744197845
12.520122528076172 -10.071917533874512 0.08032664656639099
12.67114543914795 -10.061975479125977 0.08018628507852554
13.826692581176758 -9.97497272491455 0.08043171465396881
13.93328857421875 -9.963311195373535 0.08008015155792236
13.98470687866211 -9.95589828491211 0.08026368916034698
14.097475051879883 -9.947372436523438 0.08035166561603546
14.164005279541016 -9.949965476989746 0.07987391203641891
14.271955490112305 -9.936296463012695 0.07960564643144608
14.317253112792969 -9.923784255981445 0.07973866909742355
14.388851165771484 -9.928362846374512 0.0800187885761261
14.439565658569336 -9.918798446655273 0.08018378168344498
14.505828857421875 -9.920072555541992 0.0801173746585846
14.549646377563477 -9.904876708984375 0.08024947345256805
14.68220329284668 -9.90579891204834 0.07999290525913239
14.788978576660156 -9.887460708618164 0.08034627139568329
14.861162185668945 -9.891157150268555 0.0802966058254242
14.976737022399902 -9.877320289611816 0.08069893717765808
15.163834571838379 -9.864483833312988 0.08060350269079208
16.588642120361328 -9.732057571411133 0.08146899938583374
16.823596954345703 -9.727842330932617 0.08149028569459915
16.951879501342773 -9.70740032196045 0.08155292272567749
17.01307487487793 -9.69520378112793 0.08174728602170944
17.164936065673828 -9.686623573303223 0.08229348063468933
17.23489761352539 -9.6785888671875 0.08167488873004913
17.386152267456055 -9.667444229125977 0.08183892071247101
17.45808982849121 -9.660067558288574 0.08207570761442184
17.538036346435547 -9.655844688415527 0.08199132233858109
17.606407165527344 -9.64551067352295 0.08222433924674988
17.685474395751953 -9.641164779663086 0.08248739689588547
17.838075637817383 -9.627128601074219 0.08214510232210159
17.89669418334961 -9.610860824584961 0.08232540637254715
17.97904396057129 -9.606081008911133 0.08261878788471222
18.052345275878906 -9.596717834472656 0.08248189091682434
18.146072387695312 -9.598299026489258 0.08281947672367096
18.297889709472656 -9.580201148986816 0.08332578092813492
18.37596893310547 -9.571547508239746 0.08359610289335251
18.527854919433594 -9.552681922912598 0.08321401476860046
20.43219757080078 -9.366982460021973 0.08656860888004303
20.674457550048828 -9.320756912231445 0.08643316477537155
20.804800033569336 -9.274747848510742 0.08685567229986191
20.87295913696289 -9.2528076171875 0.08707700669765472
21.022308349609375 -9.213732719421387 0.08717793226242065
21.108749389648438 -9.199000358581543 0.08650371432304382
21.236074447631836 -9.148265838623047 0.08773496001958847
21.300037384033203 -9.123465538024902 0.08794654905796051
21.386390686035156 -9.106884002685547 0.08824680000543594
21.45091438293457 -9.081374168395996 0.08845174312591553
21.499013900756836 -9.049174308776855 0.08858894556760788
21.514904022216797 -9.002252578735352 0.08815940469503403
21.54390525817871 -8.96145248413086 0.08820866793394089
21.548124313354492 -8.91080093383789 0.08714304119348526
21.583232879638672 -8.871818542480469 0.08721482008695602
21.603282928466797 -8.82725715637207 0.08721999078989029
21.611263275146484 -8.778226852416992 0.0871783122420311
21.574861526489258 -8.657764434814453 0.08685415238142014
21.59988021850586 -8.61471939086914 0.08648250252008438
21.757522583007812 -7.431711673736572 0.08209414035081863
21.7955322265625 -7.291586875915527 0.08107078820466995
21.829387664794922 -7.201261520385742 0.08108081668615341
21.84276008605957 -7.1550188064575195 0.08107341825962067
21.870746612548828 -7.062761306762695 0.08065448701381683
21.90536117553711 -7.023347854614258 0.07972387969493866
21.927732467651367 -6.929243087768555 0.08051333576440811
21.934499740600586 -6.880925178527832 0.0804915577173233
21.949848175048828 -6.834695339202881 0.07949748635292053
21.943191528320312 -6.782278060913086 0.07941284775733948
21.958290100097656 -6.73705530166626 0.07941614836454391
21.972597122192383 -6.690546035766602 0.07941968739032745
21.97286605834961 -6.640409469604492 0.07896047085523605
21.97467041015625 -6.591219902038574 0.0789172425866127
21.997509002685547 -6.547307014465332 0.07894548773765564
21.989147186279297 -6.494750499725342 0.0788642168045044
22.00576400756836 -6.450038909912109 0.07887601852416992
22.034679412841797 -6.307331562042236 0.07784244418144226
21.984983444213867 -5.111403942108154 0.07335446029901505
21.919172286987305 -4.950666427612305 0.07305969297885895
21.89409828186035 -4.84858512878418 0.07190354913473129
21.899559020996094 -4.80173397064209 0.07186698168516159
21.74405860900879 -4.672149181365967 0.07084647566080093
21.783859252929688 -4.633022308349609 0.06998786330223083
21.90483283996582 -4.611265659332275 0.07037951797246933
21.821805953979492 -4.545528888702393 0.07085593044757843
21.915645599365234 -4.517240047454834 0.07114756852388382
21.82571029663086 -4.450520992279053 0.06984782218933105
21.95440101623535 -4.428925514221191 0.07024776190519333
21.979782104492188 -4.386597633361816 0.07030385732650757
21.949562072753906 -4.332233428955078 0.07017532736063004
21.978330612182617 -4.290142059326172 0.07024310529232025
21.98059844970703 -4.243251800537109 0.07022279500961304
21.972484588623047 -4.19342041015625 0.06977173686027527
21.969329833984375 -4.097988128662109 0.06970806419849396
21.95737075805664 -3.9520998001098633 0.06862165778875351
21.916942596435547 -2.9549221992492676 0.06532344222068787
21.89933967590332 -2.812490701675415 0.06426190584897995
21.906494140625 -2.6735315322875977 0.06423382461071014
21.89088249206543 -2.5781092643737793 0.06376953423023224
21.878482818603516 -2.5302367210388184 0.06371504813432693
21.870281219482422 -2.4363865852355957 0.06365951895713806
21.886886596679688 -2.3918726444244385 0.06273789703845978
21.876298904418945 -2.3447861671447754 0.06269436329603195
21.867706298828125 -2.297015428543091 0.061881422996520996
21.885478973388672 -2.2525854110717773 0.06192175671458244
21.88410186767578 -2.2055983543395996 0.06094849482178688
21.871318817138672 -2.1580817699432373 0.060512129217386246
21.8704776763916 -2.1121809482574463 0.06049785763025284
21.86600112915039 -2.065000534057617 0.06047210842370987
21.863500595092773 -2.0186080932617188 0.06045079231262207
21.850419998168945 -1.9716792106628418 0.060405880212783813
21.857952117919922 -1.925682544708252 0.06041526794433594
21.859865188598633 -1.8331090211868286 0.0603959746658802
21.861268997192383 -1.7875492572784424 0.06039071083068848
21.86392593383789 -1.6951038837432861 0.060377005487680435
21.86235809326172 -1.5567821264266968 0.05901339650154114
21.686626434326172 -0.7225967645645142 0.055398859083652496
21.651050567626953 -0.5851746797561646 0.05529210716485977
21.654491424560547 -0.4940145015716553 0.05529453605413437
21.666736602783203 -0.44931042194366455 0.055330097675323486
21.62314796447754 -0.357310026884079 0.05520922318100929
21.6103515625 -0.3118615746498108 0.055175237357616425
21.61066436767578 -0.26701194047927856 0.0547952726483345
21.608015060424805 -0.22119370102882385 0.054784007370471954
21.58671760559082 -0.17579449713230133 0.05378909781575203
21.574604034423828 -0.13092270493507385 0.053761646151542664
21.56348991394043 -0.0851689875125885 0.05297069996595383
21.54261589050293 -0.040001124143600464 0.0529172420501709
18.35980796813965 5.224725246429443 0.006990509107708931
18.30795669555664 5.334609508514404 0.006983397528529167
18.268136978149414 5.4065775871276855 0.006976832635700703
18.21011734008789 5.514146327972412 0.0073252590373158455
18.134235382080078 5.615866184234619 0.007307977415621281
18.072769165039062 5.721589088439941 0.00729740597307682
16.338958740234375 6.4872541427612305 0.004939714912325144
16.100961685180664 6.510233402252197 0.004879233427345753
15.934956550598145 6.521324634552002 0.004520495887845755
15.855612754821777 6.527300834655762 0.004501649644225836
15.69865894317627 6.540140151977539 0.004465056117624044
15.624961853027344 6.5475239753723145 0.00444745970889926
15.468086242675781 6.558502197265625 0.004411193076521158
15.388917922973633 6.562644004821777 0.004392419941723347
15.241789817810059 6.575901985168457 0.0036509523633867502
15.015987396240234 6.590758800506592 0.003605948993936181
14.794906616210938 6.6049604415893555 0.003264389932155609
14.573087692260742 6.616117477416992 0.0032250757794827223
13.006593704223633 6.749268531799316 0.0017887532012537122
12.824348449707031 6.7573652267456055 0.001502681989222765
12.662936210632324 6.774364471435547 0.0021017491817474365
12.545663833618164 6.77973747253418 0.0015620848862454295
12.493607521057129 6.785141944885254 0.0015583306085318327
12.375096321105957 6.788422584533691 0.0009443737217225134
12.33806324005127 6.801454544067383 0.0009426503675058484
12.275672912597656 6.800314903259277 0.0009385922458022833
12.221161842346191 6.804276466369629 0.0009353371569886804
12.161238670349121 6.804012775421143 0.0009323983686044812
12.115747451782227 6.811905384063721 0.0009299792582169175
12.056990623474121 6.812516212463379 0.0009261616505682468
12.010284423828125 6.819045543670654 0.0009238404454663396
11.91856861114502 6.833507537841797 0.000919712649192661
11.85687255859375 6.830865859985352 0.0009149751858785748
11.702520370483398 6.840576648712158 0.0006575288134627044
10.445087432861328 6.92741060256958 -0.0006140588084235787
10.319917678833008 6.938202857971191 -0.0006099345628172159
10.240110397338867 6.947343826293945 -0.0012858458794653416
10.193753242492676 6.9474639892578125 -0.0012833260698243976
10.150100708007812 6.948605537414551 -0.0012799494434148073
10.108407020568848 6.951187610626221 -0.0012742141261696815
10.078065872192383 6.961806297302246 -0.0012738865334540606
10.030901908874512 6.960019111633301 -0.0012697747442871332
9.991601943969727 6.963784217834473 -0.0012650322169065475
9.945819854736328 6.963217735290527 -0.0012633701553568244
9.901603698730469 6.963196754455566 -0.0012596012093126774
9.864265441894531 6.967577934265137 -0.001255611889064312
9.828664779663086 6.97368049621582 -0.0012520741438493133
9.771739959716797 6.964092254638672 -0.0012495468836277723
9.710077285766602 6.981727600097656 -0.0012393809156492352
9.677117347717285 6.98880672454834 -0.0012397171230986714
9.5890531539917 6.986572742462158 -0.0017375341849401593
9.551366806030273 6.989771842956543 -0.0019513554871082306
9.471101760864258 6.992471694946289 -0.0019393576076254249
9.445480346679688 7.003887176513672 -0.001938916277140379
9.354653358459473 6.997787952423096 -0.001427002134732902
9.253355026245117 7.013165473937988 -0.001629882724955678
9.151763916015625 7.027186870574951 -0.0021130654495209455
8.605100631713867 7.0490522384643555 -0.0022425672505050898
8.493752479553223 7.0475311279296875 -0.0022239796817302704
8.473777770996094 7.060699462890625 -0.002421076875180006
8.420869827270508 7.047146797180176 -0.0024160477332770824
8.401577949523926 7.060699462890625 -0.0024134796112775803
8.334206581115723 7.064181327819824 -0.002401976613327861
8.289620399475098 7.056003570556641 -0.002396893920376897
8.267918586730957 7.067784309387207 -0.002390901790931821
8.238619804382324 7.072643280029297 -0.0023861934896558523
8.209856986999512 7.077597618103027 -0.0023811107967048883
8.162921905517578 7.0675883293151855 -0.0023754930589348078
8.137659072875977 7.075315475463867 -0.002368484390899539
8.107810974121094 7.079571723937988 -0.00236532767303288
8.071846008300781 7.078005790710449 -0.002358532976359129
8.034564971923828 7.074862480163574 -0.0028139296919107437
8.004372596740723 7.078429222106934 -0.002807002980262041
7.9793620109558105 7.086136341094971 -0.0028004832565784454
7.954617500305176 7.093741416931152 -0.0027973095420747995
7.9115447998046875 7.085468769073486 -0.0027885884046554565
7.890667915344238 7.096596717834473 -0.0027863280847668648
7.853154182434082 7.092392921447754 -0.00277695176191628
7.826644420623779 7.098865509033203 -0.0027736632619053125
7.780194282531738 7.086217880249023 -0.0027640818152576685
7.762143135070801 7.099303245544434 -0.0027620410546660423
7.7260894775390625 7.096699237823486 -0.002753346925601363
7.697613716125488 7.100050449371338 -0.0027493133675307035
7.632480621337891 7.099696159362793 -0.0027371130418032408
7.61771821975708 7.115508079528809 -0.0027358366642147303
7.51072359085083 7.104504585266113 -0.002713305875658989
7.432621002197266 7.11995267868042 -0.0027006943710148335
7.119007110595703 7.142280101776123 -0.0032585985027253628
7.0231475830078125 7.135262489318848 -0.003240976482629776
6.997338771820068 7.138613700866699 -0.003235186217352748
6.965699195861816 7.136159896850586 -0.003227612469345331
6.9400458335876465 7.140069007873535 -0.0032205702736973763
6.916829586029053 7.145793914794922 -0.0032157148234546185
6.885369300842285 7.143766403198242 -0.003208013717085123
6.8584184646606445 7.145421504974365 -0.0031996499747037888
6.831673622131348 7.147187232971191 -0.003196321427822113
6.811145782470703 7.156255722045898 -0.003192008938640356
6.778155326843262 7.151251792907715 -0.0031844275072216988
6.749082565307617 7.150500297546387 -0.0031805490143597126
6.718623638153076 7.148500442504883 -0.0031735063530504704
6.697207450866699 7.155411243438721 -0.0031687533482909203
6.665019512176514 7.150968551635742 -0.0035820305347442627
6.643548011779785 7.158268451690674 -0.003574669361114502
6.615664005279541 7.157957553863525 -0.003569374792277813
6.591423988342285 7.161751747131348 -0.0035639782436192036
6.572561740875244 7.1716814041137695 -0.0035622678697109222
6.538388252258301 7.164183616638184 -0.0035528410226106644
6.514684677124023 7.168909072875977 -0.0035468130372464657
6.485768795013428 7.166914463043213 -0.0035397307947278023
6.455732822418213 7.163811206817627 -0.003531120251864195
6.431247711181641 7.167106628417969 -0.003522997722029686
6.4117841720581055 7.175314903259277 -0.003521829377859831
6.379540920257568 7.170001029968262 -0.003514186479151249
6.353909492492676 7.17110538482666 -0.003330117091536522
6.329477787017822 7.173731803894043 -0.003326189937070012
6.277425765991211 7.175158977508545 -0.0033157216385006905
6.255630016326904 7.1805243492126465 -0.0033106270711869
6.202612400054932 7.180235862731934 -0.0032983673736453056
6.176187515258789 7.1799774169921875 -0.0032948912121355534
6.130224227905273 7.187282562255859 -0.0036883805878460407
6.051182270050049 7.185883522033691 -0.0036677964963018894
5.973228931427002 7.184501647949219 -0.003649260848760605
5.9071431159973145 7.196568489074707 -0.0036361918319016695
5.859037399291992 7.199575901031494 -0.0036238706670701504
5.833417892456055 7.199185371398926 -0.003617249894887209
5.796298027038574 7.214654922485352 -0.003611502703279257
5.762862682342529 7.204235076904297 -0.0034333746880292892
5.7332916259765625 7.198108673095703 -0.0034267655573785305
5.715925216674805 7.206944465637207 -0.0034233503974974155
5.6909613609313965 7.2067670822143555 -0.0034181922674179077
5.664461135864258 7.204165458679199 -0.003412752877920866
5.636363983154297 7.199762344360352 -0.003403022885322571
5.6165313720703125 7.2051825523376465 -0.0034003984183073044
5.593235015869141 7.20635986328125 -0.0033948547206819057
5.5692901611328125 7.206971645355225 -0.0037782411091029644
5.550854682922363 7.214006423950195 -0.003778057172894478
5.515072345733643 7.198634147644043 -0.0037638875655829906
5.498353958129883 7.208385467529297 -0.0037618959322571754
5.475625514984131 7.2098388671875 -0.0037577536422759295
5.459468841552734 7.219622611999512 -0.0037553096190094948
5.432560920715332 7.215754985809326 -0.0037480569444596767
5.4158220291137695 7.224949359893799 -0.0037462422624230385
5.383453369140625 7.213551044464111 -0.00373668409883976
5.367982864379883 7.224048614501953 -0.0037354440428316593
5.341525077819824 7.219966888427734 -0.003726986004039645
5.330954074859619 7.237689018249512 -0.003728270996361971
5.296566486358643 7.222618103027344 -0.003718350548297167
5.28109884262085 7.232953071594238 -0.0037168776616454124
5.2500996589660645 7.222567081451416 -0.0037046256475150585
5.234201431274414 7.23248291015625 -0.003705377224832773
5.211534023284912 7.2327165603637695 -0.0036995389964431524
5.194114685058594 7.241106033325195 -0.0036969096399843693
5.160719394683838 7.2261643409729 -0.0036856653168797493
5.148576259613037 7.24153995513916 -0.0036873361095786095
5.123773097991943 7.238696098327637 -0.003680028021335602
5.098653793334961 7.234999656677246 -0.003670965787023306
5.077286243438721 7.237183094024658 -0.003667171811684966
5.056159019470215 7.239256381988525 -0.0036645010113716125
5.0318121910095215 7.236339569091797 -0.003655804321169853
5.014134407043457 7.2435994148254395 -0.003655110951513052
4.990914821624756 7.242406845092773 -0.0036485374439507723
4.945922374725342 7.242206573486328 -0.0036386060528457165
4.932191848754883 7.2543792724609375 -0.003638728056102991
4.890395164489746 7.258460998535156 -0.0036306576803326607
4.863393306732178 7.250809669494629 -0.003622169606387615
4.820594787597656 7.252842903137207 -0.003983691800385714
4.80075216293335 7.255605697631836 -0.003609551815316081
4.771770000457764 7.245388984680176 -0.003970724530518055
4.754608631134033 7.252049446105957 -0.00396703789010644
4.712174415588379 7.253766059875488 -0.003587065264582634
4.6941447257995605 7.258941173553467 -0.003428560681641102
4.650485038757324 7.25828218460083 -0.0034162537194788456
4.62907600402832 7.257981777191162 -0.003414908889681101
4.609850883483887 7.262009620666504 -0.003411258105188608
4.588647842407227 7.261870384216309 -0.003407759591937065
4.566593647003174 7.260288715362549 -0.00340164452791214
4.545774459838867 7.261562347412109 -0.0033977944403886795
4.525068283081055 7.26194953918457 -0.0033932318910956383
4.505523681640625 7.264819145202637 -0.0033897790126502514
4.484015464782715 7.264045715332031 -0.003752421820536256
4.464748382568359 7.266526222229004 -0.0033834404312074184
4.445656776428223 7.270229339599609 -0.003743841079995036
4.4273786544799805 7.274211883544922 -0.003740565851330757
4.39853572845459 7.260706901550293 -0.0037304817233234644
4.378622531890869 7.262800216674805 -0.003727544331923127
4.366467475891113 7.27674674987793 -0.0037285923026502132
4.345012664794922 7.275876045227051 -0.0037233736366033554
4.322275638580322 7.272344589233398 -0.0037168418057262897
4.298046112060547 7.265866279602051 -0.0037096156738698483
4.280095100402832 7.270921230316162 -0.0037064957432448864
4.266583442687988 7.28249454498291 -0.0037070740945637226
4.238750457763672 7.269533157348633 -0.0033371858298778534
4.223179340362549 7.27851676940918 -0.0033363637048751116
4.200879096984863 7.274818420410156 -0.0034856402780860662
21.251293182373047 6.825045585632324 0.19073042273521423
20.983867645263672 6.836780071258545 0.1885870099067688
20.61527442932129 6.860342979431152 0.18605971336364746
20.22471809387207 6.871895790100098 0.18292179703712463
19.893577575683594 6.899184226989746 0.17941978573799133
16.268037796020508 7.098896026611328 0.149074524641037
16.09036636352539 7.102180480957031 0.14771929383277893
16.027843475341797 7.114360809326172 0.14728125929832458
15.848284721374512 7.114703178405762 0.14590495824813843
15.78050422668457 7.123658180236816 0.14541688561439514
15.61684799194336 7.1291046142578125 0.14418336749076843
15.55453872680664 7.139702796936035 0.1434297263622284
15.395219802856445 7.1452226638793945 0.14223706722259521
15.165558815002441 7.154850482940674 0.14052779972553253
14.94705581665039 7.166989326477051 0.13891787827014923
14.73036003112793 7.17732572555542 0.13662244379520416
13.106475830078125 7.260552406311035 0.12409913539886475
12.944396018981934 7.277487754821777 0.12236209213733673
12.771788597106934 7.286491394042969 0.12178809195756912
12.645844459533691 7.285399913787842 0.12034045904874802
12.583256721496582 7.284165382385254 0.11989039927721024
12.479833602905273 7.294637680053711 0.11919635534286499
12.428888320922852 7.299505710601807 0.1188533678650856
12.314745903015137 7.302395343780518 0.11805669218301773
12.257732391357422 7.303010940551758 0.11765437573194504
12.150876998901367 7.308859348297119 0.11692388355731964
12.095111846923828 7.309539794921875 0.11627200245857239
11.984493255615234 7.311770915985107 0.11490513384342194
11.930121421813965 7.3129167556762695 0.11453094333410263
11.826404571533203 7.317738056182861 0.11382894217967987
11.79051399230957 7.329708099365234 0.11362981051206589
11.692816734313965 7.337128162384033 0.11298475414514542
10.767702102661133 7.370730400085449 0.10608506947755814
10.634872436523438 7.378416061401367 0.10523030161857605
10.488365173339844 7.374873161315918 0.10423728078603745
10.366843223571777 7.38725471496582 0.10349176824092865
10.279359817504883 7.390384674072266 0.10223042219877243
10.23946762084961 7.394650459289551 0.10199053585529327
10.144824028015137 7.390842914581299 0.1013549268245697
10.10394287109375 7.393867492675781 0.10110137611627579
10.017943382263184 7.395257472991943 0.10054941475391388
9.971532821655273 7.393673896789551 0.10023746639490128
9.947222709655762 7.4079742431640625 0.10015290975570679
9.894837379455566 7.400932312011719 0.09925074875354767
9.85546588897705 7.404086112976074 0.09900999069213867
9.809609413146973 7.401813983917236 0.09848058223724365
9.783456802368164 7.4146504402160645 0.09837787598371506
9.729011535644531 7.405223846435547 0.0979863703250885
9.705668449401855 7.419597625732422 0.09790695458650589
9.652119636535645 7.411104679107666 0.09752575308084488
9.614677429199219 7.414401531219482 0.09730350226163864
9.58480453491211 7.423134803771973 0.09715557098388672
9.49389362335205 7.416901588439941 0.09655283391475677
9.37132453918457 7.416486740112305 0.09577441215515137
9.260103225708008 7.423615455627441 0.09489660710096359
9.151742935180664 7.431735038757324 0.09426100552082062
8.706149101257324 7.44175910949707 0.09087881445884705
8.594341278076172 7.440201759338379 0.09019996225833893
8.498480796813965 7.4511942863464355 0.09016403555870056
8.42451286315918 7.44932746887207 0.08950737863779068
8.378193855285645 7.4394073486328125 0.08917655050754547
8.316497802734375 7.447498321533203 0.0888548344373703
8.29108715057373 7.455804824829102 0.08827389776706696
8.249433517456055 7.450009346008301 0.08799655735492706
8.224576950073242 7.458879470825195 0.08789295703172684
8.185088157653809 7.454082489013672 0.08763948082923889
8.162687301635742 7.46536922454834 0.08756845444440842
8.123678207397461 7.460983753204346 0.08731570839881897
8.092187881469727 7.463080406188965 0.08714374154806137
8.062675476074219 7.467798233032227 0.08699918538331985
8.030613899230957 7.4691243171691895 0.08681771159172058
7.992424488067627 7.465236663818359 0.08657592535018921
7.965428352355957 7.471306800842285 0.0864553451538086
7.925965309143066 7.465270519256592 0.08619424700737
7.899753570556641 7.472494125366211 0.08608382195234299
7.861390113830566 7.467176914215088 0.08583305776119232
7.842437267303467 7.480193138122559 0.08579662442207336
7.792233467102051 7.464163780212402 0.08542058616876602
7.775306701660156 7.4789509773254395 0.08540590107440948
7.731705188751221 7.467963218688965 0.08509617298841476
7.710934638977051 7.4798078536987305 0.08504386246204376
7.665297508239746 7.466475486755371 0.08471076190471649
7.604997634887695 7.470412254333496 0.08439166843891144
7.5932207107543945 7.489870071411133 0.08443447947502136
7.523743152618408 7.484113693237305 0.08400815725326538
7.429926872253418 7.484304428100586 0.08284218609333038
7.164806365966797 7.4957051277160645 0.0814553052186966
7.069528579711914 7.489731788635254 0.08090929687023163
6.994938373565674 7.504667282104492 0.08058956265449524
6.932516098022461 7.500140190124512 0.08023270219564438
6.904044151306152 7.50114631652832 0.0800807848572731
6.872551918029785 7.498097896575928 0.0798976868391037
6.846332550048828 7.5009589195251465 0.07934340834617615
6.827320098876953 7.512019634246826 0.07930945605039597
6.79046106338501 7.502686023712158 0.07906006276607513
6.757571697235107 7.498480796813965 0.07886428385972977
6.732974052429199 7.502434730529785 0.07875752449035645
6.7099199295043945 7.508031845092773 0.07866909354925156
6.682151794433594 7.50918436050415 0.0785321593284607
6.656101226806641 7.511239051818848 0.07841064035892487
6.624927997589111 7.50831413269043 0.07822983711957932
6.601190567016602 7.512778282165527 0.07813236117362976
6.576790809631348 7.516409873962402 0.07803162932395935
6.548398971557617 7.516302108764648 0.07788436114788055
6.5236592292785645 7.519352912902832 0.07777334004640579
6.492455005645752 7.51511287689209 0.07758889347314835
6.456145286560059 7.505156517028809 0.07734474539756775
6.445619106292725 7.524447441101074 0.07740847766399384
6.414801597595215 7.520280361175537 0.07722727209329605
6.387844085693359 7.520879745483398 0.077090322971344
6.363814353942871 7.5241780281066895 0.07699134945869446
6.33543586730957 7.523159980773926 0.07683998346328735
6.303589820861816 7.516948699951172 0.07622305303812027
6.282454490661621 7.523679733276367 0.07634028792381287
6.249269008636475 7.516238212585449 0.076129250228405
6.22902774810791 7.52359676361084 0.07607142627239227
6.202368259429932 7.523406028747559 0.07593938708305359
6.172736644744873 7.51985502243042 0.07577018439769745
6.153808116912842 7.528598785400391 0.07573181390762329
6.128952980041504 7.530309200286865 0.07561910152435303
6.074305534362793 7.527417182922363 0.07533545792102814
6.001726150512695 7.534182548522949 0.07502149790525436
5.929754257202148 7.540622234344482 0.07471053302288055
5.869019508361816 7.528424263000488 0.07434383034706116
5.797377586364746 7.533725738525391 0.0740370824933052
5.723340034484863 7.535053253173828 0.07369589060544968
5.681000232696533 7.545070648193359 0.0733284056186676
5.65347957611084 7.5410356521606445 0.07317431271076202
5.630742073059082 7.543943881988525 0.07308561354875565
5.601340293884277 7.537420272827148 0.07290934026241302
5.583382606506348 7.546588897705078 0.07288476824760437
5.554363250732422 7.540041446685791 0.07270830869674683
5.539482116699219 7.552901268005371 0.07272124290466309
5.503964900970459 7.537899971008301 0.07246431708335876
5.4869256019592285 7.547399520874023 0.07244493812322617
5.45751428604126 7.540082931518555 0.07226486504077911
5.445925712585449 7.55772066116333 0.07232510298490524
5.410240173339844 7.541434288024902 0.07205840200185776
5.390007019042969 7.546243667602539 0.07199683785438538
5.366260528564453 7.546740531921387 0.07189546525478363
5.341502666473389 7.545320510864258 0.07177465409040451
5.3235392570495605 7.553818702697754 0.07174771279096603
5.293755531311035 7.545053482055664 0.07155799865722656
5.27191162109375 7.547182083129883 0.07147490978240967
5.24946403503418 7.549054145812988 0.07138756662607193
5.228090286254883 7.551998138427734 0.07131174951791763
5.21012544631958 7.559520244598389 0.07128117978572845
5.176421165466309 7.544765472412109 0.07103795558214188
5.162742614746094 7.558701038360596 0.07106839865446091
5.131804943084717 7.547678470611572 0.07086077332496643
5.1211161613464355 7.565677642822266 0.070930615067482
5.089951515197754 7.553653717041016 0.07071878761053085
5.065609931945801 7.551995277404785 0.07060103863477707
5.043045997619629 7.552486419677734 0.0705060064792633
5.030145645141602 7.567122459411621 0.0705471932888031
4.999104976654053 7.555085182189941 0.07033462822437286
4.977996826171875 7.557517051696777 0.07025954872369766
4.954540729522705 7.55599308013916 0.0701523944735527
4.93984842300415 7.5684967041015625 0.06978459656238556
4.911217212677002 7.55915641784668 0.06960243731737137
4.8729329109191895 7.569820404052734 0.06951143592596054
4.849501132965088 7.567881107330322 0.06940203905105591
4.807966709136963 7.573084831237793 0.06926305592060089
4.785379886627197 7.5721893310546875 0.06916376203298569
4.757843971252441 7.564352035522461 0.06899706274271011
4.735126972198486 7.563013076782227 0.06889684498310089
4.723056316375732 7.578654766082764 0.06895089894533157
4.69801139831543 7.574467658996582 0.06882068514823914
4.67581033706665 7.57371711730957 0.06872428208589554
4.63279914855957 7.575234413146973 0.06894152611494064
4.600161075592041 7.557055950164795 0.06868675351142883
4.5684919357299805 7.576690196990967 0.06847634166479111
4.550693035125732 7.582711219787598 0.0684460774064064
4.525728225708008 7.577754020690918 0.06831161677837372
4.506615161895752 7.581446647644043 0.0682607889175415
4.479964256286621 7.573083400726318 0.06809911131858826
4.465180397033691 7.584280967712402 0.06811757385730743
4.443075656890869 7.582681655883789 0.0680186003446579
4.418039321899414 7.576698303222656 0.06788061559200287
4.401601314544678 7.584954261779785 0.06787312030792236
4.379568099975586 7.583191394805908 0.06777326762676239
4.357563018798828 7.58244514465332 0.067684106528759
4.340195655822754 7.5886335372924805 0.06766048818826675
4.320622444152832 7.590921401977539 0.06760095059871674
4.298571586608887 7.589848518371582 0.06750760227441788
4.275217056274414 7.5852766036987305 0.06738847494125366
4.255777359008789 7.588640213012695 0.06733718514442444
4.229635238647461 7.5788469314575195 0.06717251986265182
4.217134475708008 7.593434810638428 0.06722408533096313
4.189272880554199 7.58137845993042 0.0670379102230072
4.175467014312744 7.593576431274414 0.0670699030160904
4.1509928703308105 7.5863118171691895 0.06692952662706375
4.129085540771484 7.584707260131836 0.0672057569026947
4.111995697021484 7.59078311920166 0.06681559979915619
4.0880279541015625 7.584074974060059 0.06668107211589813
22.518531799316406 0.005497688427567482 0.1194545179605484
22.515682220458984 0.05319400504231453 0.11903145909309387
22.487564086914062 0.1001954972743988 0.11888860911130905
22.467182159423828 0.14672990143299103 0.11780285835266113
22.463655471801758 0.19429658353328705 0.11779358237981796
22.446746826171875 0.24113643169403076 0.11771287024021149
22.44842529296875 0.2887157201766968 0.11771800369024277
22.42206382751465 0.33531585335731506 0.1175769492983818
22.410476684570312 0.3816606104373932 0.11672393232584
22.414613723754883 0.4292296767234802 0.11675401031970978
22.338136672973633 0.8029955625534058 0.11502605676651001
22.307170867919922 0.848637044429779 0.1148734763264656
22.296995162963867 0.894591212272644 0.11483632773160934
22.29438018798828 0.9421930313110352 0.11482806503772736
22.26456069946289 0.9872227907180786 0.11468779295682907
22.245752334594727 1.080277442932129 0.1136532574892044
22.23146629333496 1.1258318424224854 0.1135917454957962
22.217681884765625 1.218962550163269 0.11354804784059525
22.206689834594727 1.2645865678787231 0.11350296437740326
22.205204010009766 1.3120970726013184 0.1131109967827797
22.17917251586914 1.3567516803741455 0.11299590021371841
22.16792869567871 1.4497960805892944 0.11161093413829803
22.151214599609375 1.494874358177185 0.11153825372457504
22.127029418945312 1.5868799686431885 0.1114453375339508
22.105173110961914 1.6323864459991455 0.11134898662567139
22.083511352539062 1.7233686447143555 0.1112782284617424
22.06053924560547 1.768599033355713 0.1107717752456665
22.046377182006836 1.8139140605926514 0.11071985960006714
22.03365135192871 1.8589086532592773 0.11067933589220047
22.015399932861328 1.9043445587158203 0.1106046736240387
22.00360107421875 1.949733018875122 0.10960964858531952
21.999893188476562 1.9954257011413574 0.10961147397756577
21.99340057373047 2.042215347290039 0.10960210859775543
21.966777801513672 2.085730791091919 0.10949689149856567
21.964275360107422 2.1324493885040283 0.10950633883476257
21.95071792602539 2.177520990371704 0.10945846140384674
21.93246078491211 2.221681594848633 0.10938681662082672
21.927976608276367 2.2681639194488525 0.10899285227060318
21.9171142578125 2.3134167194366455 0.10895705223083496
21.900741577148438 2.3576531410217285 0.10890058428049088
21.892230987548828 2.4036593437194824 0.10888447612524033
21.879718780517578 2.44864559173584 0.10789550095796585
21.867406845092773 2.4932260513305664 0.10785970836877823
21.846275329589844 2.5381035804748535 0.10778355598449707
21.812894821166992 2.580113649368286 0.10724598914384842
21.787200927734375 2.6701602935791016 0.10621538758277893
21.770353317260742 2.713963508605957 0.10616812109947205
21.6717586517334 2.841090679168701 0.10576464980840683
21.648311614990234 2.884122848510742 0.10568472743034363
21.635181427001953 2.9280800819396973 0.10564763844013214
21.594223022460938 2.969130039215088 0.10547800362110138
21.56743621826172 3.011458158493042 0.10498657077550888
21.52507781982422 3.0510969161987305 0.10387512296438217
21.488990783691406 3.138355016708374 0.10376332700252533
21.449275970458984 3.1780292987823486 0.10361021757125854
21.41388511657715 3.2195498943328857 0.10346809029579163
21.401649475097656 3.263140916824341 0.10343978554010391
21.33324432373047 3.34470272064209 0.1031738668680191
21.301565170288086 3.385042190551758 0.10304757207632065
21.259540557861328 3.4702203273773193 0.10159378498792648
21.21870994567871 3.5087766647338867 0.10049973428249359
21.22426414489746 3.5562915802001953 0.10096215456724167
21.207584381103516 3.5987584590911865 0.10091588646173477
21.14990234375 3.6806721687316895 0.10031896829605103
21.12079620361328 3.720780372619629 0.10021772235631943
21.07660675048828 3.804581642150879 0.10008153319358826
21.047718048095703 3.8454196453094482 0.09998124092817307
21.019556045532227 3.885366916656494 0.0989668071269989
20.980575561523438 3.923598051071167 0.09881368279457092
20.966781616210938 3.9670000076293945 0.09878978133201599
20.95130157470703 4.009516716003418 0.0987543910741806
20.925504684448242 4.049612522125244 0.09867644309997559
20.898677825927734 4.090363502502441 0.09820102155208588
20.881399154663086 4.132386207580566 0.09816048294305801
20.86001968383789 4.173157691955566 0.0981065109372139
