VERSION .7
FIELDS x y z
SIZE 4 4 4
TYPE F F F
COUNT 1 1 1
WIDTH 861
HEIGHT 1
VIEWPOINT 0 0 0 1 0 0 0
POINTS 861
DATA ascii
16.934633255004883 7.2239885330200195 0.4766702651977539
16.856542587280273 7.232059001922607 0.4739729166030884
16.752771377563477 7.229952812194824 0.47129690647125244
16.66330909729004 7.2323994636535645 0.46828359365463257
16.59343147277832 7.244027137756348 0.4667526185512543
16.50152015686035 7.244916915893555 0.46440374851226807
16.420839309692383 7.251167297363281 0.46165961027145386
16.32069969177246 7.247662544250488 0.4587046504020691
16.245479583740234 7.25465726852417 0.4561108648777008
16.13759422302246 7.2476630210876465 0.45351216197013855
16.053611755371094 7.25022029876709 0.45049676299095154
15.946423530578613 7.241690635681152 0.4479083716869354
15.868947982788086 7.247236251831055 0.44597840309143066
15.764217376708984 7.2391815185546875 0.44257980585098267
15.670244216918945 7.235442161560059 0.44017553329467773
15.581684112548828 7.234973907470703 0.4372538924217224
15.49502182006836 7.233860015869141 0.4350598156452179
15.415044784545898 7.236471176147461 0.43238693475723267
15.322321891784668 7.231983184814453 0.4300263822078705
15.221546173095703 7.223080635070801 0.4267672896385193
15.044898986816406 7.217040061950684 0.4216439127922058
14.976765632629395 7.222625732421875 0.4199784994125366
14.729520797729492 7.218794822692871 0.4124905467033386
14.32411003112793 7.207572937011719 0.40127819776535034
14.08468246459961 7.1984148025512695 0.3946954309940338
13.853753089904785 7.19058895111084 0.38852638006210327
13.698217391967773 7.183252334594727 0.38406476378440857
13.602425575256348 7.169233322143555 0.3808572292327881
13.570011138916016 7.188170909881592 0.38037052750587463
13.479619026184082 7.177023410797119 0.37732604146003723
13.412374496459961 7.17716646194458 0.37586644291877747
13.329484939575195 7.168431758880615 0.37303242087364197
13.273170471191406 7.174744129180908 0.37188512086868286
13.191604614257812 7.166068077087402 0.36910030245780945
13.12818717956543 7.1678009033203125 0.3677505552768707
13.055683135986328 7.163603782653809 0.3652295470237732
12.995047569274902 7.165459632873535 0.3639465272426605
12.926654815673828 7.163620948791504 0.3615560531616211
12.84290885925293 7.152266502380371 0.35947102308273315
12.791823387145996 7.159482479095459 0.35772833228111267
12.715798377990723 7.151803970336914 0.35601815581321716
12.669493675231934 7.160408973693848 0.3542483448982239
12.594332695007324 7.153295516967773 0.3524210751056671
12.531891822814941 7.152442455291748 0.35123947262763977
12.462759017944336 7.147314071655273 0.34884095191955566
12.396202087402344 7.14420223236084 0.3472502827644348
12.340672492980957 7.1465301513671875 0.34539178013801575
12.268119812011719 7.139380931854248 0.343632310628891
12.223729133605957 7.147546768188477 0.34209245443344116
12.14818286895752 7.137416362762451 0.33953142166137695
12.106689453125 7.147697925567627 0.33879736065864563
12.0349760055542 7.139252662658691 0.33635154366493225
11.95997428894043 7.128355979919434 0.3346685767173767
11.90536880493164 7.130150318145752 0.33271458745002747
11.863546371459961 7.138764381408691 0.3319641649723053
11.7884521484375 7.127753257751465 0.3294435739517212
11.622037887573242 7.127288341522217 0.32437416911125183
11.497713088989258 7.117851257324219 0.32090964913368225
11.461469650268555 7.128355979919434 0.3203135132789612
11.334228515625 7.115591049194336 0.31677189469337463
11.17014217376709 7.110866546630859 0.3118135929107666
11.057811737060547 7.104975700378418 0.30950868129730225
11.003706932067871 7.102518081665039 0.30774736404418945
10.901793479919434 7.101953506469727 0.3049338757991791
10.850525856018066 7.100671291351318 0.303119421005249
10.727815628051758 7.085074424743652 0.2997351586818695
10.682907104492188 7.087461948394775 0.2987567186355591
10.634905815124512 7.0874433517456055 0.2971804738044739
10.579147338867188 7.082805156707764 0.29526588320732117
10.53467845916748 7.084898471832275 0.2944371700286865
10.498031616210938 7.092706680297852 0.2930600345134735
10.443735122680664 7.087793827056885 0.29195570945739746
10.38646411895752 7.080453872680664 0.2899971902370453
10.346611022949219 7.085545539855957 0.2885395884513855
10.287312507629395 7.076502799987793 0.2872954308986664
10.240681648254395 7.076540470123291 0.2856546938419342
10.196539878845215 7.077345848083496 0.2848348021507263
10.129219055175781 7.0619707107543945 0.2826084494590759
10.096917152404785 7.071393013000488 0.281372994184494
10.055828094482422 7.073764801025391 0.2806372046470642
10.002466201782227 7.067459583282471 0.27881133556365967
9.960400581359863 7.0695271492004395 0.27805614471435547
9.920137405395508 7.072111129760742 0.2768588066101074
9.87159538269043 7.069201469421387 0.2757927477359772
9.845001220703125 7.081109523773193 0.2748507559299469
9.78209400177002 7.066869735717773 0.27337563037872314
9.723960876464844 7.05637788772583 0.271562784910202
9.68995475769043 7.06244421005249 0.27028945088386536
9.639225006103516 7.056303024291992 0.2691583037376404
9.594513893127441 7.054944038391113 0.26772400736808777
9.54364013671875 7.048253059387207 0.26658937335014343
9.505859375 7.051626205444336 0.2653557360172272
9.469545364379883 7.055200099945068 0.26402974128723145
9.38685417175293 7.055262088775635 0.2618342339992523
9.24349594116211 7.038882732391357 0.2576442062854767
9.17557430267334 7.048407077789307 0.2558692991733551
9.13012981414795 7.043673515319824 0.25430575013160706
9.045373916625977 7.039251327514648 0.25206851959228516
8.999591827392578 7.033658027648926 0.25050005316734314
8.909917831420898 7.024217128753662 0.2487066686153412
8.838824272155762 7.028729438781738 0.24652528762817383
8.801301002502441 7.028754711151123 0.24576552212238312
8.721949577331543 7.025745868682861 0.2431250363588333
8.68281078338623 7.023978233337402 0.2423199862241745
8.637981414794922 7.017571926116943 0.24091607332229614
8.588496208190918 7.007726192474365 0.2392733097076416
8.556416511535645 7.011331558227539 0.2387862503528595
8.518189430236816 7.010324478149414 0.23746243119239807
8.475318908691406 7.004593372344971 0.23599980771541595
8.445510864257812 7.009657859802246 0.2355767786502838
8.402764320373535 7.004395961761475 0.23413074016571045
8.359455108642578 6.997747421264648 0.23266248404979706
8.32940673828125 7.002193450927734 0.232232004404068
8.289422988891602 6.998706817626953 0.23086829483509064
8.251435279846191 6.996165752410889 0.22955626249313354
8.214272499084473 6.994722366333008 0.2289338856935501
8.177928924560547 6.993104457855225 0.22766946256160736
8.143205642700195 6.992868900299072 0.22645260393619537
8.100351333618164 6.986039161682129 0.225671648979187
8.058051109313965 6.978769302368164 0.2242456078529358
8.036018371582031 6.98907470703125 0.2233903706073761
7.993066787719727 6.981616020202637 0.22207097709178925
7.9647321701049805 6.986207485198975 0.22169019281864166
7.925614356994629 6.981760501861572 0.22048057615756989
7.898301601409912 6.9868621826171875 0.21947868168354034
7.853606224060059 6.976579189300537 0.21853002905845642
7.818720817565918 6.975379943847656 0.21744194626808167
7.78533935546875 6.974668025970459 0.21627730131149292
7.745048522949219 6.967747688293457 0.21544870734214783
7.714806079864502 6.970267295837402 0.21449583768844604
7.676946640014648 6.965052127838135 0.21321238577365875
7.646589279174805 6.966643333435059 0.21266278624534607
7.614835739135742 6.967392921447754 0.21167056262493134
7.541591167449951 6.958951950073242 0.20919473469257355
7.511905193328857 6.960476875305176 0.2087709754705429
7.440243721008301 6.952541351318359 0.20634928345680237
7.38010835647583 6.954798221588135 0.20487162470817566
7.337145805358887 6.943115234375 0.2034611850976944
7.272869110107422 6.940580368041992 0.2018735706806183
7.249368667602539 6.946954727172852 0.20100897550582886
7.19401216506958 6.952261924743652 0.19916892051696777
7.150111198425293 6.938590049743652 0.1983504295349121
7.081528663635254 6.930182456970215 0.19604532420635223
7.059358596801758 6.937371253967285 0.19583281874656677
7.024178981781006 6.932211399078369 0.19466251134872437
6.995002269744873 6.932129859924316 0.1936505287885666
6.955966472625732 6.922261714935303 0.19247418642044067
6.939218997955322 6.93501615524292 0.1923140585422516
6.8997368812561035 6.924235820770264 0.19102147221565247
6.866954803466797 6.920146942138672 0.18991723656654358
6.833883285522461 6.916160583496094 0.18940815329551697
6.815674781799316 6.926423072814941 0.18870939314365387
6.780256748199463 6.919238090515137 0.18753571808338165
6.752575874328613 6.920354843139648 0.18668872117996216
6.719913482666016 6.915680408477783 0.18608175218105316
6.697610855102539 6.922107696533203 0.18528451025485992
6.652687072753906 6.904292106628418 0.18385082483291626
6.6314191818237305 6.9110107421875 0.18317870795726776
6.595521926879883 6.902912139892578 0.1824897825717926
6.56382417678833 6.898340702056885 0.18142709136009216
6.5411601066589355 6.903995990753174 0.18062724173069
6.50816011428833 6.89777946472168 0.17963288724422455
6.479157447814941 6.895798683166504 0.1791277974843979
6.45646858215332 6.900986671447754 0.17832936346530914
6.428278923034668 6.899500370025635 0.1774703413248062
6.403397560119629 6.9016008377075195 0.1766061931848526
6.3705878257751465 6.895577907562256 0.17553108930587769
6.347372531890869 6.899118423461914 0.17528510093688965
6.31034517288208 6.887650012969971 0.17408907413482666
6.285058498382568 6.8893938064575195 0.17322532832622528
6.256893157958984 6.887171745300293 0.17227521538734436
6.231851577758789 6.8891191482543945 0.17198948562145233
6.197547435760498 6.879841327667236 0.17087137699127197
6.170499801635742 6.878613471984863 0.16995687782764435
6.145215034484863 6.879791736602783 0.16909925639629364
6.120448112487793 6.88075065612793 0.16881121695041656
6.0840888023376465 6.868671417236328 0.16764222085475922
6.07316255569458 6.885768890380859 0.16718396544456482
6.041468620300293 6.878556251525879 0.16614490747451782
6.011075496673584 6.872811317443848 0.16570226848125458
5.9826436042785645 6.869715690612793 0.16476528346538544
5.968991279602051 6.8828277587890625 0.16422590613365173
5.933066368103027 6.871002674102783 0.16308729350566864
5.9096856117248535 6.872706413269043 0.16283577680587769
5.863255500793457 6.877084732055664 0.16124966740608215
5.828831195831299 6.865514755249023 0.1601443588733673
5.807723045349121 6.870346546173096 0.15951372683048248
5.77755069732666 6.863492012023926 0.15888522565364838
5.748104572296143 6.857343673706055 0.1579202562570572
5.729690074920654 6.865111827850342 0.15727151930332184
5.704310894012451 6.8636064529418945 0.1565150022506714
5.652401447296143 6.859713077545166 0.15524515509605408
5.618246555328369 6.847166061401367 0.15415486693382263
5.571802139282227 6.84918212890625 0.15268726646900177
5.544377326965332 6.844437122344971 0.15223130583763123
5.524913787841797 6.850275993347168 0.15156137943267822
5.4968461990356445 6.844493865966797 0.15064413845539093
5.471961498260498 6.8425445556640625 0.14990867674350739
5.453299045562744 6.849152565002441 0.14926467835903168
5.427617073059082 6.846004009246826 0.14885681867599487
5.398582458496094 6.838634490966797 0.14791974425315857
5.376201152801514 6.840127944946289 0.14726558327674866
5.358648300170898 6.846994876861572 0.14664238691329956
5.327217102050781 6.836163520812988 0.1460796594619751
5.305721282958984 6.8385114669799805 0.1453608125448227
5.278256416320801 6.832339763641357 0.14446821808815002
5.259932994842529 6.838768005371094 0.1439324915409088
5.231782913208008 6.831457614898682 0.1430245190858841
5.203772068023682 6.824172019958496 0.14212073385715485
5.182740211486816 6.82678747177124 0.1413317173719406
5.173560619354248 6.844140529632568 0.14137735962867737
5.138131141662598 6.826673984527588 0.1403636634349823
5.119413375854492 6.832134246826172 0.1397303193807602
5.103523254394531 6.840461730957031 0.13916273415088654
5.083381175994873 6.843920707702637 0.13892164826393127
5.047334671020508 6.824932098388672 0.137894406914711
5.0353827476501465 6.838408946990967 0.1374373733997345
5.009358882904053 6.833592414855957 0.13660748302936554
4.986733913421631 6.832419395446777 0.13586115837097168
4.955076694488525 6.818716049194336 0.13486868143081665
4.939183712005615 6.82746696472168 0.13483203947544098
4.918591499328613 6.828798294067383 0.1341431587934494
4.886563777923584 6.814258098602295 0.13314607739448547
4.867628574371338 6.818410873413086 0.13251227140426636
4.853609085083008 6.8286943435668945 0.13200469315052032
4.820601463317871 6.813030242919922 0.13150261342525482
4.798181533813477 6.811277389526367 0.13076773285865784
4.779106616973877 6.814190864562988 0.13012541830539703
4.755483150482178 6.811413764953613 0.12937042117118835
4.733124256134033 6.809451103210449 0.1286407858133316
4.707379341125488 6.802490234375 0.1283240020275116
4.684640407562256 6.800631999969482 0.12759555876255035
4.6642656326293945 6.80122184753418 0.12692071497440338
4.641809463500977 6.798683166503906 0.12610316276550293
4.6250224113464355 6.805268287658691 0.12595494091510773
4.6014933586120605 6.800963401794434 0.12519563734531403
4.587202072143555 6.811145782470703 0.12479062378406525
4.562597751617432 6.80504846572876 0.12400403618812561
4.535869598388672 6.795629978179932 0.12316086143255234
4.5144572257995605 6.794940948486328 0.122475266456604
4.49920129776001 6.802563667297363 0.12235817313194275
4.455251693725586 6.798164367675781 0.12103331089019775
4.435201168060303 6.798300266265869 0.12037824094295502
4.390995979309082 6.792885780334473 0.1189652681350708
4.372192859649658 6.794682502746582 0.11883768439292908
4.348333358764648 6.789432525634766 0.11809202283620834
4.330855369567871 6.793141841888428 0.11750651150941849
4.308072566986084 6.788442611694336 0.11678078025579453
4.290341377258301 6.792531967163086 0.11620131134986877
4.26729679107666 6.78720235824585 0.11595955491065979
4.248259544372559 6.788144111633301 0.11533474922180176
4.229022026062012 6.789615631103516 0.11471763253211975
4.208557605743408 6.788109302520752 0.11405713856220245
4.179690361022949 6.773818016052246 0.11318176984786987
4.1633219718933105 6.778728008270264 0.11303354054689407
4.14465856552124 6.779849529266357 0.11242286115884781
4.116652965545654 6.766477584838867 0.11157122254371643
4.109793186187744 6.7868804931640625 0.11128527671098709
4.084652423858643 6.777064323425293 0.11049960553646088
4.058158874511719 6.765756607055664 0.11009129881858826
4.043213367462158 6.772661209106445 0.10966834425926208
4.025516510009766 6.7749223709106445 0.1090887188911438
4.002939224243164 6.769815444946289 0.10838809609413147
3.981919050216675 6.7662763595581055 0.10771947354078293
3.966108798980713 6.77230167388916 0.10720154643058777
3.944455862045288 6.767659664154053 0.10660389810800552
3.922602653503418 6.762382984161377 0.10630771517753601
3.8939733505249023 6.746190547943115 0.10544665902853012
14.563213348388672 -10.556750297546387 0.4322509765625
14.854219436645508 -10.531604766845703 0.4409189224243164
15.02529525756836 -10.511585235595703 0.44534051418304443
17.27115249633789 -10.331777572631836 0.5121262669563293
17.500263214111328 -10.320003509521484 0.5186578631401062
17.66324806213379 -10.316108703613281 0.5234453082084656
17.945127487182617 -10.329992294311523 0.5311287045478821
21.628089904785156 -10.641746520996094 0.6389118432998657
21.904600143432617 -10.607279777526855 0.6465840935707092
22.10544204711914 -10.589844703674316 0.6526873111724854
22.192174911499023 -10.5748291015625 0.656100332736969
22.384849548339844 -10.551193237304688 0.6604772210121155
22.688291549682617 -10.52041244506836 0.6699907779693604
22.98433494567871 -10.48263168334961 0.6783162951469421
26.4310359954834 -10.097095489501953 0.7781426310539246
26.55097198486328 -10.079824447631836 0.7810553312301636
26.813827514648438 -10.050621032714844 0.7889816761016846
26.932621002197266 -10.031455039978027 0.7921673059463501
27.06626319885254 -10.01544189453125 0.7954663038253784
27.470766067504883 -9.969229698181152 0.8072818517684937
28.0275936126709 -9.906875610351562 0.8229997158050537
85.89105987548828 -25.56987762451172 2.515589952468872
86.9217300415039 -24.691329956054688 2.5446109771728516
87.69871520996094 -24.51338768005371 2.5653200149536133
87.97052764892578 -24.392663955688477 2.5717952251434326
88.27236938476562 -24.076488494873047 2.582271099090576
88.47979736328125 -23.935903549194336 2.5868618488311768
88.69824981689453 -23.59456443786621 2.591270923614502
88.87377166748047 -23.44388198852539 2.599604606628418
89.61932373046875 -23.237308502197266 2.618541955947876
94.12993621826172 -19.817045211791992 2.741133213043213
95.25834655761719 -19.43001937866211 2.7752082347869873
95.88972473144531 -19.138525009155273 2.792254686355591
96.29508972167969 -19.01173210144043 2.802950382232666
97.0164566040039 -18.73000144958496 2.8216309547424316
97.34770202636719 -18.584495544433594 2.835172176361084
21.6506290435791 -3.8981704711914062 0.6301595568656921
21.700349807739258 -3.859522581100464 0.6314060091972351
79.44111633300781 -13.270734786987305 2.2813055515289307
49.57612228393555 -5.734163761138916 1.4388079643249512
50.32482147216797 -5.606629848480225 1.4603794813156128
50.698402404785156 -5.541215419769287 1.4708802700042725
51.08555603027344 -5.476275444030762 1.481778621673584
51.462120056152344 -5.40546989440918 1.4923644065856934
51.857200622558594 -5.338190078735352 1.5034936666488647
52.2366828918457 -5.265066623687744 1.5141661167144775
52.65375900268555 -5.1961870193481445 1.525937795639038
53.068336486816406 -5.125921726226807 1.5376404523849487
53.47008514404297 -5.050034046173096 1.5489693880081177
53.90733337402344 -4.977909088134766 1.5613335371017456
54.30126190185547 -4.900660514831543 1.572441816329956
55.587242126464844 -4.661789417266846 1.6127948760986328
65.96334075927734 -2.6128928661346436 1.9086405038833618
67.12649536132812 -2.376584053039551 1.9475195407867432
67.71782684326172 -2.256105899810791 1.9645322561264038
68.9358139038086 -2.0068161487579346 1.9996047019958496
69.54251098632812 -1.879310131072998 2.0170810222625732
70.167724609375 -1.7469565868377686 2.0351080894470215
70.7964096069336 -1.6148570775985718 2.05324125289917
71.46797180175781 -1.4817960262298584 2.071871280670166
72.04554748535156 -1.3405698537826538 2.0885205268859863
72.70894622802734 -1.2012096643447876 2.1076741218566895
73.35748291015625 -1.0559570789337158 2.1264047622680664
74.00165557861328 -0.911634087562561 2.1450133323669434
74.6692123413086 -0.7640916109085083 2.1643118858337402
75.36774444580078 -0.6110236644744873 2.1845145225524902
76.74443817138672 -0.3028382658958435 2.2204904556274414
77.45062255859375 -0.14099380373954773 2.2409093379974365
78.33645629882812 0.016007471829652786 2.9118876457214355
79.05622863769531 0.18419745564460754 2.9386544227600098
79.74858093261719 0.35215315222740173 2.9644103050231934
80.44883728027344 0.5262540578842163 2.990471363067627
81.93622589111328 0.8769468665122986 3.041733741760254
82.71451568603516 1.0611205101013184 3.0706982612609863
89.21160125732422 2.642566204071045 3.3121304512023926
91.7492446899414 3.295149326324463 3.4024033546447754
100.41374206542969 5.510223388671875 3.7351932525634766
102.64103698730469 6.279840469360352 3.8136138916015625
95.89395141601562 6.472390651702881 3.564293622970581
90.93775939941406 6.522698879241943 3.376481533050537
88.72785186767578 6.549294948577881 3.2948946952819824
83.80291748046875 6.540736675262451 3.112123966217041
81.97034454345703 6.569724082946777 3.0445568561553955
80.7242431640625 6.642598628997803 2.9988045692443848
78.96410369873047 6.66276741027832 2.9339001178741455
77.4999008178711 6.702029705047607 2.8760452270507812
76.04273223876953 6.738919258117676 2.821681261062622
74.93782043457031 6.798543930053711 2.7812018394470215
73.77153015136719 6.850887775421143 2.73844051361084
72.72005462646484 6.905483722686768 2.7058990001678467
71.91956329345703 6.980843544006348 2.676658868789673
70.86720275878906 7.030801773071289 2.6344242095947266
70.12399291992188 7.1040496826171875 2.6073479652404785
68.41484069824219 7.222107887268066 2.544188976287842
66.08821105957031 7.3968892097473145 2.455955743789673
64.16659545898438 7.590551376342773 2.385596513748169
57.508567810058594 8.277586936950684 2.1350927352905273
56.653343200683594 8.398172378540039 2.1052327156066895
56.19938659667969 8.450103759765625 2.0890064239501953
55.40325164794922 8.56915283203125 2.057896137237549
54.992698669433594 8.622540473937988 2.0427212715148926
54.192596435546875 8.731085777282715 2.014348030090332
53.786949157714844 8.780860900878906 1.9999494552612305
53.42179489135742 8.837879180908203 1.9843182563781738
53.104339599609375 8.898616790771484 1.9726505279541016
52.711605072021484 8.94587230682373 1.958747148513794
52.26304626464844 8.984086990356445 1.9427821636199951
51.87273025512695 9.02841567993164 1.9263038635253906
51.26508712768555 9.034977912902832 1.903907060623169
50.61478042602539 9.028706550598145 1.8804398775100708
50.081138610839844 9.041330337524414 1.8613128662109375
49.46332550048828 9.038410186767578 1.8365135192871094
48.94296646118164 9.048323631286621 1.817366361618042
48.40807342529297 9.056422233581543 1.7982183694839478
47.90210723876953 9.064690589904785 1.7801170349121094
46.87712097167969 9.0753812789917 1.7405118942260742
46.37999725341797 9.079032897949219 1.722750186920166
45.37485885620117 9.080854415893555 1.6844778060913086
44.87334060668945 9.077375411987305 1.6660786867141724
38.38831329345703 8.948467254638672 1.4248113632202148
37.27557373046875 8.936519622802734 1.383626937866211
36.9055061340332 8.928828239440918 1.370178461074829
36.191261291503906 8.91753101348877 1.3431544303894043
35.86698532104492 8.916618347167969 1.3314170837402344
35.462669372558594 8.896585464477539 1.3148713111877441
35.123435974121094 8.888998031616211 1.302977204322815
34.75410461425781 8.872697830200195 1.287766695022583
34.43165588378906 8.86838150024414 1.2765141725540161
34.09165573120117 8.856290817260742 1.2645870447158813
33.74707794189453 8.84377670288086 1.2507376670837402
33.47208023071289 8.845983505249023 1.2408607006072998
33.10579299926758 8.82309341430664 1.227959394454956
32.81406021118164 8.820093154907227 1.2161120176315308
32.49500274658203 8.806680679321289 1.20460844039917
32.192283630371094 8.798501968383789 1.194080114364624
31.881446838378906 8.784688949584961 1.1815513372421265
31.598793029785156 8.777398109436035 1.1714049577713013
31.297821044921875 8.765856742858887 1.1609371900558472
31.02443504333496 8.758760452270508 1.1498377323150635
30.450469970703125 8.735346794128418 1.1295852661132812
30.185169219970703 8.72707462310791 1.1188219785690308
29.62063217163086 8.69919490814209 1.0989186763763428
29.38889503479004 8.697425842285156 1.0894391536712646
28.897674560546875 8.684577941894531 1.0722596645355225
26.82819366455078 8.619332313537598 0.9944533109664917
26.180274963378906 8.59311294555664 0.9707340002059937
25.515724182128906 8.553048133850098 0.9464228749275208
25.11379051208496 8.5361328125 0.9312182664871216
24.946945190429688 8.537212371826172 0.9256898164749146
24.760934829711914 8.530999183654785 0.9178432822227478
24.583894729614258 8.528797149658203 0.911953330039978
24.412439346313477 8.526113510131836 0.9049386382102966
24.23213768005371 8.520978927612305 0.8986504077911377
24.029695510864258 8.506152153015137 0.8918004035949707
23.855304718017578 8.500168800354004 0.8844319581985474
23.686256408691406 8.497000694274902 0.8788356781005859
23.497825622558594 8.48448371887207 0.8704404234886169
23.313453674316406 8.472640037536621 0.862744927406311
23.17374610900879 8.47795295715332 0.8582446575164795
22.974937438964844 8.459320068359375 0.8515294790267944
22.82494354248047 8.45950698852539 0.8451513648033142
22.669349670410156 8.455385208129883 0.8400374054908752
22.49736785888672 8.444461822509766 0.832843542098999
22.343034744262695 8.441030502319336 0.8277959823608398
22.204071044921875 8.4412260055542 0.8232954740524292
22.056045532226562 8.437378883361816 0.8170121908187866
21.899446487426758 8.431144714355469 0.8118759393692017
21.730390548706055 8.417880058288574 0.8048303723335266
21.424510955810547 8.403326988220215 0.7936383485794067
21.266544342041016 8.392332077026367 0.7881884574890137
20.958614349365234 8.37299633026123 0.7766944169998169
20.79947280883789 8.36073112487793 0.7714545726776123
20.50555992126465 8.341863632202148 0.7604811191558838
19.66075897216797 8.289209365844727 0.7286108732223511
19.24626922607422 8.257338523864746 0.7136592268943787
18.8832950592041 8.242555618286133 0.700850784778595
18.608854293823242 8.215999603271484 0.6906946301460266
18.516944885253906 8.221614837646484 0.6868950724601746
18.263811111450195 8.201475143432617 0.6775556802749634
18.123929977416992 8.18389892578125 0.6727820634841919
18.027143478393555 8.186370849609375 0.6688367128372192
17.896583557128906 8.172149658203125 0.6644142866134644
17.782882690429688 8.164872169494629 0.6598309874534607
17.672836303710938 8.159873962402344 0.6563915610313416
17.572521209716797 8.158066749572754 0.6521121263504028
17.46221923828125 8.150948524475098 0.6486445665359497
17.342859268188477 8.140399932861328 0.6436837315559387
17.238847732543945 8.135276794433594 0.6404499411582947
17.13287353515625 8.129840850830078 0.6359980702400208
17.023170471191406 8.121328353881836 0.6325520873069763
16.93257713317871 8.12128734588623 0.6292142868041992
16.822982788085938 8.112974166870117 0.6248396039009094
16.724700927734375 8.1083984375 0.6218133568763733
16.6229248046875 8.101702690124512 0.617524266242981
16.533130645751953 8.101691246032715 0.614829957485199
16.437990188598633 8.097417831420898 0.6107951998710632
16.345352172851562 8.09500503540039 0.6079920530319214
16.225305557250977 8.077737808227539 0.6030431985855103
16.15637969970703 8.085304260253906 0.601105272769928
15.973721504211426 8.078191757202148 0.5944785475730896
15.869272232055664 8.06777572631836 0.59013831615448
15.675729751586914 8.051641464233398 0.5830997824668884
15.59593677520752 8.05259895324707 0.580772876739502
15.43102741241455 8.04895305633545 0.5748085379600525
15.333011627197266 8.039334297180176 0.5707331299781799
15.16463565826416 8.03265380859375 0.5646740198135376
14.896074295043945 8.010720252990723 0.5554996132850647
14.641554832458496 7.9931182861328125 0.5466760993003845
14.484077453613281 7.98630952835083 0.5410363674163818
14.389479637145996 7.973332405090332 0.5379471778869629
14.23038101196289 7.963491439819336 0.5314269661903381
14.12666130065918 7.944187164306641 0.528164267539978
14.07441520690918 7.954230785369873 0.52585768699646
13.987889289855957 7.943871021270752 0.5232412815093994
13.907432556152344 7.936392784118652 0.519866943359375
13.835681915283203 7.934481143951416 0.5178186297416687
13.746414184570312 7.921436309814453 0.5141199827194214
13.67620849609375 7.918829917907715 0.5121116638183594
13.598684310913086 7.9125871658325195 0.5088757276535034
13.522577285766602 7.906103134155273 0.5066455602645874
13.454933166503906 7.904978275299072 0.5037846565246582
13.367499351501465 7.8909711837768555 0.5011218190193176
13.306503295898438 7.892436504364014 0.49850741028785706
13.22702407836914 7.883350372314453 0.4953782856464386
13.165518760681152 7.8839545249938965 0.49352648854255676
13.077794075012207 7.868339538574219 0.4899170696735382
13.019659996032715 7.871103286743164 0.4883662462234497
12.939598083496094 7.8596014976501465 0.48504990339279175
12.865374565124512 7.85200309753418 0.48289215564727783
12.803400039672852 7.85087776184082 0.4811817705631256
12.743708610534668 7.850711822509766 0.4786340892314911
12.657299041748047 7.8346428871154785 0.47601065039634705
12.605266571044922 7.8388495445251465 0.4737643301486969
12.525154113769531 7.8259992599487305 0.4713747501373291
12.452802658081055 7.816769599914551 0.4683622121810913
12.401697158813477 7.820796966552734 0.4663153886795044
12.34326171875 7.820666790008545 0.4645880162715912
12.203882217407227 7.803710460662842 0.45967286825180054
12.141314506530762 7.800111770629883 0.4570590555667877
12.011487007141113 7.787502288818359 0.4525143504142761
11.961158752441406 7.791035175323486 0.4505198001861572
11.813630104064941 7.76599645614624 0.4451774060726166
11.753402709960938 7.761383056640625 0.44351184368133545
11.64400577545166 7.759761810302734 0.4390535354614258
11.467411994934082 7.746622562408447 0.4332272708415985
11.35306453704834 7.739208221435547 0.42944222688674927
11.303899765014648 7.740276336669922 0.4281942844390869
11.177061080932617 7.722592830657959 0.42378517985343933
11.126254081726074 7.7218241691589355 0.4216389060020447
11.072509765625 7.719447612762451 0.4193989336490631
11.022080421447754 7.718329429626465 0.4180959165096283
10.962830543518066 7.710968494415283 0.41563880443573
10.913005828857422 7.710649013519287 0.4143720269203186
10.854886054992676 7.703403949737549 0.41195547580718994
10.799001693725586 7.6976637840271 0.40963539481163025
10.746241569519043 7.694556713104248 0.40825170278549194
10.693033218383789 7.690247535705566 0.40603184700012207
10.631814002990723 7.6805596351623535 0.403664767742157
10.582405090332031 7.678337574005127 0.4022529423236847
10.531778335571289 7.675186634063721 0.4001430869102478
10.480525016784668 7.671998023986816 0.39881381392478943
10.418926239013672 7.660163879394531 0.3962831199169159
10.379262924194336 7.66440486907959 0.3947319984436035
10.325291633605957 7.658519744873047 0.3931606113910675
10.283613204956055 7.66090726852417 0.39139533042907715
10.230063438415527 7.654077529907227 0.38931840658187866
10.174970626831055 7.646646499633789 0.38770097494125366
10.148125648498535 7.6596455574035645 0.38728901743888855
10.098785400390625 7.656153678894043 0.38552191853523254
10.037761688232422 7.642911911010742 0.38302940130233765
9.998827934265137 7.6460981369018555 0.3821481168270111
9.942659378051758 7.636694431304932 0.3798542022705078
9.881694793701172 7.622693061828613 0.3779975175857544
9.847199440002441 7.629524230957031 0.37667128443717957
9.804261207580566 7.628868579864502 0.3748728334903717
9.757622718811035 7.625306129455566 0.37356770038604736
9.711705207824707 7.6227288246154785 0.37180665135383606
9.653914451599121 7.609797477722168 0.36944490671157837
9.622344017028809 7.617506980895996 0.3688458502292633
9.565701484680176 7.60579776763916 0.3665461540222168
9.473851203918457 7.598107814788818 0.3635071814060211
9.43848705291748 7.601984024047852 0.3620137572288513
9.328193664550781 7.578142166137695 0.3582693934440613
9.304100036621094 7.590672492980957 0.357215940952301
9.21617603302002 7.583812236785889 0.35433506965637207
9.16588020324707 7.574379920959473 0.3522760272026062
9.093070030212402 7.578883171081543 0.34998244047164917
9.004555702209473 7.569600582122803 0.34732744097709656
8.962672233581543 7.566189765930176 0.345599889755249
8.873907089233398 7.5554890632629395 0.34269043803215027
8.850275039672852 7.56726598739624 0.3416754901409149
8.805682182312012 7.5615997314453125 0.3405742645263672
8.7625150680542 7.556180000305176 0.3388035297393799
8.706902503967285 7.539946556091309 0.33655667304992676
8.681707382202148 7.550479888916016 0.3356209695339203
8.63614273071289 7.542387962341309 0.3343428075313568
8.588818550109863 7.532692909240723 0.3324199318885803
8.561331748962402 7.540842533111572 0.33140116930007935
8.530438423156738 7.545124053955078 0.3306896388530731
8.471951484680176 7.524947166442871 0.3283369541168213
8.435978889465332 7.525135040283203 0.3269909620285034
8.399402618408203 7.524026393890381 0.3260610103607178
8.358942985534668 7.519870758056641 0.32442334294319153
8.32390308380127 7.519660472869873 0.32310277223587036
8.284050941467285 7.515097141265869 0.3220440447330475
8.243209838867188 7.510051250457764 0.32039541006088257
8.208076477050781 7.509272575378418 0.31895577907562256
8.176553726196289 7.511822700500488 0.31777864694595337
8.139944076538086 7.510157585144043 0.31685808300971985
8.101608276367188 7.506131172180176 0.31529897451400757
8.067636489868164 7.506588935852051 0.3141578733921051
8.02900218963623 7.50178861618042 0.31314244866371155
7.999983787536621 7.505990028381348 0.31206652522087097
7.948645114898682 7.489654064178467 0.3100161850452423
7.93101692199707 7.504175186157227 0.3092697262763977
7.873988151550293 7.482160568237305 0.30766722559928894
7.858171463012695 7.49822473526001 0.30699458718299866
7.80129337310791 7.475101470947266 0.30472034215927124
7.77255916595459 7.479322910308838 0.30421698093414307
7.732229709625244 7.471481800079346 0.30258819460868835
7.707123279571533 7.47836971282959 0.3015613555908203
7.670132637023926 7.474196434020996 0.30008015036582947
7.634966850280762 7.470880508422852 0.2993110418319702
7.560730934143066 7.460827350616455 0.2963310480117798
7.523597717285156 7.455063819885254 0.2954825460910797
7.497069358825684 7.46058464050293 0.29441940784454346
7.463754177093506 7.458322525024414 0.29307493567466736
7.387734889984131 7.444802284240723 0.2906769812107086
7.36113977432251 7.448855400085449 0.289596825838089
7.29250955581665 7.441833019256592 0.2869660258293152
7.261900901794434 7.441425800323486 0.2862589359283447
7.188262939453125 7.4282989501953125 0.2834326922893524
7.129143714904785 7.429563045501709 0.2817040681838989
7.106845855712891 7.437158584594727 0.2808037996292114
7.0331220626831055 7.42233943939209 0.27798280119895935
7.008428573608398 7.427087783813477 0.2775081992149353
6.970827102661133 7.418927192687988 0.2760232090950012
6.922946453094482 7.398675918579102 0.27422335743904114
6.90437126159668 7.40974235534668 0.2734818458557129
6.8743391036987305 7.409026145935059 0.2728082835674286
6.842988967895508 7.406002521514893 0.2715577781200409
6.80245304107666 7.393008232116699 0.2700518071651459
6.782425403594971 7.4027605056762695 0.2692687511444092
6.744409084320068 7.392006874084473 0.26826077699661255
6.710772514343262 7.38602352142334 0.2669260501861572
6.6901397705078125 7.394835472106934 0.2662266492843628
6.666296005249023 7.399285316467285 0.26527971029281616
6.622061729431152 7.381837844848633 0.26404109597206116
6.5980939865112305 7.385898590087891 0.2630910873413086
6.567567825317383 7.382663249969482 0.2619885504245758
6.54148530960083 7.384893417358398 0.26097095012664795
6.506742477416992 7.376455307006836 0.25959455966949463
6.476726531982422 7.3733720779418945 0.2590099573135376
6.45063591003418 7.375228404998779 0.2579948604106903
6.420719623565674 7.37183952331543 0.2568124830722809
6.390862464904785 7.36853551864624 0.2556363344192505
6.353423595428467 7.35690450668335 0.25476279854774475
6.333677291870117 7.364880084991455 0.25399142503738403
6.306281089782715 7.364790439605713 0.2529306411743164
6.274991035461426 7.359104633331299 0.2516976296901703
6.241593837738037 7.350937843322754 0.2504848837852478
6.220048427581787 7.357203483581543 0.25014567375183105
6.189111709594727 7.351498126983643 0.24892713129520416
6.156003952026367 7.343957901000977 0.24764025211334229
6.136836051940918 7.352027416229248 0.2468986213207245
6.101959228515625 7.341158866882324 0.24610701203346252
6.085939407348633 7.353786468505859 0.24551069736480713
6.0367560386657715 7.325251579284668 0.24355919659137726
5.983660697937012 7.32344913482666 0.24208195507526398
5.9580535888671875 7.32307243347168 0.24108396470546722
5.9056549072265625 7.321438312530518 0.239060640335083
5.876779079437256 7.316659927368164 0.23793330788612366
5.85917854309082 7.326749324798584 0.23785346746444702
5.831205368041992 7.322872638702393 0.23676231503486633
5.805644989013672 7.321903228759766 0.2356715202331543
5.773072719573975 7.312859058380127 0.234512597322464
5.749517440795898 7.314178943634033 0.23360323905944824
5.699115753173828 7.313243865966797 0.23213931918144226
5.6668171882629395 7.303004264831543 0.2308768630027771
5.620316505432129 7.306402683258057 0.22920574247837067
5.598984718322754 7.310011863708496 0.22885695099830627
5.5421528816223145 7.299285888671875 0.2267652153968811
5.5161943435668945 7.296487331390381 0.22576385736465454
5.477509498596191 7.277582168579102 0.22425884008407593
5.458049297332764 7.283134460449219 0.22398480772972107
5.441802501678467 7.292943000793457 0.2233830690383911
5.4089555740356445 7.281323432922363 0.2222151905298233
5.3926825523376465 7.290976047515869 0.22161433100700378
5.352780818939209 7.269457817077637 0.22006016969680786
5.340615749359131 7.284549713134766 0.22008511424064636
5.312331676483154 7.277594566345215 0.21899141371250153
5.280091285705566 7.2659711837768555 0.21784831583499908
5.259275913238525 7.268998146057129 0.2170637547969818
5.234833717346191 7.2669219970703125 0.2161298245191574
5.206460952758789 7.260188579559326 0.21505261957645416
5.188251495361328 7.266590595245361 0.21428221464157104
5.1749749183654785 7.280056953430176 0.2143615186214447
5.134947776794434 7.256361961364746 0.21279793977737427
5.112272262573242 7.2562055587768555 0.2119402438402176
5.101035118103027 7.273205757141113 0.21157608926296234
5.063211917877197 7.251239776611328 0.2100898027420044
5.0495781898498535 7.263779640197754 0.2101507931947708
5.010884761810303 7.241076946258545 0.20864422619342804
4.9899582862854 7.242912292480469 0.20786049962043762
4.967901229858398 7.2430219650268555 0.20703233778476715
4.946641445159912 7.2451581954956055 0.20625439286231995
4.918307781219482 7.235858917236328 0.2052568644285202
4.909693717956543 7.255692958831787 0.2054368555545807
4.88023042678833 7.245283603668213 0.20431490242481232
4.854938507080078 7.240115165710449 0.20335114002227783
4.831159591674805 7.238033771514893 0.20247061550617218
4.806153774261475 7.233031749725342 0.20161402225494385
4.776098728179932 7.220261573791504 0.20088914036750793
4.756119251251221 7.223545551300049 0.2001708447933197
4.743985176086426 7.237772464752197 0.19976282119750977
4.717374324798584 7.229852676391602 0.1987459808588028
4.688682556152344 7.2195329666137695 0.19775205850601196
4.674531936645508 7.23054838180542 0.19726194441318512
4.646083354949951 7.220158576965332 0.19661743938922882
4.620184421539307 7.212928771972656 0.1955433040857315
4.597095012664795 7.209779262542725 0.19467711448669434
4.586882591247559 7.227776527404785 0.19437581300735474
4.557313919067383 7.214231491088867 0.19323553144931793
4.536096572875977 7.2137556076049805 0.19297023117542267
4.511600494384766 7.208927631378174 0.192063108086586
4.494655132293701 7.2151031494140625 0.19145938754081726
4.4640703201293945 7.199252605438232 0.19027528166770935
4.451085090637207 7.212668418884277 0.18986108899116516
4.430602073669434 7.212925910949707 0.18919801712036133
4.402278423309326 7.20126485824585 0.18855425715446472
4.378828525543213 7.1964216232299805 0.18767596781253815
4.3565473556518555 7.193376541137695 0.18684697151184082
4.333207130432129 7.189454078674316 0.18599024415016174
4.310924530029297 7.1861724853515625 0.18516169488430023
4.290345668792725 7.1856279373168945 0.18449623882770538
4.273844242095947 7.192857265472412 0.1843586564064026
4.24766731262207 7.182701110839844 0.1833621859550476
4.2274980545043945 7.182574272155762 0.1826256364583969
4.205110549926758 7.179577350616455 0.18181297183036804
4.190488815307617 7.188780307769775 0.1814054548740387
4.160451889038086 7.17141580581665 0.18024206161499023
4.139370441436768 7.170322895050049 0.17948612570762634
4.121494770050049 7.1736979484558105 0.1792694628238678
4.103108882904053 7.17714786529541 0.1785423904657364
4.075322151184082 7.1630024909973145 0.17747637629508972
4.061295032501221 7.172938346862793 0.17709770798683167
4.037418842315674 7.166432857513428 0.1766376495361328
4.023581504821777 7.176656723022461 0.17618098855018616
3.991356134414673 7.154787540435791 0.17493338882923126
3.983072280883789 7.175073623657227 0.17472641170024872
3.956576347351074 7.16232967376709 0.1738032102584839
3.933472156524658 7.156402587890625 0.17295591533184052
3.9111380577087402 7.151064395904541 0.17213203012943268
3.8906795978546143 7.148857593536377 0.17179745435714722
3.8725147247314453 7.151643753051758 0.17116999626159668
3.847951650619507 7.141818046569824 0.17024797201156616
23.635332107543945 -10.720343589782715 0.9098868370056152
23.977502822875977 -10.69430923461914 0.922057032585144
24.298095703125 -10.654666900634766 0.9334129691123962
80.91754913330078 -28.985734939575195 3.0833027362823486
84.01200866699219 -28.51251792907715 3.1933717727661133
84.42597961425781 -28.457775115966797 3.211353302001953
29.943891525268555 -9.9530611038208 1.1377218961715698
86.45183563232422 -28.13347053527832 3.2835190296173096
40.7630729675293 -12.981342315673828 1.5451405048370361
97.39063262939453 -26.12970733642578 3.675574779510498
89.13871765136719 -22.719480514526367 3.3663017749786377
50.152381896972656 -11.555549621582031 1.8803331851959229
111.51817321777344 -19.83989715576172 4.1745758056640625
113.48388671875 -19.21208953857422 4.243287086486816
114.17401123046875 -19.078125 4.267579555511475
114.45059967041016 -18.636415481567383 4.280966758728027
104.41324615478516 -16.101499557495117 3.907094955444336
65.85884094238281 -9.591196060180664 2.4509754180908203
123.86507415771484 -12.490992546081543 4.609836101531982
124.45549774169922 -12.022615432739258 4.629871368408203
125.3662109375 -11.846724510192871 4.662867069244385
125.78768157958984 -11.353623390197754 4.683091640472412
126.19696807861328 -11.125248908996582 4.697413444519043
127.45069122314453 -10.428742408752441 4.741488456726074
127.78952026367188 -9.914888381958008 4.752631664276123
127.92105865478516 -9.658068656921387 4.756696701049805
128.81153869628906 -9.179903984069824 4.788390159606934
129.0291748046875 -8.926329612731934 4.795742511749268
129.8815460205078 -8.435832023620605 4.825929164886475
130.6282958984375 -8.20553970336914 4.853028774261475
74.81775665283203 -1.552042841911316 2.7763242721557617
76.8971176147461 -0.9512381553649902 2.853484869003296
75.54969787597656 -0.6171109676361084 2.80297589302063
76.22738647460938 -0.4636416435241699 2.8343513011932373
76.91551208496094 -0.30433034896850586 2.859905242919922
77.6108627319336 -0.14519745111465454 2.8857390880584717
78.31163024902344 0.01995021291077137 2.5967769622802734
79.03412628173828 0.18498404324054718 2.6207375526428223
79.73109436035156 0.3520752787590027 2.6430227756500244
81.89253234863281 0.880608081817627 2.7148053646087646
79.41158294677734 4.358668327331543 2.6378068923950195
74.856689453125 4.580832481384277 2.4827535152435303
72.40088653564453 4.735869407653809 2.401897430419922
71.1915283203125 4.805943489074707 2.362091302871704
70.07254028320312 4.8800177574157715 2.325289726257324
69.10523223876953 4.957543849945068 2.293527603149414
68.10282135009766 5.027702331542969 2.2571513652801514
66.25796508789062 5.172157287597656 2.1959853172302246
65.5438461303711 5.253274917602539 2.172640562057495
63.87809753417969 5.390603065490723 2.118144989013672
63.322296142578125 5.479256629943848 2.1000757217407227
61.975669860839844 5.62266206741333 2.056858777999878
60.15306091308594 5.841841697692871 1.9945082664489746
52.03982162475586 7.046818256378174 1.7234010696411133
50.963661193847656 7.227638244628906 1.6886625289916992
50.62781524658203 7.287776947021484 1.6780413389205933
50.31610107421875 7.352097511291504 1.6656659841537476
49.97489929199219 7.408748626708984 1.6548738479614258
49.66056823730469 7.467501640319824 1.6444300413131714
49.35129165649414 7.528839111328125 1.6347118616104126
49.08613586425781 7.592655181884766 1.6264450550079346
48.788230895996094 7.652785778045654 1.614621639251709
48.47489929199219 7.707278728485107 1.6047829389572144
48.21754837036133 7.768985271453857 1.5962615013122559
47.92595291137695 7.826544761657715 1.587160587310791
47.30268096923828 7.9269866943359375 1.5651915073394775
45.97825241088867 8.004900932312012 1.5201717615127563
44.42118453979492 8.021856307983398 1.469857931137085
37.850128173828125 8.073596954345703 1.2483700513839722
37.10825729370117 8.078889846801758 1.2231009006500244
36.769771575927734 8.085155487060547 1.2120838165283203
36.04563903808594 8.085219383239746 1.187474250793457
35.662933349609375 8.077550888061523 1.1750226020812988
34.95109558105469 8.070817947387695 1.1526833772659302
34.64939880371094 8.077320098876953 1.1414918899536133
34.28239440917969 8.068628311157227 1.1295899152755737
33.9495735168457 8.065074920654297 1.1191750764846802
33.635093688964844 8.064141273498535 1.1076107025146484
33.295814514160156 8.057671546936035 1.0966302156448364
32.97161102294922 8.052059173583984 1.086504340171814
32.642784118652344 8.045309066772461 1.0721276998519897
32.056495666503906 8.042451858520508 1.0535941123962402
31.72378158569336 8.030689239501953 1.0432240962982178
31.14752197265625 8.024542808532715 1.023409128189087
30.862260818481445 8.019383430480957 1.0145821571350098
26.71941375732422 7.971312999725342 0.8769478797912598
26.0632381439209 7.954323768615723 0.8517519235610962
25.8492431640625 7.947690486907959 0.845294177532196
25.443809509277344 7.94047212600708 0.8314963579177856
25.245281219482422 7.936343193054199 0.8252588510513306
25.05076789855957 7.933738708496094 0.8181273341178894
24.859214782714844 7.930169105529785 0.8124104142189026
24.664222717285156 7.924394607543945 0.8062926530838013
24.496370315551758 7.927943229675293 0.800054669380188
24.304471969604492 7.9218854904174805 0.7943280935287476
24.119731903076172 7.917078971862793 0.7872715592384338
23.93385887145996 7.912458419799805 0.781755268573761
23.75997543334961 7.909990310668945 0.7763412594795227
23.585739135742188 7.907710552215576 0.7699435353279114
23.240772247314453 7.90108585357666 0.7582629919052124
23.060243606567383 7.893135070800781 0.7529065012931824
22.743499755859375 7.891878128051758 0.7421693801879883
22.578927993774414 7.887307643890381 0.7370747923851013
22.270172119140625 7.8848419189453125 0.7268831729888916
21.823625564575195 7.881482124328613 0.7105740308761597
20.471466064453125 7.834080696105957 0.6659051775932312
20.085065841674805 7.831321716308594 0.653374195098877
19.672035217285156 7.813100337982178 0.6402266621589661
19.39900016784668 7.799403190612793 0.6311256289482117
19.287939071655273 7.8012871742248535 0.6269919872283936
19.02593994140625 7.788710594177246 0.6182775497436523
18.904674530029297 7.784914016723633 0.6146414875984192
18.773677825927734 7.776810646057129 0.6104714870452881
18.64188575744629 7.768679618835449 0.6054884791374207
18.501148223876953 7.755364418029785 0.601442813873291
18.38567543029785 7.752945899963379 0.5970032811164856
18.275930404663086 7.751376628875732 0.5939613580703735
18.15152931213379 7.74332857131958 0.5892360210418701
18.037784576416016 7.7401628494262695 0.5860757827758789
17.933286666870117 7.739428520202637 0.5820068120956421
17.814891815185547 7.733520984649658 0.5787006616592407
17.699058532714844 7.726925849914551 0.5742766261100769
17.49652862548828 7.726398468017578 0.5675863027572632
17.39002799987793 7.722532749176025 0.5646492838859558
17.188642501831055 7.719927787780762 0.5580101609230042
17.087623596191406 7.717209815979004 0.5541032552719116
16.91008758544922 7.722935676574707 0.5482584834098816
16.635229110717773 7.724164009094238 0.5397884845733643
15.8231782913208 7.714315414428711 0.5125207304954529
15.559574127197266 7.707240581512451 0.5042955875396729
15.398017883300781 7.70814323425293 0.49818938970565796
15.297954559326172 7.697795391082764 0.4954680800437927
15.128007888793945 7.692292213439941 0.4899715185165405
15.027488708496094 7.680469512939453 0.4862016439437866
14.878664016723633 7.683605670928955 0.4814046323299408
14.784337997436523 7.673797130584717 0.4788665771484375
14.706133842468262 7.673129558563232 0.4758501648902893
