VERSION .7
FIELDS x y z
SIZE 4 4 4
TYPE F F F
COUNT 1 1 1
WIDTH 824
HEIGHT 1
VIEWPOINT 0 0 0 1 0 0 0
POINTS 824
DATA ascii
4.362765789031982 5.696728706359863 -0.10010769218206406
4.350042819976807 5.704657077789307 -0.10008784383535385
4.331307888031006 5.704600811004639 -0.09949175268411636
4.332401752471924 5.731365203857422 -0.09976140409708023
4.308008670806885 5.7238054275512695 -0.0990704670548439
4.295461177825928 5.7318525314331055 -0.09861920773983002
4.282390594482422 5.739921569824219 -0.09859943389892578
4.263473987579346 5.739377498626709 -0.09800193458795547
4.244905948638916 5.739223957061768 -0.0978148803114891
4.224625587463379 5.737400054931641 -0.09722900390625
4.209761619567871 5.742133617401123 -0.09672755002975464
4.189183235168457 5.739680290222168 -0.09650182723999023
4.179582595825195 5.751611232757568 -0.09615454077720642
4.151683807373047 5.738221168518066 -0.0957539826631546
4.144779682159424 5.7544660568237305 -0.09544278681278229
4.1271071434021 5.755134582519531 -0.09491357207298279
4.114480495452881 5.762740612030029 -0.09486419707536697
4.089451789855957 5.753578186035156 -0.09413869678974152
4.082054138183594 5.76854133605957 -0.094241663813591
4.066727161407471 5.7729387283325195 -0.09374071657657623
4.044909477233887 5.767351150512695 -0.09308572858572006
4.027945518493652 5.768649101257324 -0.09297164529561996
4.013556003570557 5.774221897125244 -0.09249303489923477
3.9997308254241943 5.779947280883789 -0.09241820871829987
3.9781079292297363 5.7742719650268555 -0.09180057048797607
3.9707705974578857 5.789999485015869 -0.09188009798526764
3.930267810821533 5.7823052406311035 -0.09064695984125137
3.9221608638763428 5.7969160079956055 -0.09074302017688751
3.8904855251312256 5.801896572113037 -0.0901065543293953
3.8693525791168213 5.797056198120117 -0.08951429277658463
3.8298683166503906 5.790566444396973 -0.08870676159858704
3.823160409927368 5.806577205657959 -0.08843684941530228
3.787999391555786 5.8062663078308105 -0.08773230761289597
3.7543399333953857 5.834497451782227 -0.08695371448993683
3.699153423309326 5.828938961029053 -0.08567988127470016
3.658461570739746 5.84572696685791 -0.08474616706371307
3.6333305835723877 5.8603081703186035 -0.08431318402290344
3.609780788421631 5.84939432144165 -0.08362747728824615
3.5770938396453857 5.851424217224121 -0.08299034088850021
3.554279327392578 5.841309070587158 -0.08232617378234863
3.546342611312866 5.856402397155762 -0.0823977142572403
3.528834342956543 5.85487699508667 -0.08188936859369278
3.5192508697509766 5.866478443145752 -0.08191544562578201
3.493165969848633 5.851294040679932 -0.08118460327386856
3.4761838912963867 5.850398540496826 -0.08068955689668655
3.4678568840026855 5.8641252517700195 -0.08074554055929184
3.450737953186035 5.863667011260986 -0.08022136241197586
3.4370784759521484 5.868281364440918 -0.0798046812415123
3.42450213432312 5.874795436859131 -0.07976312935352325
3.408514976501465 5.876119613647461 -0.07926838845014572
3.3947296142578125 5.88043737411499 -0.07881652563810349
6.326749324798584 -11.949663162231445 -0.1416199803352356
6.348328590393066 -11.930484771728516 -0.14237654209136963
6.399069309234619 -11.904672622680664 -0.14321239292621613
6.42747163772583 -11.89809799194336 -0.14411918818950653
6.495269298553467 -11.903585433959961 -0.1461031287908554
6.5408806800842285 -11.928098678588867 -0.1466369777917862
6.592746734619141 -11.90363597869873 -0.14834009110927582
6.632550239562988 -11.916950225830078 -0.14874106645584106
6.790897846221924 -11.905591011047363 -0.15276207029819489
6.889232158660889 -11.903480529785156 -0.1550317108631134
6.994004726409912 -11.911157608032227 -0.15661220252513885
7.092689037322998 -11.907148361206055 -0.15883488953113556
7.191248893737793 -11.901787757873535 -0.1611291468143463
7.2590107917785645 -11.900420188903809 -0.16237246990203857
7.2905964851379395 -11.896598815917969 -0.163380429148674
7.327087879180908 -11.899144172668457 -0.16448190808296204
7.357680320739746 -11.893345832824707 -0.16461221873760223
7.390413761138916 -11.889542579650879 -0.1656332015991211
7.426084041595459 -11.891687393188477 -0.1667330116033554
7.458389759063721 -11.888434410095215 -0.16697317361831665
7.489626407623291 -11.881896018981934 -0.1678941249847412
7.525537014007568 -11.883996963500977 -0.16900232434272766
7.562347412109375 -11.887475967407227 -0.16934329271316528
7.5898308753967285 -11.874717712402344 -0.170253723859787
7.619289875030518 -11.866341590881348 -0.17115189135074615
7.661928176879883 -11.87845516204834 -0.1716233491897583
7.693849086761475 -11.872316360473633 -0.1726347804069519
7.729156017303467 -11.872612953186035 -0.1737365871667862
7.760963439941406 -11.867536544799805 -0.1723070591688156
7.798074722290039 -11.868854522705078 -0.17343206703662872
7.83787727355957 -11.875658988952637 -0.17463810741901398
7.862522602081299 -11.859396934509277 -0.174710214138031
7.9013166427612305 -11.862808227539062 -0.1758054792881012
7.931403160095215 -11.854586601257324 -0.17680087685585022
7.969306468963623 -11.856481552124023 -0.17715030908584595
8.003205299377441 -11.853585243225098 -0.17823097109794617
8.039373397827148 -11.854035377502441 -0.1792924404144287
8.076920509338379 -11.854928970336914 -0.17963391542434692
8.114439010620117 -11.856919288635254 -0.1807962954044342
8.15146255493164 -11.85814380645752 -0.18194979429244995
8.190295219421387 -11.860404014587402 -0.18225297331809998
8.215507507324219 -11.844149589538574 -0.18314683437347412
8.260189056396484 -11.854535102844238 -0.18445812165737152
8.292301177978516 -11.848003387451172 -0.1846981644630432
8.329092025756836 -11.84815502166748 -0.18578150868415833
8.36821460723877 -11.850042343139648 -0.1869758665561676
8.39513111114502 -11.835835456848145 -0.18709880113601685
8.44285774230957 -11.850927352905273 -0.18849821388721466
8.471065521240234 -11.836932182312012 -0.1893845945596695
8.51294994354248 -11.843450546264648 -0.18983986973762512
8.539271354675293 -11.828201293945312 -0.19077207148075104
8.584407806396484 -11.837353706359863 -0.19203513860702515
8.620404243469238 -11.835234642028809 -0.1907133013010025
8.647637367248535 -11.820999145507812 -0.19085106253623962
8.692594528198242 -11.829340934753418 -0.19210806488990784
8.727276802062988 -11.825032234191895 -0.19322821497917175
8.793298721313477 -11.810066223144531 -0.19456066191196442
8.836884498596191 -11.817330360412598 -0.19580604135990143
8.92312240600586 -11.82845687866211 -0.19758747518062592
8.944984436035156 -11.806398391723633 -0.19843542575836182
8.990577697753906 -11.814058303833008 -0.1988847851753235
9.025650978088379 -11.809215545654297 -0.2000247985124588
9.058208465576172 -11.800971984863281 -0.2011144608259201
9.103683471679688 -11.807907104492188 -0.20156024396419525
9.137441635131836 -11.800970077514648 -0.20267832279205322
9.167827606201172 -11.78958797454834 -0.20288312435150146
9.214303016662598 -11.797262191772461 -0.20426763594150543
9.256828308105469 -11.801143646240234 -0.20550598204135895
9.288298606872559 -11.790794372558594 -0.20573650300502777
9.32711410522461 -11.788177490234375 -0.2069557160139084
9.368911743164062 -11.790637969970703 -0.20818494260311127
9.404059410095215 -11.783102989196777 -0.20848079025745392
9.440079689025879 -11.778019905090332 -0.20965977013111115
9.47871208190918 -11.7760591506958 -0.2100474238395691
9.519719123840332 -11.77541732788086 -0.20869643986225128
9.561139106750488 -11.776580810546875 -0.20999455451965332
9.603771209716797 -11.779053688049316 -0.21131902933120728
9.646090507507324 -11.779489517211914 -0.21177127957344055
9.676726341247559 -11.767000198364258 -0.21276454627513885
9.762711524963379 -11.770167350769043 -0.21457214653491974
9.801047325134277 -11.766607284545898 -0.21573537588119507
9.842754364013672 -11.76547908782959 -0.21617695689201355
9.879876136779785 -11.760177612304688 -0.2173895239830017
9.919978141784668 -11.758279800415039 -0.2186015099287033
9.999772071838379 -11.752081871032715 -0.2202855795621872
10.043128967285156 -11.753530502319336 -0.22077825665473938
10.07938003540039 -11.745060920715332 -0.22189202904701233
10.124648094177246 -11.748390197753906 -0.22329288721084595
10.151155471801758 -11.729722023010254 -0.22341808676719666
10.20824909210205 -11.745011329650879 -0.22498869895935059
10.247734069824219 -11.74113941192627 -0.2253912389278412
10.279640197753906 -11.727032661437988 -0.22648368775844574
10.322771072387695 -11.727052688598633 -0.22776851058006287
10.352585792541504 -11.711830139160156 -0.2279655486345291
10.406584739685059 -11.722356796264648 -0.22954902052879333
10.432636260986328 -11.702696800231934 -0.22958074510097504
10.468881607055664 -11.694406509399414 -0.229030579328537
10.50958251953125 -11.689526557922363 -0.22944477200508118
10.536849975585938 -11.671051979064941 -0.2304634004831314
10.563677787780762 -11.65195083618164 -0.23140469193458557
10.581441879272461 -11.62166690826416 -0.2313261181116104
10.58759880065918 -11.580065727233887 -0.2318916618824005
10.595012664794922 -11.539883613586426 -0.23152890801429749
10.6283540725708 -11.526784896850586 -0.23267461359500885
10.671947479248047 -11.476699829101562 -0.2335171401500702
10.688034057617188 -11.446273803710938 -0.23430532217025757
10.703948020935059 -11.36697006225586 -0.234557643532753
10.728021621704102 -11.345270156860352 -0.23464353382587433
10.751030921936035 -11.274114608764648 -0.23593339323997498
10.780906677246094 -11.210530281066895 -0.23656770586967468
10.80522346496582 -11.189249038696289 -0.23659317195415497
10.806793212890625 -11.144497871398926 -0.23707197606563568
10.8345308303833 -11.125449180603027 -0.2372250109910965
10.842729568481445 -11.087739944458008 -0.2377750277519226
10.873696327209473 -11.026124954223633 -0.23845520615577698
10.929683685302734 -10.944418907165527 -0.23823857307434082
10.949196815490723 -10.918546676635742 -0.23824316263198853
10.974006652832031 -10.8514986038208 -0.238718643784523
10.997709274291992 -10.829787254333496 -0.23969008028507233
11.012162208557129 -10.797883987426758 -0.2403712421655655
11.022290229797363 -10.763040542602539 -0.24016909301280975
11.029963493347168 -10.725807189941406 -0.24079731106758118
11.037649154663086 -10.687602996826172 -0.2404644638299942
11.052762031555176 -10.65788459777832 -0.24125109612941742
11.08088493347168 -10.640612602233887 -0.24137410521507263
11.090968132019043 -10.604948997497559 -0.24203680455684662
11.11307144165039 -10.581923484802246 -0.2421109676361084
11.1126127243042 -10.537603378295898 -0.2424893081188202
11.136457443237305 -10.515225410461426 -0.24345390498638153
11.158910751342773 -10.492609977722168 -0.24353478848934174
11.159132957458496 -10.449271202087402 -0.24392825365066528
11.173501014709473 -10.418113708496094 -0.2438300997018814
11.188429832458496 -10.388616561889648 -0.2446155846118927
11.215864181518555 -10.369660377502441 -0.24471905827522278
11.21567440032959 -10.326396942138672 -0.24517877399921417
11.236724853515625 -10.302677154541016 -0.2452402412891388
11.25711441040039 -10.277294158935547 -0.2442730814218521
11.247065544128418 -10.22530746459961 -0.24452830851078033
11.265742301940918 -10.199666976928711 -0.24454262852668762
11.288863182067871 -10.176897048950195 -0.24542753398418427
11.324511528015137 -10.166418075561523 -0.2458074688911438
11.32421875 -10.122647285461426 -0.246258944272995
11.333247184753418 -10.088484764099121 -0.24600867927074432
11.343234062194824 -10.05516529083252 -0.2466878741979599
11.366803169250488 -10.03287124633789 -0.2467314749956131
11.355184555053711 -9.980772018432617 -0.2469622939825058
11.364145278930664 -9.946826934814453 -0.2467702478170395
11.391812324523926 -9.928237915039062 -0.24776285886764526
11.391425132751465 -9.886286735534668 -0.24823446571826935
11.386442184448242 -9.840609550476074 -0.24768267571926117
11.406295776367188 -9.815374374389648 -0.24858157336711884
11.438475608825684 -9.801732063293457 -0.24889634549617767
11.448662757873535 -9.769330978393555 -0.249526709318161
11.483284950256348 -9.715599060058594 -0.25037068128585815
11.489510536193848 -9.678919792175293 -0.25005751848220825
11.528670310974121 -9.588648796081543 -0.2514195144176483
11.551167488098145 -9.485146522521973 -0.25061023235321045
11.623848915100098 -9.342260360717773 -0.252767413854599
11.662044525146484 -9.252889633178711 -0.2541501820087433
11.70367431640625 -9.166531562805176 -0.2547666132450104
11.731741905212402 -9.109148025512695 -0.2554439604282379
11.740165710449219 -9.076613426208496 -0.2561247944831848
11.736403465270996 -9.034852027893066 -0.2556384205818176
11.757134437561035 -9.010965347290039 -0.2565719783306122
11.78515625 -8.9549560546875 -0.25727227330207825
11.803716659545898 -8.929349899291992 -0.25725722312927246
11.793366432189941 -8.883100509643555 -0.2575317919254303
11.820206642150879 -8.8649320602417 -0.25777938961982727
11.827475547790527 -8.830967903137207 -0.25752609968185425
11.850326538085938 -8.809786796569824 -0.25845587253570557
11.863825798034668 -8.781656265258789 -0.25835344195365906
11.857954025268555 -8.738160133361816 -0.25872471928596497
11.880767822265625 -8.716986656188965 -0.25881850719451904
11.88940143585205 -8.684310913085938 -0.25949764251708984
11.903091430664062 -8.656488418579102 -0.25947314500808716
11.926587104797363 -8.635793685913086 -0.26041194796562195
11.923127174377441 -8.594522476196289 -0.2600066065788269
11.930334091186523 -8.562152862548828 -0.2597711384296417
11.929801940917969 -8.52431869506836 -0.26026538014411926
11.945842742919922 -8.49729061126709 -0.26020994782447815
11.969822883605957 -8.476995468139648 -0.26124075055122375
11.97172737121582 -8.441096305847168 -0.26089274883270264
11.988971710205078 -8.414968490600586 -0.2617678642272949
11.98964786529541 -8.378357887268066 -0.2614023685455322
12.005306243896484 -8.352192878723145 -0.26225414872169495
12.017468452453613 -8.285847663879395 -0.2626477777957916
12.04240894317627 -8.117856979370117 -0.2631542682647705
12.012948989868164 -7.988620281219482 -0.2622383236885071
12.004681587219238 -7.874730110168457 -0.2619165778160095
12.045141220092773 -7.579257488250732 -0.26390454173088074
12.08426570892334 -7.498243808746338 -0.264655739068985
12.091556549072266 -7.39789342880249 -0.2646564245223999
12.120705604553223 -7.311406135559082 -0.2660052478313446
12.133827209472656 -7.215676307678223 -0.2652902603149414
12.126832008361816 -7.142557144165039 -0.2653464376926422
12.14784049987793 -7.121016979217529 -0.26554062962532043
12.144983291625977 -7.08544397354126 -0.2659532427787781
12.148466110229492 -7.052809238433838 -0.26576167345046997
12.15959358215332 -7.025497913360596 -0.26647844910621643
12.149924278259277 -6.986320495605469 -0.2660200893878937
12.169778823852539 -6.963261127471924 -0.26691603660583496
12.194080352783203 -6.943541526794434 -0.2671913504600525
12.185453414916992 -6.904273986816406 -0.2666751444339752
12.201388359069824 -6.8798933029174805 -0.26756739616394043
12.207279205322266 -6.849792957305908 -0.26738888025283813
12.213308334350586 -6.818986415863037 -0.268050879240036
12.217570304870605 -6.7880730628967285 -0.2678264081478119
12.238639831542969 -6.766580104827881 -0.26883450150489807
12.235495567321777 -6.730827331542969 -0.2684522271156311
12.252038955688477 -6.673766613006592 -0.269058495759964
12.251179695129395 -6.572876930236816 -0.26896432042121887
12.277019500732422 -6.48767614364624 -0.26869630813598633
12.32489013671875 -6.414181709289551 -0.26969510316848755
12.445527076721191 -5.700247764587402 -0.2725841701030731
12.449170112609863 -5.670623302459717 -0.2724080979824066
12.461100578308105 -5.6128106117248535 -0.27297601103782654
12.474011421203613 -5.587517261505127 -0.27377304434776306
12.46669864654541 -5.490406513214111 -0.2736815810203552
12.504324913024902 -5.444218158721924 -0.2740578353404999
12.50661849975586 -5.3519415855407715 -0.27420902252197266
12.514547348022461 -5.324636936187744 -0.27496814727783203
12.524006843566895 -5.266480445861816 -0.2747490108013153
12.517143249511719 -5.171231269836426 -0.2747122645378113
12.540077209472656 -5.088654041290283 -0.27456676959991455
12.722649574279785 -4.3111371994018555 -0.2784404456615448
12.746466636657715 -4.2300639152526855 -0.2791883051395416
12.753287315368652 -4.143506050109863 -0.279585063457489
12.7784423828125 -4.063046455383301 -0.28037914633750916
12.785088539123535 -4.005951404571533 -0.2801542282104492
12.786898612976074 -3.918412446975708 -0.280464768409729
12.80868911743164 -3.8371734619140625 -0.28121522068977356
8.391594886779785 5.416600227355957 -0.1039678156375885
8.304359436035156 5.434550762176514 -0.10214172303676605
8.245413780212402 5.445709705352783 -0.10165450721979141
8.156081199645996 5.460658073425293 -0.1003710925579071
8.06418514251709 5.472864151000977 -0.09833511710166931
7.979281902313232 5.48882532119751 -0.09712978452444077
6.934779167175293 5.633861541748047 -0.08068034052848816
6.868746280670166 5.652266025543213 -0.07977723330259323
6.8198652267456055 5.6603803634643555 -0.07894857227802277
6.774868488311768 5.646819591522217 -0.07852672785520554
6.733638286590576 5.660682678222656 -0.07770393788814545
6.710353374481201 5.664915561676025 -0.07703328877687454
6.652594566345215 5.664311408996582 -0.07610981911420822
6.63356351852417 5.6718950271606445 -0.07602984458208084
6.590397834777832 5.683207035064697 -0.07527361810207367
6.570174217224121 5.6895833015441895 -0.07513632625341415
6.505643844604492 5.681821823120117 -0.07414650917053223
6.492247104644775 5.693914890289307 -0.0736432746052742
6.434842109680176 5.691690444946289 -0.07274238020181656
6.365821838378906 5.702371120452881 -0.07180111110210419
6.295246124267578 5.710887432098389 -0.07089361548423767
5.742919921875 5.787337779998779 -0.06187720224261284
5.676791191101074 5.793086528778076 -0.06148216128349304
5.618152141571045 5.805812358856201 -0.06021278351545334
5.561609268188477 5.820157527923584 -0.059505853801965714
5.518833160400391 5.824304103851318 -0.05878402665257454
5.507111549377441 5.836143493652344 -0.05833180248737335
5.476091384887695 5.827505588531494 -0.05809706076979637
5.454653739929199 5.829540729522705 -0.05755200609564781
5.434434413909912 5.832200050354004 -0.05698193609714508
5.414649963378906 5.835199356079102 -0.05689938738942146
5.3923020362854 5.8360137939453125 -0.05631018429994583
5.380681991577148 5.847794055938721 -0.056276872754096985
5.360162734985352 5.850471019744873 -0.055748287588357925
5.3429975509643555 5.8560872077941895 -0.05565659701824188
5.312297821044922 5.846818447113037 -0.05502215400338173
5.301004886627197 5.859434127807617 -0.05499495938420296
5.274343490600586 5.854337692260742 -0.05436478927731514
5.255817890167236 5.8582329750061035 -0.05429757013916969
5.230241775512695 5.854782581329346 -0.05368559807538986
5.210651397705078 5.857272148132324 -0.05360742285847664
5.200594902038574 5.870510578155518 -0.0535917654633522
5.178321838378906 5.870530128479004 -0.05345388501882553
5.152993202209473 5.866311073303223 -0.05284346640110016
5.136491775512695 5.872779846191406 -0.05280124023556709
5.122069358825684 5.880873203277588 -0.052302662283182144
5.078359127044678 5.8805084228515625 -0.05163528025150299
5.068962097167969 5.894309997558594 -0.0516248382627964
5.028416633605957 5.897219657897949 -0.050554562360048294
4.996138572692871 5.8840532302856445 -0.050320010632276535
4.969635486602783 5.90304708480835 -0.04982864111661911
4.954284191131592 5.909661293029785 -0.04936277121305466
4.624749183654785 5.960117340087891 -0.04403835907578468
4.560701847076416 5.95449161529541 -0.042869117110967636
4.532026290893555 5.968959331512451 -0.042377132922410965
4.519069194793701 5.977610111236572 -0.04233700782060623
4.475329875946045 5.971868515014648 -0.041286319494247437
4.467155933380127 5.986809730529785 -0.04128953441977501
4.420065879821777 5.976046085357666 -0.04063595086336136
4.412491798400879 5.9917731285095215 -0.04026155173778534
4.366944789886475 5.982527732849121 -0.03958655521273613
4.348162651062012 5.9828290939331055 -0.03911514952778816
4.341064453125 5.999912738800049 -0.03912873566150665
4.320801258087158 5.998136520385742 -0.039023496210575104
4.299223899841309 5.994372844696045 -0.03852503001689911
4.289119243621826 6.007279396057129 -0.038515422493219376
4.275969982147217 6.015279769897461 -0.038056131452322006
4.243317127227783 5.99565315246582 -0.03787923976778984
4.23753547668457 6.014691352844238 -0.03749006241559982
4.212035179138184 6.004925727844238 -0.036931112408638
4.210479736328125 6.030005931854248 -0.03702659532427788
4.187032222747803 6.02307653427124 -0.036482926458120346
4.178338527679443 6.0372633934021 -0.03648011386394501
4.152055740356445 6.026698589324951 -0.035953495651483536
4.130830764770508 6.022665500640869 -0.03543156385421753
4.113829135894775 6.024641990661621 -0.03535886108875275
4.095380783081055 6.025161266326904 -0.03490054979920387
4.091460704803467 6.046407222747803 -0.03493838012218475
4.078243255615234 6.053903102874756 -0.034484993666410446
4.05423641204834 6.046099662780762 -0.033984165638685226
4.038678169250488 6.050001621246338 -0.03392362967133522
4.0152268409729 6.04198694229126 -0.03339090198278427
3.9946084022521973 6.038907051086426 -0.03291850909590721
3.9841885566711426 6.050404071807861 -0.032902102917432785
3.974884510040283 6.064376354217529 -0.03248762711882591
3.947558641433716 6.050095558166504 -0.03236820548772812
3.926659345626831 6.045440196990967 -0.031860675662755966
3.914618492126465 6.055117130279541 -0.031832970678806305
3.9053125381469727 6.068368911743164 -0.03141752630472183
3.8865246772766113 6.0668044090271 -0.030929457396268845
3.8764259815216064 6.079529285430908 -0.030951831489801407
3.849025249481201 6.092251777648926 -0.030052145943045616
3.824784994125366 6.082556247711182 -0.029965505003929138
3.7908577919006348 6.085324287414551 -0.029026132076978683
3.780015468597412 6.096070766448975 -0.02903757616877556
3.7429702281951904 6.093476295471191 -0.028481341898441315
3.7249338626861572 6.09242582321167 -0.02803819067776203
3.6874547004699707 6.088594436645508 -0.027481839060783386
3.661583423614502 6.1037421226501465 -0.026643792167305946
3.6479876041412354 6.109784126281738 -0.02660323493182659
3.6188089847564697 6.119317054748535 -0.025742486119270325
3.5975406169891357 6.112267971038818 -0.025648651644587517
3.56048321723938 6.108005523681641 -0.02513829991221428
3.5531370639801025 6.124579906463623 -0.024741221219301224
3.522625684738159 6.131331443786621 -0.02424478530883789
3.503908634185791 6.1281609535217285 -0.023772479966282845
3.4657554626464844 6.121114253997803 -0.02326030470430851
3.4551613330841064 6.132048606872559 -0.02284427359700203
3.438718557357788 6.1334662437438965 -0.02239152044057846
3.425093412399292 6.138994216918945 -0.0223520640283823
3.4031383991241455 6.129504203796387 -0.021899372339248657
3.389493942260742 6.135776996612549 -0.02146810293197632
3.3817882537841797 6.151956081390381 -0.02146586962044239
3.3670432567596436 6.155357360839844 -0.021057862788438797
3.3476662635803223 6.1511077880859375 -0.02059314213693142
3.329272985458374 6.147661209106445 -0.020524250343441963
3.3054163455963135 6.134044170379639 -0.020030563697218895
6.7557573318481445 -11.903131484985352 -0.03982962295413017
6.827342987060547 -11.912115097045898 -0.041562993079423904
6.855318069458008 -11.903597831726074 -0.04164973646402359
6.931563377380371 -11.919632911682129 -0.04342284053564072
6.955253601074219 -11.903327941894531 -0.04348642751574516
7.019374370574951 -11.897881507873535 -0.04525968059897423
7.056461811065674 -11.904095649719238 -0.04540666192770004
7.118312835693359 -11.894087791442871 -0.047106001526117325
7.14951753616333 -11.890031814575195 -0.04721866548061371
7.216759204864502 -11.888334274291992 -0.048959650099277496
7.32179069519043 -11.892036437988281 -0.05093572288751602
7.426506519317627 -11.893978118896484 -0.05206684023141861
7.526007175445557 -11.886343955993652 -0.05395577475428581
7.595042705535889 -11.884343147277832 -0.055021900683641434
7.619781017303467 -11.86870002746582 -0.0558161735534668
7.693513870239258 -11.873259544372559 -0.0569208562374115
7.726884841918945 -11.870708465576172 -0.05785209685564041
7.799142360687256 -11.872058868408203 -0.058881811797618866
7.827768802642822 -11.861919403076172 -0.0597839429974556
7.86480188369751 -11.862960815429688 -0.05994177609682083
7.906794548034668 -11.872603416442871 -0.06087253987789154
7.933206558227539 -11.857407569885254 -0.06175272911787033
7.971047401428223 -11.860508918762207 -0.06192509084939957
8.00327205657959 -11.855242729187012 -0.06285957992076874
8.046319961547852 -11.864401817321777 -0.06380154937505722
8.077622413635254 -11.857390403747559 -0.06392278522253036
8.104179382324219 -11.843477249145508 -0.06481911987066269
8.152819633483887 -11.860240936279297 -0.06587783992290497
8.180179595947266 -11.84717845916748 -0.0659046396613121
8.221957206726074 -11.854992866516113 -0.06691991537809372
8.249066352844238 -11.840112686157227 -0.06619910895824432
8.286009788513184 -11.84055233001709 -0.0663653314113617
8.31814956665039 -11.832711219787598 -0.06723300367593765
8.362874031066895 -11.843892097473145 -0.06827979534864426
8.40093994140625 -11.845556259155273 -0.06846080720424652
8.432378768920898 -11.836339950561523 -0.06932733952999115
8.464627265930176 -11.829459190368652 -0.07027780264616013
8.501558303833008 -11.82912540435791 -0.07045038044452667
8.540169715881348 -11.829442977905273 -0.07145263254642487
8.58395004272461 -11.83824348449707 -0.07243160158395767
8.610160827636719 -11.822688102722168 -0.07252126187086105
8.643288612365723 -11.81505298614502 -0.07348096370697021
8.688796043395996 -11.825685501098633 -0.07455602288246155
8.719883918762207 -11.816526412963867 -0.0746103972196579
8.757312774658203 -11.814339637756348 -0.07561443746089935
8.795638084411621 -11.814713478088379 -0.07580537348985672
8.835312843322754 -11.815347671508789 -0.0767582431435585
8.866958618164062 -11.806381225585938 -0.07772062718868256
8.911523818969727 -11.814582824707031 -0.07796590775251389
8.95036792755127 -11.81362533569336 -0.07898987084627151
8.988286972045898 -11.812543869018555 -0.07993969321250916
9.02647876739502 -11.811790466308594 -0.08013221621513367
9.061525344848633 -11.805292129516602 -0.08113127946853638
9.142407417297363 -11.808869361877441 -0.08064749836921692
9.181839942932129 -11.80760669708252 -0.08084376156330109
9.214635848999023 -11.799171447753906 -0.08176075667142868
9.258862495422363 -11.805222511291504 -0.08284720778465271
9.285709381103516 -11.787508964538574 -0.08294151723384857
9.3247709274292 -11.786693572998047 -0.08398625254631042
9.407242774963379 -11.788566589355469 -0.0852000042796135
9.436172485351562 -11.774617195129395 -0.08616741746664047
9.481456756591797 -11.779471397399902 -0.08634772896766663
9.560134887695312 -11.776813507080078 -0.08846838772296906
9.592634201049805 -11.765395164489746 -0.08861564099788666
9.645137786865234 -11.779792785644531 -0.08972284197807312
9.72229290008545 -11.772525787353516 -0.09098474681377411
9.750713348388672 -11.757162094116211 -0.09188657999038696
9.802263259887695 -11.768067359924316 -0.09220338612794876
9.835783004760742 -11.7586030960083 -0.0932297632098198
9.881872177124023 -11.764008522033691 -0.09429437667131424
9.908787727355957 -11.745016098022461 -0.09439168125391006
9.967818260192871 -11.765360832214355 -0.0956537052989006
9.9885835647583 -11.740386009216309 -0.0957028865814209
10.034461975097656 -11.743386268615723 -0.09676710516214371
10.0797758102417 -11.746973037719727 -0.09530474990606308
10.119312286376953 -11.743646621704102 -0.09551961719989777
10.161368370056152 -11.74163818359375 -0.09663064777851105
10.204148292541504 -11.741737365722656 -0.09767677634954453
10.240691184997559 -11.733070373535156 -0.09786663949489594
10.288212776184082 -11.738258361816406 -0.09903854876756668
10.327327728271484 -11.733673095703125 -0.1000586450099945
10.36865520477295 -11.730009078979492 -0.10029174387454987
10.406967163085938 -11.72422981262207 -0.101382315158844
10.44583511352539 -11.718942642211914 -0.1015261709690094
10.488055229187012 -11.715825080871582 -0.10265418887138367
10.540531158447266 -11.72538948059082 -0.10300305485725403
10.574440956115723 -11.714126586914062 -0.10398436337709427
10.621758460998535 -11.716126441955566 -0.10516709834337234
10.656122207641602 -11.705123901367188 -0.10534912347793579
10.708413124084473 -11.713523864746094 -0.10650896281003952
10.737983703613281 -11.695716857910156 -0.1066395565867424
10.784046173095703 -11.69706916809082 -0.10782462358474731
10.8246431350708 -11.69089126586914 -0.10887496918439865
10.879158973693848 -11.700967788696289 -0.1092531755566597
10.912491798400879 -11.68808650970459 -0.11032404750585556
10.959038734436035 -11.687787055969238 -0.11054056882858276
11.003747940063477 -11.68677043914795 -0.11172769218683243
11.047446250915527 -11.684388160705566 -0.11290468275547028
11.089632034301758 -11.679041862487793 -0.11135293543338776
11.145034790039062 -11.68871784210205 -0.11166045069694519
11.187026977539062 -11.682684898376465 -0.11282040923833847
11.22631549835205 -11.675115585327148 -0.11396071314811707
11.274599075317383 -11.676733016967773 -0.11420461535453796
11.314972877502441 -11.668556213378906 -0.1153523251414299
11.356436729431152 -11.66279125213623 -0.11561053991317749
11.413802146911621 -11.673141479492188 -0.11685967445373535
11.445575714111328 -11.655720710754395 -0.11701637506484985
11.500990867614746 -11.6636381149292 -0.11832831054925919
11.5855712890625 -11.650862693786621 -0.1196993738412857
11.631429672241211 -11.648531913757324 -0.12084639072418213
11.722917556762695 -11.641684532165527 -0.12237982451915741
11.769975662231445 -11.640002250671387 -0.12261462211608887
11.868948936462402 -11.639419555664062 -0.12422686815261841
11.916804313659668 -11.637937545776367 -0.12541073560714722
11.95918083190918 -11.629510879516602 -0.12661735713481903
12.008689880371094 -11.629266738891602 -0.12696722149848938
12.098977088928223 -11.618362426757812 -0.12842734158039093
12.1480131149292 -11.617093086242676 -0.1297149658203125
12.246702194213867 -11.613121032714844 -0.12929533421993256
12.281185150146484 -11.597399711608887 -0.12949128448963165
12.395059585571289 -11.606687545776367 -0.13120810687541962
12.44422721862793 -11.604238510131836 -0.13250786066055298
12.47955322265625 -11.587553024291992 -0.1335841715335846
12.541939735412598 -11.597105979919434 -0.13406753540039062
12.581855773925781 -11.58556079864502 -0.13527050614356995
12.620882034301758 -11.57188606262207 -0.13542020320892334
12.665399551391602 -11.564416885375977 -0.13667085766792297
12.72903060913086 -11.574058532714844 -0.13716620206832886
12.767404556274414 -11.559334754943848 -0.13827311992645264
12.808296203613281 -11.547971725463867 -0.13852767646312714
12.861557960510254 -11.546388626098633 -0.1398009955883026
12.91636848449707 -11.547277450561523 -0.1402047872543335
12.956693649291992 -11.534930229187012 -0.14143545925617218
13.006484985351562 -11.529656410217285 -0.14169806241989136
13.041929244995117 -11.512834548950195 -0.14287683367729187
13.083537101745605 -11.50123405456543 -0.14412397146224976
13.116071701049805 -11.480363845825195 -0.14421051740646362
13.138997077941895 -11.452363014221191 -0.1452568620443344
13.137157440185547 -11.402761459350586 -0.14497877657413483
13.152731895446777 -11.36721420288086 -0.14594139158725739
13.174695014953613 -11.33841323852539 -0.14396318793296814
13.213973045349121 -11.323278427124023 -0.14518260955810547
13.211413383483887 -11.273621559143066 -0.1448967307806015
13.23515510559082 -11.246394157409668 -0.14595763385295868
13.242883682250977 -11.204439163208008 -0.14578883349895477
13.269554138183594 -11.179730415344238 -0.14686964452266693
13.277117729187012 -11.139076232910156 -0.1477585732936859
13.307762145996094 -11.116539001464844 -0.1478283852338791
13.304349899291992 -11.066790580749512 -0.1485929936170578
13.328104019165039 -11.039835929870605 -0.14860433340072632
13.334203720092773 -10.99704647064209 -0.1494697630405426
13.35579776763916 -10.968263626098633 -0.1495296061038971
13.351762771606445 -10.918635368347168 -0.15020254254341125
13.366063117980957 -10.882867813110352 -0.15018241107463837
13.38829231262207 -10.85473918914795 -0.151147723197937
13.402034759521484 -10.819866180419922 -0.15112937986850739
13.428885459899902 -10.748443603515625 -0.15196433663368225
13.443292617797852 -10.713041305541992 -0.15292425453662872
13.45947265625 -10.634796142578125 -0.1536475270986557
13.51639461517334 -10.541205406188965 -0.15464596450328827
13.560482025146484 -10.439156532287598 -0.15536092221736908
13.572418212890625 -10.313106536865234 -0.1558690071105957
13.600818634033203 -10.200357437133789 -0.1574561595916748
13.673005104064941 -10.120818138122559 -0.15865714848041534
13.70401668548584 -10.054813385009766 -0.15955589711666107
13.68695068359375 -9.998566627502441 -0.16015468537807465
13.702664375305176 -9.921813011169434 -0.16088813543319702
13.74856185913086 -9.911623001098633 -0.1611669957637787
13.745978355407715 -9.866474151611328 -0.16193599998950958
13.73294734954834 -9.812737464904785 -0.1615445762872696
13.74683952331543 -9.779635429382324 -0.16249492764472961
13.784347534179688 -9.719148635864258 -0.1634751558303833
13.780750274658203 -9.673858642578125 -0.16328164935112
13.790521621704102 -9.638060569763184 -0.16307950019836426
13.808582305908203 -9.606841087341309 -0.1640716940164566
13.822779655456543 -9.574210166931152 -0.16400563716888428
13.84072208404541 -9.542950630187988 -0.1650056689977646
13.864776611328125 -9.517146110534668 -0.16504999995231628
13.85196304321289 -9.466120719909668 -0.1647416651248932
13.871819496154785 -9.436281204223633 -0.16568705439567566
13.888907432556152 -9.405805587768555 -0.16573043167591095
13.90677261352539 -9.375774383544922 -0.16673482954502106
13.908761024475098 -9.334053039550781 -0.1665162593126297
13.911965370178223 -9.294390678405762 -0.16735529899597168
13.93779182434082 -9.26864242553711 -0.1674138754606247
13.9398193359375 -9.228327751159668 -0.16823340952396393
13.967369079589844 -9.204936027526855 -0.1683269590139389
13.981823921203613 -9.171679496765137 -0.16928645968437195
13.982892990112305 -9.130934715270996 -0.16907165944576263
13.985892295837402 -9.09154987335205 -0.16989973187446594
14.006959915161133 -9.062737464904785 -0.16992373764514923
14.023221015930176 -9.03203010559082 -0.16996389627456665
14.033512115478516 -8.955265998840332 -0.17065134644508362
14.051412582397461 -8.925708770751953 -0.17157398164272308
14.233858108520508 -8.304194450378418 -0.17692050337791443
14.248111724853516 -8.192886352539062 -0.1784677505493164
14.279372215270996 -8.131034851074219 -0.17849332094192505
14.284724235534668 -8.094873428344727 -0.17927119135856628
14.325353622436523 -8.038383483886719 -0.17942185699939728
14.303836822509766 -7.9873247146606445 -0.17887692153453827
14.298789978027344 -7.905696392059326 -0.1794007420539856
14.260354042053223 -7.767794609069824 -0.17937423288822174
14.24939250946045 -7.723438262939453 -0.1799592822790146
14.272699356079102 -7.69675350189209 -0.18010960519313812
14.279377937316895 -7.662148952484131 -0.1809106320142746
14.286233901977539 -7.627602577209473 -0.1808016449213028
14.297916412353516 -7.594717979431152 -0.18080735206604004
14.286100387573242 -7.550388336181641 -0.1813761591911316
14.293495178222656 -7.516390800476074 -0.18135327100753784
14.288979530334473 -7.475177764892578 -0.18200081586837769
14.312703132629395 -7.449716567993164 -0.1821712851524353
14.307951927185059 -7.409548282623291 -0.1819171905517578
14.315030097961426 -7.374557971954346 -0.18279190361499786
14.335481643676758 -7.347408294677734 -0.18284505605697632
14.323872566223145 -7.302945137023926 -0.18348899483680725
14.358237266540527 -7.207098960876465 -0.18432015180587769
14.368117332458496 -7.099327087402344 -0.18387371301651
14.530255317687988 -6.182272911071777 -0.18907184898853302
14.539441108703613 -6.078516960144043 -0.1897253394126892
14.541462898254395 -6.043941974639893 -0.19047965109348297
14.5441255569458 -6.008643627166748 -0.19034627079963684
14.565391540527344 -5.982074737548828 -0.1905273050069809
14.55848217010498 -5.943960189819336 -0.1911715567111969
14.55984878540039 -5.908261775970459 -0.19108913838863373
14.57237434387207 -5.878153324127197 -0.19109639525413513
14.583794593811035 -5.84760046005249 -0.19196873903274536
14.574505805969238 -5.807766914367676 -0.19175593554973602
14.578167915344238 -5.774198532104492 -0.19165459275245667
14.551505088806152 -5.65806770324707 -0.19178733229637146
14.635372161865234 -5.585018634796143 -0.1933630406856537
14.6397066116333 -5.481485843658447 -0.19310998916625977
14.804365158081055 -4.469516277313232 -0.19782565534114838
14.820232391357422 -4.372836589813232 -0.19861456751823425
14.845285415649414 -4.278964042663574 -0.19945162534713745
14.843297958374023 -4.21076774597168 -0.19926109910011292
14.866981506347656 -4.116680145263672 -0.20016883313655853
14.886480331420898 -4.0214924812316895 -0.201020747423172
6.82763147354126 5.221524715423584 -0.15578490495681763
6.771463871002197 5.246364593505859 -0.15473301708698273
6.7010111808776855 5.259525299072266 -0.15335462987422943
6.6487627029418945 5.263916969299316 -0.15214699506759644
6.573050498962402 5.2715349197387695 -0.15018311142921448
5.883235454559326 5.382913112640381 -0.1353975087404251
5.843960285186768 5.4148640632629395 -0.13479264080524445
5.763810157775879 5.408337593078613 -0.13324016332626343
5.757624626159668 5.425045967102051 -0.13292008638381958
5.69542121887207 5.411896705627441 -0.13152426481246948
5.688430309295654 5.427762508392334 -0.13158287107944489
5.653671741485596 5.417716979980469 -0.13060881197452545
5.639357566833496 5.4264936447143555 -0.13050055503845215
5.628467559814453 5.4385552406311035 -0.13006918132305145
5.600388050079346 5.434604644775391 -0.12968584895133972
5.581994533538818 5.43929386138916 -0.12904874980449677
5.5626606941223145 5.4430036544799805 -0.12886027991771698
5.511198043823242 5.438268184661865 -0.1277247816324234
5.461095333099365 5.4570136070251465 -0.1264142096042633
5.001438617706299 5.528202533721924 -0.11584635078907013
4.961052894592285 5.553341388702393 -0.11526678502559662
4.908085346221924 5.564061164855957 -0.11318109929561615
4.8786115646362305 5.554466724395752 -0.11273285746574402
4.870269775390625 5.568287372589111 -0.11239588260650635
4.846837520599365 5.5653886795043945 -0.1116759181022644
4.816981792449951 5.554337978363037 -0.11125417798757553
4.812763214111328 5.572851657867432 -0.11097614467144012
4.798794746398926 5.5806779861450195 -0.11093023419380188
4.776998519897461 5.578706741333008 -0.11024226993322372
4.752255439758301 5.573234558105469 -0.10993742942810059
4.732580661773682 5.574179649353027 -0.10931197553873062
4.7346978187561035 5.60024356842041 -0.10921905934810638
4.707236289978027 5.591254234313965 -0.10881559550762177
4.69472599029541 5.600578784942627 -0.10839450359344482
4.675165176391602 5.600866794586182 -0.10817713290452957
4.628969192504883 5.593238353729248 -0.10720621794462204
4.614287376403809 5.599113464355469 -0.10672695189714432
4.594438076019287 5.623113632202148 -0.10637636482715607
4.56532621383667 5.611208438873291 -0.10552670806646347
4.539127349853516 5.627251148223877 -0.10502713918685913
4.512983322143555 5.618661403656006 -0.10347799956798553
4.469964981079102 5.613359451293945 -0.10259318351745605
4.463153839111328 5.628737449645996 -0.10270506143569946
4.4383344650268555 5.646116733551025 -0.10184178501367569
4.2464752197265625 5.691667556762695 -0.09766703099012375
4.185352802276611 5.683949947357178 -0.09625200927257538
4.1362714767456055 5.691894054412842 -0.09548165649175644
4.1061692237854 5.7001261711120605 -0.09375366568565369
4.09440803527832 5.709418773651123 -0.0933343768119812
4.0750627517700195 5.707415580749512 -0.09313016384840012
4.060007095336914 5.71209192276001 -0.09267085790634155
4.05099630355835 5.7245354652404785 -0.09230823069810867
4.031578540802002 5.722242832183838 -0.09213674813508987
4.0131120681762695 5.721954822540283 -0.09156640619039536
4.00529670715332 5.736094951629639 -0.09166131168603897
3.979201078414917 5.724050998687744 -0.09090980887413025
3.9611544609069824 5.72408390045166 -0.09038475155830383
3.9472992420196533 5.729434490203857 -0.09030473232269287
3.9371800422668457 5.740267753601074 -0.08992335945367813
3.9134647846221924 5.7318434715271 -0.08965875208377838
3.900730609893799 5.738729476928711 -0.08921606838703156
3.8906049728393555 5.750216484069824 -0.08887554705142975
3.8676350116729736 5.7419047355651855 -0.08859024941921234
3.8552722930908203 5.749324321746826 -0.0881916806101799
3.8432397842407227 5.75787353515625 -0.08777400851249695
3.8263039588928223 5.758343696594238 -0.08762533217668533
3.814749002456665 5.766942024230957 -0.08724856376647949
3.7871899604797363 5.751884460449219 -0.08686280995607376
3.7814712524414062 5.769229412078857 -0.08662024140357971
3.7614259719848633 5.765473365783691 -0.08602273464202881
3.7508716583251953 5.775450706481934 -0.08492879569530487
3.7278738021850586 5.766261100769043 -0.0846448615193367
3.7198703289031982 5.780867099761963 -0.08435709774494171
3.7094645500183105 5.791070461273193 -0.08397380262613297
3.6793928146362305 5.7705159187316895 -0.0835312157869339
3.6632556915283203 5.798874378204346 -0.08291488885879517
3.6334879398345947 5.778336524963379 -0.0825110450387001
3.6206154823303223 5.812040328979492 -0.08232461661100388
3.5930213928222656 5.794503688812256 -0.08158625662326813
3.560495376586914 5.796411514282227 -0.080986887216568
3.530341148376465 5.801968097686768 -0.08002642542123795
3.518130302429199 5.809012413024902 -0.0800219401717186
3.493892192840576 5.8242058753967285 -0.07923227548599243
3.4762356281280518 5.822127342224121 -0.07907234877347946
3.4437272548675537 5.823258399963379 -0.07847805321216583
3.423755407333374 5.817004203796387 -0.07788494974374771
3.4001619815826416 5.832975387573242 -0.0774957686662674
3.3923449516296387 5.847422122955322 -0.07648714631795883
3.367494583129883 5.8332600593566895 -0.0757959708571434
6.869447231292725 5.556247711181641 -0.08466626703739166
6.79436731338501 5.566539764404297 -0.08363522589206696
6.731294631958008 5.585954666137695 -0.08271203935146332
6.6705098152160645 5.58311653137207 -0.08176258206367493
6.609334945678711 5.602947235107422 -0.08039328455924988
6.53948450088501 5.6147685050964355 -0.07944127917289734
6.460242748260498 5.617668628692627 -0.07790357619524002
5.837024211883545 5.711465835571289 -0.06795548647642136
5.760021686553955 5.70743989944458 -0.06693673878908157
5.714409828186035 5.733887672424316 -0.06588366627693176
5.673254013061523 5.740743637084961 -0.0651954635977745
5.63901424407959 5.729830265045166 -0.0648939311504364
5.597945213317871 5.736221790313721 -0.06425175815820694
5.5932207107543945 5.7552266120910645 -0.06384631991386414
5.544779300689697 5.753666400909424 -0.06308232992887497
5.509901523590088 5.74127197265625 -0.06281710416078568
5.472510814666748 5.750593185424805 -0.0617356076836586
5.454469680786133 5.755505561828613 -0.06163130700588226
4.993907451629639 5.831356048583984 -0.05326629430055618
4.924734115600586 5.824298858642578 -0.05198311060667038
4.895925998687744 5.864611625671387 -0.05078693851828575
4.850281238555908 5.85992431640625 -0.05010228604078293
4.822199821472168 5.850673198699951 -0.049474895000457764
4.791871070861816 5.864019393920898 -0.048953909426927567
4.776789665222168 5.871057987213135 -0.04850500077009201
4.751614093780518 5.864992618560791 -0.04833521693944931
4.743648529052734 5.880067348480225 -0.04795597866177559
4.713069438934326 5.867709159851074 -0.04731068015098572
4.704784393310547 5.8824143409729 -0.0473523773252964
4.6820502281188965 5.8789591789245605 -0.046786870807409286
4.671143054962158 5.890986442565918 -0.04680538550019264
4.653825283050537 5.894288539886475 -0.04629361256957054
4.640513896942139 5.9025726318359375 -0.04586377367377281
4.623239040374756 5.906465530395508 -0.045779719948768616
4.609364032745361 5.914042949676514 -0.04534651339054108
4.56147575378418 5.903711795806885 -0.04466148838400841
4.537688732147217 5.898183345794678 -0.0445086732506752
4.511573791503906 5.915622234344482 -0.04362951219081879
4.449398040771484 5.910791873931885 -0.041686877608299255
4.408834457397461 5.934182167053223 -0.041205115616321564
4.350337028503418 5.932999134063721 -0.04010726884007454
4.301976680755615 5.945061683654785 -0.039110153913497925
4.206726551055908 5.970839500427246 -0.037180446088314056
4.165335655212402 5.9917426109313965 -0.03626013919711113
4.103002548217773 5.981968879699707 -0.035598162561655045
4.059456825256348 5.998987197875977 -0.033479414880275726
4.021179676055908 5.996676921844482 -0.03293003886938095
4.00930118560791 6.005868911743164 -0.032493073493242264
4.000556945800781 6.0197858810424805 -0.03249082341790199
3.9769885540008545 6.012143611907959 -0.03199807554483414
3.958440065383911 6.011175155639648 -0.031914226710796356
3.9504737854003906 6.026330947875977 -0.03154595568776131
3.921226978302002 6.009612560272217 -0.030975965782999992
3.908146858215332 6.016811847686768 -0.030971096828579903
3.8941938877105713 6.023460388183594 -0.03052556701004505
3.877208709716797 6.024571418762207 -0.03005151078104973
3.8666093349456787 6.03558874130249 -0.03006933443248272
3.84540057182312 6.030807018280029 -0.02956693433225155
3.837064743041992 6.045371055603027 -0.029599670320749283
3.8131818771362305 6.035454750061035 -0.02907487004995346
3.796715497970581 6.0378522872924805 -0.02861328236758709
3.775005340576172 6.031064987182617 -0.02854323573410511
3.7636969089508057 6.0409016609191895 -0.028117680922150612
3.744746446609497 6.039126396179199 -0.02767307497560978
3.7320806980133057 6.046680927276611 -0.027639340609312057
3.717968225479126 6.052707672119141 -0.02723042294383049
3.706385374069214 6.062022686004639 -0.02680506929755211
3.6817409992218018 6.04995584487915 -0.025522606447339058
3.6664929389953613 6.053916931152344 -0.02550737001001835
3.6547646522521973 6.062910556793213 -0.025081215426325798
3.6349709033966064 6.058541297912598 -0.02463439479470253
3.6178739070892334 6.059281349182129 -0.02457163669168949
3.6155192852020264 6.084053039550781 -0.0242113396525383
3.602407693862915 6.090734958648682 -0.02420777454972267
3.5775818824768066 6.0782904624938965 -0.023698721081018448
3.555584669113159 6.069762229919434 -0.02323947846889496
3.544851303100586 6.080336570739746 -0.02321842685341835
3.504378080368042 6.069517612457275 -0.022297941148281097
3.497901678085327 6.087439060211182 -0.022303450852632523
3.4708986282348633 6.099769115447998 -0.021472766995429993
3.4324517250061035 6.091744899749756 -0.020966557785868645
3.422960042953491 6.104484558105469 -0.020558524876832962
3.3862006664276123 6.098997116088867 -0.02006605640053749
3.380901336669922 6.119340419769287 -0.0196838416159153
3.3436412811279297 6.112575531005859 -0.019190888851881027
3.313272476196289 6.11811637878418 -0.017991775646805763
3.2912793159484863 6.107738494873047 -0.017516927793622017
8.440911293029785 -11.839262962341309 -0.11693193018436432
8.543557167053223 -11.825252532958984 -0.11910374462604523
8.652033805847168 -11.818166732788086 -0.11897207796573639
8.766654968261719 -11.818131446838379 -0.12041677534580231
8.947516441345215 -11.800997734069824 -0.12300463020801544
8.992171287536621 -11.808913230895996 -0.12335396558046341
9.100503921508789 -11.796573638916016 -0.1255652755498886
10.448427200317383 -11.712002754211426 -0.14335285127162933
10.592517852783203 -11.7243070602417 -0.14269055426120758
10.70563793182373 -11.700791358947754 -0.14418993890285492
10.83439826965332 -11.69306468963623 -0.14687778055667877
10.93617057800293 -11.704964637756348 -0.14767108857631683
