VERSION .7
FIELDS x y z
SIZE 4 4 4
TYPE F F F
COUNT 1 1 1
WIDTH 831
HEIGHT 1
VIEWPOINT 0 0 0 1 0 0 0
POINTS 831
DATA ascii
15.07843017578125 -8.760941505432129 -0.22294121980667114
15.077821731567383 -8.717556953430176 -0.22265633940696716
15.089010238647461 -8.682296752929688 -0.22285006940364838
15.091343879699707 -8.641119003295898 -0.22338074445724487
15.09727668762207 -8.561172485351562 -0.22399790585041046
15.100910186767578 -8.520650863647461 -0.22407536208629608
15.117685317993164 -8.488804817199707 -0.22482720017433167
15.101726531982422 -8.438671112060547 -0.22403505444526672
15.119672775268555 -8.406366348266602 -0.2220388650894165
15.09552001953125 -8.351974487304688 -0.2221902757883072
15.110058784484863 -8.318242073059082 -0.2224365919828415
15.1107177734375 -8.277457237243652 -0.22295063734054565
15.121822357177734 -8.242788314819336 -0.2231537401676178
15.131843566894531 -8.165779113769531 -0.22355017066001892
15.122819900512695 -8.12043285369873 -0.22345855832099915
15.144102096557617 -8.049878120422363 -0.22431692481040955
15.139283180236816 -8.00706672668457 -0.22475410997867584
15.164758682250977 -7.938991546630859 -0.22567889094352722
15.185989379882812 -7.82887077331543 -0.2263009250164032
15.200777053833008 -7.715081691741943 -0.22711850702762604
15.215977668762207 -7.6025567054748535 -0.22766327857971191
15.23770523071289 -7.494077682495117 -0.2265305519104004
15.263651847839355 -7.427492618560791 -0.22748678922653198
15.261191368103027 -7.386847496032715 -0.2272196114063263
15.284692764282227 -7.31893253326416 -0.2281433492898941
15.299066543579102 -7.286825180053711 -0.22841891646385193
15.314026832580566 -7.21498441696167 -0.22921928763389587
15.300687789916992 -7.169938564300537 -0.22954195737838745
15.30265998840332 -7.131349086761475 -0.22934521734714508
15.306770324707031 -7.094324111938477 -0.22946840524673462
15.328365325927734 -7.065728187561035 -0.23031604290008545
15.326581954956055 -7.0252461433410645 -0.23034901916980743
15.326566696166992 -6.986787796020508 -0.23013000190258026
15.331130981445312 -6.949663162231445 -0.23071947693824768
15.345346450805664 -6.917442798614502 -0.2310001254081726
15.337310791015625 -6.8755598068237305 -0.2314063161611557
15.337574005126953 -6.836366176605225 -0.23147206008434296
15.33687686920166 -6.797941207885742 -0.23124903440475464
15.364267349243164 -6.771968841552734 -0.23218953609466553
15.364864349365234 -6.73306941986084 -0.23226399719715118
15.383523941040039 -6.7032270431518555 -0.2330758273601532
15.373416900634766 -6.660897254943848 -0.2302107959985733
15.3694486618042 -6.620217323303223 -0.23096179962158203
15.357437133789062 -6.463345050811768 -0.23097674548625946
15.355281829833984 -6.386450290679932 -0.23155280947685242
15.333063125610352 -6.33991813659668 -0.23101821541786194
15.336457252502441 -6.227925777435303 -0.231481671333313
15.306300163269043 -6.141500473022461 -0.23164673149585724
15.312408447265625 -6.031688690185547 -0.23216134309768677
15.285659790039062 -5.910125255584717 -0.23217648267745972
15.292032241821289 -5.802346229553223 -0.23272283375263214
15.307290077209473 -5.734800815582275 -0.23186656832695007
15.303958892822266 -5.697070121765137 -0.23263335227966309
15.310457229614258 -5.626189231872559 -0.23236840963363647
15.265377044677734 -5.573693752288818 -0.23250244557857513
15.299606323242188 -5.513281345367432 -0.23266589641571045
15.26988410949707 -5.466794013977051 -0.23303279280662537
15.279661178588867 -5.434548377990723 -0.23300814628601074
15.28311538696289 -5.399025917053223 -0.23288598656654358
15.26333236694336 -5.356436252593994 -0.2334028035402298
15.261116027832031 -5.319070339202881 -0.2331928163766861
15.250639915466309 -5.279951572418213 -0.23286470770835876
15.26308822631836 -5.248816967010498 -0.23387350142002106
15.2581787109375 -5.210704803466797 -0.23362576961517334
15.250028610229492 -5.172608852386475 -0.2333383709192276
15.266550064086914 -5.14187479019165 -0.2344038188457489
15.256946563720703 -5.103411674499512 -0.234095960855484
15.263813018798828 -5.0705132484436035 -0.23403964936733246
15.249939918518066 -5.029758453369141 -0.23393307626247406
15.278048515319824 -5.003899097442627 -0.23491105437278748
15.301615715026855 -4.9764814376831055 -0.2351149618625641
15.285717010498047 -4.93522834777832 -0.2349807769060135
15.295465469360352 -4.90334939956665 -0.23568041622638702
15.2996826171875 -4.833741188049316 -0.23543021082878113
15.302385330200195 -4.7996931076049805 -0.23531869053840637
15.292257308959961 -4.7258710861206055 -0.23583251237869263
15.300843238830566 -4.693761825561523 -0.23581236600875854
15.304143905639648 -4.624347686767578 -0.23653849959373474
15.29345703125 -4.516393661499023 -0.23620009422302246
15.285805702209473 -4.408839225769043 -0.23661500215530396
15.2924222946167 -4.306798458099365 -0.237264946103096
15.28811264038086 -4.202033042907715 -0.23748458921909332
15.284713745117188 -4.097928047180176 -0.23799172043800354
15.284444808959961 -4.028937339782715 -0.23841729760169983
15.285404205322266 -3.99528431892395 -0.2383030354976654
15.28732681274414 -3.927082061767578 -0.23903828859329224
15.26697826385498 -3.8881001472473145 -0.2385922223329544
15.264789581298828 -3.8191592693328857 -0.23926569521427155
15.274717330932617 -3.787978410720825 -0.2392975240945816
15.264762878417969 -3.750913143157959 -0.23901672661304474
15.280827522277832 -3.72125244140625 -0.23941285908222198
15.273658752441406 -3.6856746673583984 -0.23987150192260742
15.271560668945312 -3.650935649871826 -0.2397187352180481
15.284280776977539 -3.6204628944396973 -0.23979882895946503
15.269638061523438 -3.582561731338501 -0.23971450328826904
15.270626068115234 -3.5493764877319336 -0.24030393362045288
15.276561737060547 -3.517357349395752 -0.24028199911117554
15.28614330291748 -3.4851953983306885 -0.24031338095664978
15.271623611450195 -3.4485607147216797 -0.24023935198783875
15.279446601867676 -3.3827619552612305 -0.24082565307617188
15.27623176574707 -3.3488101959228516 -0.24066558480262756
15.257339477539062 -3.2773873805999756 -0.24110248684883118
15.291159629821777 -3.2514705657958984 -0.24126380681991577
15.256065368652344 -3.176913022994995 -0.2411842942237854
15.251720428466797 -3.1429996490478516 -0.24127629399299622
15.253153800964355 -3.0763869285583496 -0.2417777180671692
15.243860244750977 -2.9749069213867188 -0.2415936440229416
15.240032196044922 -2.8738598823547363 -0.24192216992378235
15.245332717895508 -2.775725841522217 -0.24267053604125977
15.246997833251953 -2.6771113872528076 -0.24268651008605957
15.258996963500977 -2.6130237579345703 -0.24338299036026
15.253698348999023 -2.579545021057129 -0.2432125210762024
15.263261795043945 -2.5150914192199707 -0.24345490336418152
15.245460510253906 -2.47967267036438 -0.243088960647583
15.248678207397461 -2.4143226146698 -0.24313320219516754
15.231491088867188 -2.379210948944092 -0.24345919489860535
15.219038963317871 -2.3116512298583984 -0.24336391687393188
15.208907127380371 -2.2778327465057373 -0.243125781416893
15.202077865600586 -2.243617057800293 -0.24293944239616394
15.18058967590332 -2.2082667350769043 -0.24252229928970337
15.173871040344238 -2.1748809814453125 -0.24301742017269135
15.135619163513184 -2.1366729736328125 -0.24259111285209656
15.143184661865234 -2.105698823928833 -0.24264180660247803
15.136590957641602 -2.071831226348877 -0.24246470630168915
15.157093048095703 -2.0426034927368164 -0.24272467195987701
15.144981384277344 -2.0089805126190186 -0.24313662946224213
15.133866310119629 -1.9746167659759521 -0.24314917623996735
15.130619049072266 -1.9422683715820312 -0.24303174018859863
15.116800308227539 -1.8758165836334229 -0.24268074333667755
15.119366645812988 -1.8442845344543457 -0.24265995621681213
15.106952667236328 -1.778234601020813 -0.24326704442501068
15.098505020141602 -1.7454813718795776 -0.24307216703891754
15.1214599609375 -1.6836323738098145 -0.2433253973722458
15.062158584594727 -1.2936376333236694 -0.24284343421459198
15.063161849975586 -1.1983791589736938 -0.2427341341972351
15.053088188171387 -1.1338027715682983 -0.243158221244812
15.042526245117188 -1.101618766784668 -0.24320636689662933
15.027099609375 -1.0368828773498535 -0.2428826242685318
15.036848068237305 -1.0062071084976196 -0.24300628900527954
15.038213729858398 -0.9427002668380737 -0.24296246469020844
15.028768539428711 -0.9105454683303833 -0.24277856945991516
15.032369613647461 -0.878794252872467 -0.24270370602607727
15.014993667602539 -0.8465165495872498 -0.2410682737827301
15.027450561523438 -0.8156823515892029 -0.2412402331829071
15.017656326293945 -0.7832345366477966 -0.2410559058189392
15.020607948303223 -0.7521365284919739 -0.24133417010307312
15.001791000366211 -0.7190696597099304 -0.24100515246391296
15.00570297241211 -0.688048779964447 -0.24104386568069458
14.99807357788086 -0.6562567353248596 -0.241559237241745
15.015897750854492 -0.6251569390296936 -0.24182581901550293
14.989574432373047 -0.5929031372070312 -0.24138009548187256
14.99724006652832 -0.561782717704773 -0.24148482084274292
14.98918628692627 -0.5296734571456909 -0.24133580923080444
14.984524726867676 -0.49837613105773926 -0.24124287068843842
14.989486694335938 -0.43535280227661133 -0.24154695868492126
14.9757080078125 -0.3407423198223114 -0.24128466844558716
13.946569442749023 1.7386250495910645 -0.2761136293411255
13.911423683166504 1.7635687589645386 -0.27548927068710327
13.860248565673828 1.816422939300537 -0.2746238112449646
13.844101905822754 1.8435373306274414 -0.2743801474571228
13.826125144958496 1.8712115287780762 -0.2738654911518097
13.796823501586914 1.8964097499847412 -0.2733622193336487
13.803447723388672 1.926514744758606 -0.27404606342315674
13.7754545211792 1.9526174068450928 -0.2735714316368103
13.7540283203125 1.9787050485610962 -0.2732297480106354
13.726361274719238 2.0040459632873535 -0.27275973558425903
13.732141494750977 2.034621000289917 -0.27296116948127747
13.706664085388184 2.0599236488342285 -0.2725384533405304
13.71474838256836 2.0911078453063965 -0.27278652787208557
13.678678512573242 2.1146631240844727 -0.27215832471847534
13.685376167297363 2.144786834716797 -0.27237972617149353
13.681201934814453 2.174086570739746 -0.272386372089386
13.655274391174316 2.1990292072296143 -0.27196142077445984
13.638982772827148 2.2263073921203613 -0.27173101902008057
13.643046379089355 2.256047010421753 -0.2719023823738098
13.614975929260254 2.2804415225982666 -0.2714380621910095
13.627096176147461 2.3124098777770996 -0.27177661657333374
13.5963716506958 2.3362338542938232 -0.2712615132331848
13.589645385742188 2.364122152328491 -0.27061551809310913
13.579428672790527 2.392242670059204 -0.2705146074295044
13.554386138916016 2.4168429374694824 -0.26988130807876587
13.547282218933105 2.4454474449157715 -0.26984354853630066
13.53498649597168 2.4722418785095215 -0.26970136165618896
13.540216445922852 2.502244472503662 -0.26990631222724915
13.513051986694336 2.5270891189575195 -0.2694734036922455
13.506011962890625 2.5547916889190674 -0.26943841576576233
13.500134468078613 2.582947254180908 -0.26989585161209106
13.503070831298828 2.6131844520568848 -0.2706708312034607
13.481232643127441 2.637993812561035 -0.27034321427345276
13.446563720703125 2.6610474586486816 -0.26976239681243896
13.4442138671875 2.6895861625671387 -0.26982465386390686
13.45048713684082 2.7198829650878906 -0.26982787251472473
13.431045532226562 2.7458293437957764 -0.2695549428462982
13.421646118164062 2.7729368209838867 -0.2694814205169678
13.430794715881348 2.8047561645507812 -0.2697846293449402
13.396926879882812 2.826709747314453 -0.26922380924224854
13.367091178894043 2.8494012355804443 -0.26874375343322754
13.371267318725586 2.880167245864868 -0.26834729313850403
13.378643989562988 2.910820960998535 -0.26861557364463806
13.3601713180542 2.935852289199829 -0.2683665156364441
13.355751037597656 2.96480393409729 -0.26840418577194214
13.342951774597168 2.991029739379883 -0.26827192306518555
13.342005729675293 3.020766019821167 -0.2683809995651245
13.306078910827637 3.041673421859741 -0.26755329966545105
13.319307327270508 3.0737955570220947 -0.26794615387916565
13.293025016784668 3.0976545810699463 -0.2675493359565735
13.263026237487793 3.1196961402893066 -0.26707854866981506
13.261897087097168 3.1487271785736084 -0.26718658208847046
13.251323699951172 3.175896644592285 -0.26650890707969666
13.246280670166016 3.203770160675049 -0.26653924584388733
13.230964660644531 3.22999906539917 -0.2663710117340088
13.211540222167969 3.254322052001953 -0.2673124074935913
13.205672264099121 3.281959056854248 -0.2673296332359314
13.18680191040039 3.3071951866149902 -0.2670912444591522
13.19087028503418 3.3373260498046875 -0.26731228828430176
13.155450820922852 3.358283042907715 -0.2667410671710968
13.181900024414062 3.3941876888275146 -0.2674178183078766
13.134336471557617 3.411020040512085 -0.26600170135498047
13.12081527709961 3.4374446868896484 -0.2658746540546417
13.098962783813477 3.4607841968536377 -0.2653450667858124
13.111661911010742 3.4932632446289062 -0.26574960350990295
13.071513175964355 3.5124895572662354 -0.26508626341819763
13.06277847290039 3.539224147796631 -0.26505884528160095
13.074604988098145 3.5724267959594727 -0.2654513716697693
13.060774803161621 3.5977911949157715 -0.2653222382068634
13.038673400878906 3.62083101272583 -0.26443105936050415
13.045787811279297 3.6528425216674805 -0.26473119854927063
13.024919509887695 3.6761646270751953 -0.2642328441143036
13.032617568969727 3.7077949047088623 -0.26454558968544006
12.997485160827637 3.727590560913086 -0.2639911472797394
12.982246398925781 3.752394199371338 -0.2638402581214905
12.979574203491211 3.781684398651123 -0.26394936442375183
12.953269958496094 3.8032004833221436 -0.2635749578475952
12.952049255371094 3.832054615020752 -0.2631171941757202
12.941638946533203 3.859060287475586 -0.2630711793899536
12.9302339553833 3.8848958015441895 -0.2641913592815399
12.919801712036133 3.911872625350952 -0.26391738653182983
12.898375511169434 3.9346237182617188 -0.26364603638648987
12.907536506652832 3.966715097427368 -0.2640008330345154
12.883995056152344 3.9896230697631836 -0.26369309425354004
12.868240356445312 4.0140275955200195 -0.2635404169559479
12.85411262512207 4.038910388946533 -0.26282989978790283
12.84709358215332 4.0668792724609375 -0.2628635764122009
12.829946517944336 4.090763568878174 -0.26245543360710144
12.830316543579102 4.121096134185791 -0.26264268159866333
12.813447952270508 4.145031452178955 -0.26247310638427734
12.805538177490234 4.171847343444824 -0.26248785853385925
12.802499771118164 4.2011308670043945 -0.2620164752006531
12.779864311218262 4.223099231719971 -0.2617321014404297
12.770339965820312 4.249608993530273 -0.2614883780479431
12.751171112060547 4.273265838623047 -0.26128089427948
12.726225852966309 4.294301986694336 -0.2609516382217407
12.728825569152832 4.325488567352295 -0.2611936330795288
12.722108840942383 4.3526763916015625 -0.26124057173728943
12.694149017333984 4.372557640075684 -0.2602633833885193
12.689506530761719 4.401305198669434 -0.26012957096099854
12.691486358642578 4.431519508361816 -0.2603582739830017
12.663745880126953 4.452206134796143 -0.25998368859291077
12.676887512207031 4.486406326293945 -0.26021379232406616
12.664670944213867 4.511678695678711 -0.26074549555778503
12.649639129638672 4.536799430847168 -0.2606351673603058
12.630119323730469 4.559401035308838 -0.2604272961616516
12.641453742980957 4.593167304992676 -0.2602657675743103
12.617032051086426 4.614829063415527 -0.25996536016464233
12.616830825805664 4.644463062286377 -0.25992918014526367
12.602348327636719 4.6697258949279785 -0.2598356604576111
12.601093292236328 4.699023723602295 -0.260010302066803
12.568629264831543 4.716650009155273 -0.25895193219184875
12.572752952575684 4.748863220214844 -0.2592453360557556
12.545184135437012 4.768220901489258 -0.25865066051483154
12.523478507995605 4.82042932510376 -0.25861915946006775
12.516045570373535 4.847413063049316 -0.2586728036403656
12.491910934448242 4.868779182434082 -0.2577994465827942
12.503396034240723 4.903168678283691 -0.2580163776874542
12.489652633666992 4.927708148956299 -0.25794288516044617
12.463044166564941 4.948004245758057 -0.25761091709136963
12.440539360046387 4.968979835510254 -0.2573581039905548
12.448726654052734 5.00311279296875 -0.2571588456630707
12.427289009094238 5.024476051330566 -0.25670138001441956
12.422365188598633 5.0525031089782715 -0.2568154036998749
12.421799659729004 5.083226203918457 -0.2570280134677887
12.39767074584961 5.1034135818481445 -0.255928099155426
12.374683380126953 5.124007701873779 -0.25626081228256226
12.385767936706543 5.15962028503418 -0.25671809911727905
12.33259105682373 5.16752815246582 -0.2558368444442749
12.313416481018066 5.190443992614746 -0.25543951988220215
12.29173755645752 5.2113728523254395 -0.25462859869003296
12.28521728515625 5.238711357116699 -0.2547178864479065
12.265450477600098 5.261277198791504 -0.25454097986221313
12.270828247070312 5.293760299682617 -0.25465089082717896
12.26648998260498 5.322358131408691 -0.2547915279865265
12.243939399719238 5.343433380126953 -0.25397035479545593
12.252567291259766 5.377495288848877 -0.2543811798095703
12.247112274169922 5.406332969665527 -0.254506915807724
12.233128547668457 5.430521011352539 -0.25421997904777527
12.207255363464355 5.449388027191162 -0.2533286511898041
12.193110466003418 5.47434139251709 -0.2532775104045868
12.164322853088379 5.491775989532471 -0.25291532278060913
12.115789413452148 5.5010528564453125 -0.2519204616546631
12.072127342224121 5.511474132537842 -0.2512499690055847
12.027737617492676 5.521398544311523 -0.24998396635055542
11.983320236206055 5.532032012939453 -0.24930569529533386
11.935417175292969 5.539994239807129 -0.24832263588905334
11.878982543945312 5.543789863586426 -0.2473859190940857
11.831445693969727 5.55241584777832 -0.2460693120956421
11.787919044494629 5.561867713928223 -0.24517951905727386
11.7308349609375 5.565603733062744 -0.24480825662612915
11.68893814086914 5.575471878051758 -0.2433841973543167
11.633697509765625 5.578787326812744 -0.24247492849826813
11.597281455993652 5.591827392578125 -0.24196475744247437
11.539316177368164 5.59342098236084 -0.24043434858322144
11.449854850769043 5.609729766845703 -0.23884038627147675
11.41118335723877 5.620177745819092 -0.23827677965164185
11.360377311706543 5.625341415405273 -0.23691052198410034
11.324057579040527 5.636649131774902 -0.23617838323116302
11.270065307617188 5.638985633850098 -0.23529694974422455
11.234125137329102 5.651042938232422 -0.23479846119880676
11.179472923278809 5.652650833129883 -0.23334981501102448
11.138840675354004 5.662017822265625 -0.2325395792722702
11.09608268737793 5.669289588928223 -0.23189301788806915
11.050944328308105 5.675177574157715 -0.231194406747818
11.013483047485352 5.685704231262207 -0.2301214635372162
10.97012996673584 5.692187309265137 -0.22924861311912537
10.924570083618164 5.697351932525635 -0.228543221950531
10.884895324707031 5.706271171569824 -0.2274288535118103
10.829832077026367 5.706085681915283 -0.22631484270095825
10.809316635131836 5.7248125076293945 -0.22614064812660217
10.748574256896973 5.721235275268555 -0.2251170575618744
10.7162504196167 5.732600212097168 -0.22394812107086182
10.667689323425293 5.735965728759766 -0.223188579082489
10.62739086151123 5.742759704589844 -0.22259485721588135
10.578265190124512 5.744843006134033 -0.2218153476715088
10.53822135925293 5.752046585083008 -0.22049899399280548
10.490850448608398 5.754478454589844 -0.2197570949792862
10.455547332763672 5.764204502105713 -0.21927562355995178
10.402769088745117 5.763288974761963 -0.21821242570877075
10.37791633605957 5.777698516845703 -0.21742236614227295
10.325718879699707 5.777568340301514 -0.21658650040626526
10.283781051635742 5.782156944274902 -0.21595783531665802
10.251821517944336 5.792813777923584 -0.2148255705833435
10.213786125183105 5.7995500564575195 -0.21428246796131134
10.168415069580078 5.801724910736084 -0.21358360350131989
10.139010429382324 5.813693523406982 -0.212513267993927
10.091192245483398 5.81413459777832 -0.21176275610923767
10.045162200927734 5.815412998199463 -0.21104931831359863
10.020736694335938 5.829888343811035 -0.21059942245483398
9.97403621673584 5.830455780029297 -0.20936338603496552
9.90581226348877 5.846685886383057 -0.20844711363315582
9.860639572143555 5.847649574279785 -0.20705008506774902
9.829109191894531 5.857368469238281 -0.2066517025232315
9.781747817993164 5.856687545776367 -0.2059110701084137
9.751728057861328 5.866238594055176 -0.20503565669059753
9.702740669250488 5.865034103393555 -0.20426805317401886
9.672977447509766 5.874485969543457 -0.20370344817638397
9.597888946533203 5.884354114532471 -0.20214788615703583
9.556219100952148 5.88612699508667 -0.20133481919765472
9.526748657226562 5.896083831787109 -0.2004864513874054
9.487259864807129 5.898908615112305 -0.19991306960582733
9.450974464416504 5.90357780456543 -0.19921453297138214
9.418052673339844 5.911020278930664 -0.1982981413602829
9.382484436035156 5.915871620178223 -0.19780787825584412
9.353435516357422 5.925518989562988 -0.19727148115634918
9.307380676269531 5.9234442710876465 -0.19607429206371307
9.267195701599121 5.924925804138184 -0.19548575580120087
9.238319396972656 5.9343037605285645 -0.19495615363121033
9.205999374389648 5.940566539764404 -0.1940537691116333
9.171953201293945 5.945591926574707 -0.19359463453292847
9.142672538757324 5.954387664794922 -0.1930583417415619
9.106369018554688 5.957693576812744 -0.19207513332366943
9.074122428894043 5.964317321777344 -0.19166259467601776
9.032832145690918 5.964057445526123 -0.19086503982543945
8.993474006652832 5.964906692504883 -0.18982088565826416
8.959242820739746 5.9698004722595215 -0.18936815857887268
8.923807144165039 5.972966194152832 -0.18869562447071075
8.890321731567383 5.977526664733887 -0.18796585500240326
8.859500885009766 5.984103679656982 -0.18692921102046967
8.821008682250977 5.984798908233643 -0.18637852370738983
8.7896728515625 5.990998268127441 -0.18551981449127197
8.759102821350098 5.996820449829102 -0.18495434522628784
8.728907585144043 6.002790451049805 -0.18457980453968048
8.690788269042969 6.003962516784668 -0.18339915573596954
8.668421745300293 6.015122890472412 -0.18319013714790344
8.63109302520752 6.016576766967773 -0.18267226219177246
8.604108810424805 6.024336338043213 -0.18172509968280792
8.5564603805542 6.017473220825195 -0.18098130822181702
8.531654357910156 6.027308940887451 -0.18072858452796936
8.506402015686035 6.035970687866211 -0.17982183396816254
8.469518661499023 6.036263465881348 -0.17930656671524048
8.438916206359863 6.041679382324219 -0.17847608029842377
8.392553329467773 6.0348687171936035 -0.17758247256278992
8.337719917297363 6.0488715171813965 -0.1763303577899933
8.308135032653809 6.053762912750244 -0.17597027122974396
8.287020683288574 6.06552267074585 -0.1757975071668625
8.256003379821777 6.06917142868042 -0.17478036880493164
8.193927764892578 6.076859951019287 -0.1735590696334839
8.169532775878906 6.085086345672607 -0.1731344759464264
8.112963676452637 6.096242427825928 -0.17203304171562195
8.071426391601562 6.091277599334717 -0.1709764301776886
8.044273376464844 6.097801208496094 -0.1706768125295639
8.0051851272583 6.0943708419799805 -0.1699424386024475
7.974844455718994 6.097455024719238 -0.16912630200386047
7.949644088745117 6.105141639709473 -0.16869565844535828
7.913787841796875 6.103754043579102 -0.16820316016674042
7.902960300445557 6.122373580932617 -0.1678122729063034
7.8633270263671875 6.117823123931885 -0.16706840693950653
7.839625358581543 6.125541687011719 -0.16639840602874756
7.812343597412109 6.131147384643555 -0.16592621803283691
7.779144287109375 6.131221771240234 -0.1654907613992691
7.739196300506592 6.125815391540527 -0.1644783318042755
7.724945068359375 6.141421318054199 -0.16428406536579132
7.685418605804443 6.136070251464844 -0.16328276693820953
7.668394088745117 6.14934778213501 -0.16303065419197083
7.640013694763184 6.152682304382324 -0.1622682511806488
7.601988792419434 6.1481099128723145 -0.1617312729358673
7.581397533416748 6.158291816711426 -0.16140440106391907
7.549736976623535 6.158623218536377 -0.16057519614696503
7.529400825500488 6.168316841125488 -0.1602494865655899
7.504794120788574 6.174780368804932 -0.1595776379108429
7.465487480163574 6.168464660644531 -0.15884721279144287
7.449049949645996 6.181707382202148 -0.1591109335422516
7.404306888580322 6.170567989349365 -0.15784016251564026
7.385869026184082 6.181219577789307 -0.15729811787605286
7.366262912750244 6.191617012023926 -0.15699589252471924
7.333346366882324 6.189964771270752 -0.1561465561389923
7.299318313598633 6.187993049621582 -0.15570366382598877
7.2877607345581055 6.204233169555664 -0.155146524310112
7.253170967102051 6.20079231262207 -0.15468433499336243
7.229599475860596 6.207421779632568 -0.15429991483688354
7.201178550720215 6.209026336669922 -0.15355080366134644
7.175482273101807 6.21287727355957 -0.15311461687088013
7.136686325073242 6.2060112953186035 -0.15215528011322021
7.125689506530762 6.222464084625244 -0.15219508111476898
7.096468925476074 6.222951889038086 -0.15127040445804596
7.060446262359619 6.218092918395996 -0.15078617632389069
7.0416154861450195 6.227503776550293 -0.15049706399440765
7.017020225524902 6.232517242431641 -0.14984481036663055
6.980274677276611 6.225839614868164 -0.14917418360710144
6.965800762176514 6.23893404006958 -0.1487317681312561
6.951879024505615 6.253280162811279 -0.1485576331615448
6.9185943603515625 6.249362945556641 -0.14771458506584167
6.866781711578369 6.255277633666992 -0.1466028094291687
6.842383861541748 6.259083271026611 -0.14635828137397766
6.818818092346191 6.264334201812744 -0.1458941400051117
6.794276714324951 6.267838001251221 -0.14548785984516144
6.763652324676514 6.265615940093994 -0.144705668091774
6.745630264282227 6.275751113891602 -0.1446070373058319
6.709944725036621 6.26857852935791 -0.1435600221157074
6.687984943389893 6.274872779846191 -0.14337635040283203
6.668143272399902 6.2823262214660645 -0.1426701545715332
6.642665863037109 6.284395217895508 -0.14240573346614838
6.616587162017822 6.286561965942383 -0.14197590947151184
6.592437267303467 6.289699554443359 -0.14133872091770172
6.5664591789245605 6.290996074676514 -0.14090563356876373
6.543697357177734 6.296052932739258 -0.14030633866786957
6.532006740570068 6.31096076965332 -0.14017969369888306
6.5072760581970215 6.313446521759033 -0.1395338773727417
6.471365928649902 6.305281639099121 -0.13889557123184204
6.451694965362549 6.312268257141113 -0.13835856318473816
6.428442478179932 6.316451549530029 -0.13799382746219635
6.398132801055908 6.3128204345703125 -0.1372295618057251
6.3734307289123535 6.314820766448975 -0.13682928681373596
6.354701519012451 6.323003768920898 -0.13632084429264069
6.332587718963623 6.327207565307617 -0.13612738251686096
6.308084487915039 6.329155445098877 -0.1353391706943512
6.283803939819336 6.331571102142334 -0.13510660827159882
6.257735252380371 6.33152961730957 -0.1346757560968399
6.235394477844238 6.335939884185791 -0.13424848020076752
6.212240219116211 6.33867073059082 -0.1338803619146347
6.18414306640625 6.336251258850098 -0.1331709325313568
6.160690784454346 6.339258193969727 -0.13280421495437622
6.150945663452148 6.355566501617432 -0.13249105215072632
6.123844146728516 6.354671478271484 -0.13204747438430786
6.092851638793945 6.3488264083862305 -0.13127750158309937
6.077098846435547 6.358773231506348 -0.1310698539018631
6.06620979309082 6.374587059020996 -0.13074298202991486
6.0310258865356445 6.364007949829102 -0.13011878728866577
6.0053300857543945 6.363289833068848 -0.12946435809135437
5.988460063934326 6.3726325035095215 -0.12924274802207947
5.96075963973999 6.3695902824401855 -0.12854963541030884
5.92958402633667 6.390006065368652 -0.1279224008321762
5.896341800689697 6.380687713623047 -0.1273423582315445
5.8717803955078125 6.381403923034668 -0.12672586739063263
5.85617733001709 6.391014099121094 -0.1265251338481903
5.814825057983398 6.399786949157715 -0.12568485736846924
5.7865190505981445 6.395247936248779 -0.12498253583908081
5.754720687866211 6.4141950607299805 -0.12435032427310944
5.729783058166504 6.41312313079834 -0.12395128607749939
5.701009273529053 6.408419609069824 -0.12362590432167053
5.68083381652832 6.4124884605407715 -0.1231008842587471
5.672776222229004 6.430228233337402 -0.1230669766664505
5.640576362609863 6.421327114105225 -0.12229157984256744
5.618442058563232 6.422962188720703 -0.12195433676242828
5.598816394805908 6.428184509277344 -0.12145033478736877
5.582465648651123 6.436331748962402 -0.12123915553092957
5.563287734985352 6.4411773681640625 -0.12073907256126404
5.538971900939941 6.440786361694336 -0.12036432325839996
5.5095601081848145 6.433544158935547 -0.11964385211467743
5.491410732269287 6.4393510818481445 -0.1193937212228775
5.47044038772583 6.442584991455078 -0.11886696517467499
5.455060958862305 6.45156192779541 -0.11867731809616089
5.433889389038086 6.453862190246582 -0.11799575388431549
5.419739723205566 6.4648118019104 -0.11761541664600372
5.3911638259887695 6.45789909362793 -0.11714182794094086
5.368218898773193 6.458408355712891 -0.1165754646062851
5.351639747619629 6.4657111167907715 -0.11636103689670563
5.3259663581848145 6.4621734619140625 -0.11573031544685364
5.304837703704834 6.4643988609313965 -0.11542417109012604
5.290491580963135 6.474268436431885 -0.11503779888153076
5.267542839050293 6.473782539367676 -0.11468859761953354
5.2474188804626465 6.4770379066467285 -0.11418286710977554
5.23012113571167 6.483147144317627 -0.11395552009344101
5.211012840270996 6.487772464752197 -0.11384144425392151
5.183650970458984 6.481208801269531 -0.11303096264600754
5.1721954345703125 6.494470119476318 -0.11307336390018463
5.148330211639404 6.492918968200684 -0.1123499721288681
5.130209445953369 6.497716903686523 -0.11224876344203949
5.108404159545898 6.498594284057617 -0.11157026886940002
5.089942932128906 6.502839088439941 -0.1109570562839508
5.06494140625 6.4986371994018555 -0.11070545762777328
5.051051139831543 6.509448051452637 -0.11020256578922272
5.019311904907227 6.496334552764893 -0.10980594158172607
5.005876064300537 6.506808280944824 -0.10930538177490234
4.987648010253906 6.511852264404297 -0.10920979827642441
4.9648027420043945 6.509965896606445 -0.1085062175989151
4.931082725524902 6.5225372314453125 -0.10786984860897064
4.909588813781738 6.522197246551514 -0.10719765722751617
4.899184226989746 6.537393569946289 -0.10727418214082718
4.872857093811035 6.530459403991699 -0.10649661719799042
4.857781410217285 6.538520336151123 -0.10646291077136993
4.826661586761475 6.525708198547363 -0.10559186339378357
4.811466693878174 6.533480644226074 -0.10555514693260193
4.776432991027832 6.543443202972412 -0.10440106689929962
4.759687900543213 6.548998832702637 -0.10433142632246017
4.742742538452148 6.555082321166992 -0.1041271984577179
4.719476699829102 6.551510810852051 -0.10377618670463562
4.706127166748047 6.561648368835449 -0.10342742502689362
4.684201717376709 6.560626029968262 -0.10276219248771667
4.67366886138916 6.574681282043457 -0.10282988846302032
4.6501336097717285 6.570643901824951 -0.10212327539920807
4.627612590789795 6.568294525146484 -0.10193397104740143
4.601760387420654 6.560473442077637 -0.10117530822753906
4.584663391113281 6.565889358520508 -0.10061807185411453
4.571656227111816 6.576292991638184 -0.10063204169273376
4.546826362609863 6.56962251663208 -0.09989802539348602
4.5262932777404785 6.569903373718262 -0.09975500404834747
4.515648365020752 6.583653450012207 -0.0993339940905571
4.490955352783203 6.576870918273926 -0.09895321726799011
4.477411270141602 6.587207794189453 -0.09861578792333603
4.462732315063477 6.595008850097656 -0.09810739010572433
4.447011947631836 6.602119445800781 -0.0980713814496994
4.423454284667969 6.596647262573242 -0.09736938774585724
4.4061279296875 6.600379467010498 -0.09715194255113602
4.390230655670166 6.6070876121521 -0.09676419198513031
4.366458415985107 6.600987911224365 -0.09605933725833893
4.346014022827148 6.6000518798828125 -0.09591393172740936
4.328693389892578 6.604172706604004 -0.09535831212997437
4.308135032653809 6.602652549743652 -0.0950712040066719
4.297500133514404 6.616562366485596 -0.09500548243522644
4.276195526123047 6.614402770996094 -0.0944988951086998
4.262292385101318 6.623001575469971 -0.0943598747253418
4.245089054107666 6.627337455749512 -0.09394719451665878
4.223830699920654 6.62437629699707 -0.09330139309167862
4.2047858238220215 6.624794006347656 -0.09304897487163544
4.183917999267578 6.623145580291748 -0.0925566628575325
4.167523384094238 6.627612590789795 -0.09236293286085129
4.147487640380859 6.627124786376953 -0.0917554572224617
4.129253387451172 6.628537654876709 -0.09131339192390442
4.111995697021484 6.631458759307861 -0.09110214561223984
4.095088958740234 6.635802745819092 -0.09069938212633133
4.075345516204834 6.634576797485352 -0.09043309837579727
4.060654163360596 6.641523838043213 -0.0899372547864914
4.0361433029174805 6.633232593536377 -0.08936774730682373
4.027416229248047 6.649927139282227 -0.08934608846902847
4.005734443664551 6.645208835601807 -0.08883116394281387
3.989089012145996 6.649682998657227 -0.08864298462867737
3.9757280349731445 6.658695697784424 -0.08817968517541885
3.949838876724243 6.647557735443115 -0.08758127689361572
3.942068099975586 6.665939807891846 -0.08758220076560974
3.918205738067627 6.6570820808410645 -0.08688744902610779
3.8956732749938965 6.651261329650879 -0.08636507391929626
3.8781051635742188 6.652886390686035 -0.086148701608181
3.869511842727661 6.6701836585998535 -0.08613467216491699
3.844674587249756 6.659843444824219 -0.08542633056640625
5.743277549743652 -10.864230155944824 -0.09814275801181793
5.788143634796143 -10.838379859924316 -0.09908919781446457
5.807055473327637 -10.819697380065918 -0.09956735372543335
5.8562116622924805 -10.801862716674805 -0.10037889331579208
5.960943222045898 -10.83195972442627 -0.10197269916534424
6.046655654907227 -10.826025009155273 -0.1043303832411766
6.13569450378418 -10.82502269744873 -0.10544955730438232
7.0700273513793945 -10.774266242980957 -0.12314870208501816
7.161211013793945 -10.765069961547852 -0.12513378262519836
7.260969638824463 -10.767622947692871 -0.12670758366584778
7.295207500457764 -10.770113945007324 -0.12748563289642334
7.356692314147949 -10.762986183166504 -0.1285613477230072
7.420992374420166 -10.759510040283203 -0.129691019654274
7.45963191986084 -10.767654418945312 -0.1311240941286087
7.515206336975098 -10.750868797302246 -0.1323302537202835
7.557338237762451 -10.763503074645996 -0.1326785385608673
8.817031860351562 -10.687568664550781 -0.15705932676792145
8.883882522583008 -10.676684379577637 -0.1582956165075302
8.920561790466309 -10.675628662109375 -0.15855392813682556
8.989962577819824 -10.667060852050781 -0.15983916819095612
9.034153938293457 -10.674463272094727 -0.16108429431915283
9.107597351074219 -10.669792175292969 -0.1628216654062271
9.334163665771484 -10.660812377929688 -0.16705720126628876
9.356303215026855 -10.641460418701172 -0.16767899692058563
9.431163787841797 -10.635939598083496 -0.16908428072929382
9.557476997375488 -10.64284896850586 -0.1712654083967209
9.663447380065918 -10.625715255737305 -0.1734706461429596
9.790289878845215 -10.629220962524414 -0.17566713690757751
15.954601287841797 2.4655139446258545 -0.1841074526309967
15.915943145751953 2.493645191192627 -0.1837199181318283
15.916752815246582 2.5283432006835938 -0.18379104137420654
15.88691234588623 2.5574145317077637 -0.18350744247436523
15.876296997070312 2.5905117988586426 -0.1834491789340973
15.869192123413086 2.6231727600097656 -0.18315565586090088
15.86819076538086 2.657843828201294 -0.18320858478546143
15.84455394744873 2.687699317932129 -0.18354687094688416
15.8277006149292 2.7186436653137207 -0.18341660499572754
15.81634521484375 2.7514898777008057 -0.1833515763282776
15.818199157714844 2.785644054412842 -0.18343916535377502
15.78147029876709 2.812953472137451 -0.18308112025260925
15.767659187316895 2.8452584743499756 -0.18299153447151184
15.758405685424805 2.8773679733276367 -0.18295244872570038
15.72535514831543 2.9398205280303955 -0.18271327018737793
15.736041069030762 2.975628137588501 -0.18290579319000244
15.715070724487305 3.0064480304718018 -0.18273653090000153
15.691344261169434 3.035676956176758 -0.18253552913665771
15.674335479736328 3.1009247303009033 -0.18178384006023407
15.654285430908203 3.1307291984558105 -0.18135608732700348
15.639262199401855 3.162484645843506 -0.18125849962234497
15.620193481445312 3.192383289337158 -0.18111562728881836
15.61874008178711 3.2258665561676025 -0.18117496371269226
15.60720443725586 3.2582616806030273 -0.1811206042766571
15.592845916748047 3.289047956466675 -0.18103350698947906
15.561786651611328 3.317234754562378 -0.18075454235076904
15.556838989257812 3.349945545196533 -0.18077753484249115
15.543987274169922 3.380946159362793 -0.18070939183235168
15.530866622924805 3.4128551483154297 -0.1806412637233734
15.515732765197754 3.443297863006592 -0.18081922829151154
15.51597785949707 3.4771523475646973 -0.1816050410270691
15.475625991821289 3.5028460025787354 -0.18122202157974243
15.461071014404297 3.5332961082458496 -0.18044023215770721
15.444036483764648 3.5641355514526367 -0.18032774329185486
15.439579010009766 3.5968692302703857 -0.18036329746246338
15.421855926513672 3.626497268676758 -0.18024389445781708
15.39907455444336 3.655872344970703 -0.1800685077905655
15.396560668945312 3.6890439987182617 -0.18012849986553192
15.37362289428711 3.7175774574279785 -0.17968234419822693
15.35936164855957 3.748599052429199 -0.17960697412490845
15.344467163085938 3.7787201404571533 -0.17952461540699005
15.333600997924805 3.810089349746704 -0.1794901043176651
15.324451446533203 3.8423142433166504 -0.17878523468971252
15.301416397094727 3.8703060150146484 -0.1786089837551117
15.293670654296875 3.9031267166137695 -0.17861303687095642
15.277216911315918 3.932713508605957 -0.17851653695106506
15.276655197143555 3.9673852920532227 -0.17860794067382812
15.249356269836426 3.994093894958496 -0.17811709642410278
15.24867057800293 4.02774715423584 -0.1782056987285614
15.230286598205566 4.057716369628906 -0.17809399962425232
15.205209732055664 4.084847450256348 -0.17789843678474426
15.185565948486328 4.113376140594482 -0.17707616090774536
15.201606750488281 4.152599334716797 -0.17736408114433289
15.164630889892578 4.176335334777832 -0.17703577876091003
15.152534484863281 4.207849502563477 -0.17838290333747864
15.153217315673828 4.241929054260254 -0.17849409580230713
15.133262634277344 4.270228385925293 -0.17836281657218933
15.123841285705566 4.302471160888672 -0.17835965752601624
15.111568450927734 4.332897186279297 -0.17832016944885254
15.064506530761719 4.388145446777344 -0.1770244538784027
15.051671981811523 4.418313026428223 -0.1769801378250122
15.051963806152344 4.45334529876709 -0.17709439992904663
15.036627769470215 4.482765197753906 -0.1770244538784027
15.022787094116211 4.512605667114258 -0.1769716739654541
15.002650260925293 4.541520118713379 -0.17684881389141083
14.995552062988281 4.573363304138184 -0.1761857271194458
14.989900588989258 4.606662750244141 -0.1762356162071228
14.986679077148438 4.639731407165527 -0.1760418564081192
14.9525146484375 4.663180351257324 -0.1757541447877884
14.946391105651855 4.696328639984131 -0.17580021917819977
14.935901641845703 4.727109909057617 -0.17579197883605957
14.918073654174805 4.755548477172852 -0.17569737136363983
14.90158462524414 4.785384178161621 -0.17493587732315063
14.89945125579834 4.8188300132751465 -0.1750270128250122
14.875804901123047 4.84630823135376 -0.17460349202156067
14.86760139465332 4.877786636352539 -0.17462566494941711
14.86839485168457 4.9122467041015625 -0.17475348711013794
14.819276809692383 4.931156158447266 -0.17567379772663116
14.827661514282227 4.968147277832031 -0.17589503526687622
14.802783966064453 4.994285583496094 -0.17503774166107178
14.797507286071777 5.0274577140808105 -0.17509925365447998
14.77067756652832 5.052556991577148 -0.17463968694210052
14.78570556640625 5.0930047035217285 -0.1749451458454132
14.764692306518555 5.120065689086914 -0.17482206225395203
14.736273765563965 5.144493579864502 -0.174611434340477
14.747976303100586 5.183950424194336 -0.17419473826885223
14.702543258666992 5.2022857666015625 -0.17378517985343933
14.699308395385742 5.236500263214111 -0.17361107468605042
14.666468620300293 5.259125232696533 -0.1733522117137909
14.643424987792969 5.285183429718018 -0.1732093095779419
14.63296127319336 5.316765308380127 -0.1732194572687149
14.66995906829834 5.364696502685547 -0.17310136556625366
14.60464859008789 5.375199317932129 -0.17219707369804382
14.577597618103027 5.400630474090576 -0.17201364040374756
14.580618858337402 5.436187267303467 -0.17218168079853058
14.567232131958008 5.466668605804443 -0.17216113209724426
14.546579360961914 5.493383407592773 -0.17136886715888977
14.531261444091797 5.52208137512207 -0.17132264375686646
14.535593032836914 5.559292793273926 -0.17124709486961365
14.537494659423828 5.59462833404541 -0.17140603065490723
14.506887435913086 5.653106689453125 -0.17174199223518372
14.497834205627441 5.684261322021484 -0.1717740297317505
14.437454223632812 5.696200370788574 -0.1712014377117157
14.378168106079102 5.707320213317871 -0.16995978355407715
14.317288398742676 5.717574596405029 -0.16911569237709045
14.249138832092285 5.725683689117432 -0.16845500469207764
14.181100845336914 5.732553482055664 -0.16779062151908875
14.114090919494629 5.740572929382324 -0.16714245080947876
14.064678192138672 5.754519462585449 -0.16603140532970428
13.987651824951172 5.756919860839844 -0.16500338912010193
13.91466236114502 5.761669635772705 -0.16428683698177338
13.857342720031738 5.771651744842529 -0.16375133395195007
13.801345825195312 5.7819671630859375 -0.16257444024085999
13.737213134765625 5.789626121520996 -0.1619642972946167
13.66940689086914 5.794483661651611 -0.16105131804943085
13.600754737854004 5.799688339233398 -0.16038817167282104
13.545600891113281 5.809420108795166 -0.15987953543663025
13.475614547729492 5.81254243850708 -0.1585516482591629
13.423555374145508 5.824129581451416 -0.15783406794071198
13.354164123535156 5.826981544494629 -0.1571597158908844
13.305118560791016 5.83875036239624 -0.15672580897808075
13.234691619873047 5.84132194519043 -0.15540727972984314
13.189976692199707 5.854320049285889 -0.15502452850341797
13.125497817993164 5.859296798706055 -0.1541667878627777
13.078608512878418 5.870944023132324 -0.15414106845855713
13.004044532775879 5.869926452636719 -0.15340563654899597
12.95637321472168 5.881757736206055 -0.15236732363700867
12.90045166015625 5.8886895179748535 -0.1518530696630478
12.844345092773438 5.895999908447266 -0.15133878588676453
12.781553268432617 5.8995866775512695 -0.15050292015075684
12.746808052062988 5.915667533874512 -0.1496208906173706
12.676009178161621 5.9157538414001465 -0.14893753826618195
12.624914169311523 5.923844814300537 -0.1484815925359726
12.56696605682373 5.928506374359131 -0.14770573377609253
12.525213241577148 5.941554069519043 -0.14675576984882355
12.458918571472168 5.94180965423584 -0.1461235135793686
12.40683650970459 5.948604583740234 -0.14565706253051758
12.353805541992188 5.955669403076172 -0.14494836330413818
12.313555717468262 5.9677886962890625 -0.14401987195014954
12.252458572387695 5.9705328941345215 -0.14345447719097137
12.217741012573242 5.98502254486084 -0.14319312572479248
12.1575345993042 5.986844539642334 -0.14239969849586487
12.1078519821167 5.994550704956055 -0.14137528836727142
12.050907135009766 5.997527122497559 -0.1408548355102539
11.952258110046387 6.011367321014404 -0.13976627588272095
11.894683837890625 6.013370513916016 -0.1386547088623047
11.857501983642578 6.026411533355713 -0.1381433755159378
11.802886962890625 6.029507637023926 -0.13823291659355164
11.75783920288086 6.037293910980225 -0.1372733861207962
11.717972755432129 6.048491477966309 -0.13673122227191925
11.653234481811523 6.045734405517578 -0.13612154126167297
11.607908248901367 6.05372428894043 -0.13516780734062195
11.549079895019531 6.053563117980957 -0.13440489768981934
11.509344100952148 6.063214302062988 -0.1340881884098053
11.463600158691406 6.070436000823975 -0.13370731472969055
11.422323226928711 6.078962802886963 -0.13280488550662994
11.367423057556152 6.080049514770508 -0.13209176063537598
11.32872200012207 6.090509414672852 -0.13179196417331696
11.27095890045166 6.089638710021973 -0.13070502877235413
11.229698181152344 6.0983734130859375 -0.1301579773426056
11.188285827636719 6.105983257293701 -0.12982650101184845
11.156798362731934 6.1188812255859375 -0.12960706651210785
11.089838027954102 6.113009452819824 -0.12842389941215515
11.050971984863281 6.12152099609375 -0.12790441513061523
10.995550155639648 6.120923042297363 -0.12741108238697052
10.957319259643555 6.130091190338135 -0.12656819820404053
10.91288948059082 6.135003566741943 -0.12598539888858795
10.871354103088379 6.142253398895264 -0.1256573349237442
10.829771995544434 6.14844274520874 -0.12532389163970947
10.787796020507812 6.1542487144470215 -0.12444110214710236
10.738561630249023 6.156603813171387 -0.12381136417388916
10.697936058044434 6.162845611572266 -0.12349111586809158
10.647614479064941 6.164188385009766 -0.12284991145133972
10.604687690734863 6.168755054473877 -0.12196406722068787
10.562729835510254 6.173719882965088 -0.1216287836432457
10.515800476074219 6.17646598815918 -0.1212390586733818
10.468371391296387 6.177862644195557 -0.1200987845659256
10.444512367248535 6.1930413246154785 -0.11997213959693909
10.399890899658203 6.196649551391602 -0.11961140483617783
10.365692138671875 6.205455780029297 -0.11862820386886597
10.307775497436523 6.200733184814453 -0.11811600625514984
10.270779609680176 6.2075419425964355 -0.11784090101718903
10.228511810302734 6.211012363433838 -0.11677303910255432
10.192712783813477 6.219115257263184 -0.11651574075222015
10.152322769165039 6.223419189453125 -0.11620159447193146
10.066536903381348 6.22930908203125 -0.11479675769805908
10.041425704956055 6.242623805999756 -0.11465803533792496
9.99454116821289 6.243117809295654 -0.1135542243719101
9.95456314086914 6.24690055847168 -0.1132466197013855
9.926019668579102 6.2577362060546875 -0.11307141184806824
9.884162902832031 6.260895729064941 -0.11203151196241379
9.835250854492188 6.258550643920898 -0.11162363737821579
9.795198440551758 6.262501239776611 -0.11132049560546875
9.760774612426758 6.269065856933594 -0.11056960374116898
9.716663360595703 6.269254207611084 -0.11021556705236435
9.68129825592041 6.275767803192139 -0.10976871848106384
9.651514053344727 6.284943580627441 -0.10907408595085144
9.603972434997559 6.282405853271484 -0.1086834967136383
9.573671340942383 6.291828155517578 -0.10829555988311768
9.532966613769531 6.293442726135254 -0.10748139023780823
9.505459785461426 6.3042449951171875 -0.1073213592171669
9.457904815673828 6.301239013671875 -0.10673811286687851
9.419244766235352 6.303744316101074 -0.10595133155584335
9.374844551086426 6.3030686378479 -0.10560342669487
9.356186866760254 6.318756103515625 -0.10534612834453583
9.302844047546387 6.310879707336426 -0.10439977049827576
9.284832000732422 6.32766580581665 -0.10435027629137039
9.239069938659668 6.324596881866455 -0.10329871624708176
9.211446762084961 6.334033966064453 -0.10313880443572998
9.171981811523438 6.335564136505127 -0.10265476256608963
9.140946388244629 6.342186450958252 -0.1019667312502861
9.105240821838379 6.346270561218262 -0.10171987116336823
9.066646575927734 6.3473663330078125 -0.10124501585960388
9.023429870605469 6.345054626464844 -0.10042595863342285
8.999143600463867 6.35675048828125 -0.10030655562877655
8.9669771194458 6.361963272094727 -0.099907286465168
8.929404258728027 6.364025592803955 -0.09915733337402344
8.878352165222168 6.355464458465576 -0.09873640537261963
8.86401081085205 6.373060703277588 -0.0982452929019928
8.816058158874512 6.367196559906006 -0.09738731384277344
