VERSION .7
FIELDS x y z
SIZE 4 4 4
TYPE F F F
COUNT 1 1 1
WIDTH 823
HEIGHT 1
VIEWPOINT 0 0 0 1 0 0 0
POINTS 823
DATA ascii
14.28543472290039 -11.0475492477417 0.020771939307451248
14.395956039428711 -11.036449432373047 0.020678123459219933
14.446335792541504 -11.027314186096191 0.019794031977653503
14.514876365661621 -11.03087329864502 0.01985592395067215
14.565023422241211 -11.021376609802246 0.019892938435077667
14.63110065460205 -11.023469924926758 0.019951628521084785
14.679197311401367 -11.010862350463867 0.018867775797843933
14.739374160766602 -11.008278846740723 0.018915437161922455
14.78890609741211 -10.99730110168457 0.018948812037706375
14.842822074890137 -10.988466262817383 0.018991025164723396
14.899288177490234 -10.982479095458984 0.02166358008980751
14.96851634979248 -10.984234809875488 0.02191779762506485
15.084562301635742 -10.973128318786621 0.02107551321387291
15.139755249023438 -10.964133262634277 0.021119704470038414
15.2121000289917 -10.968473434448242 0.021187320351600647
15.26235580444336 -10.956405639648438 0.02103409729897976
15.324892044067383 -10.952003479003906 0.021089604124426842
15.384309768676758 -10.946069717407227 0.020178668200969696
15.509913444519043 -10.937583923339844 0.020284151658415794
15.565366744995117 -10.928156852722168 0.020132677629590034
15.715629577636719 -10.935373306274414 0.019292930141091347
15.895248413085938 -10.912691116333008 0.019229650497436523
16.08694076538086 -10.896134376525879 0.01839442551136017
16.27255630493164 -10.873013496398926 0.017332350835204124
16.479846954345703 -10.861088752746582 0.021691467612981796
16.679935455322266 -10.843167304992676 0.021661199629306793
16.896528244018555 -10.833471298217773 0.020628023892641068
17.016498565673828 -10.809539794921875 0.020720556378364563
17.087982177734375 -10.805244445800781 0.02077905833721161
17.23005485534668 -10.793774604797363 0.019655054435133934
17.3066463470459 -10.791810989379883 0.019717933610081673
17.372678756713867 -10.782732963562012 0.0197658259421587
17.443029403686523 -10.775096893310547 0.018778495490550995
17.506954193115234 -10.764455795288086 0.018823672086000443
17.5887508392334 -10.763038635253906 0.018676383420825005
17.7214298248291 -10.743391036987305 0.01876908354461193
17.792293548583984 -10.734441757202148 0.01776287890970707
17.829097747802734 -10.706243515014648 0.017776329070329666
17.8577880859375 -10.673113822937012 0.01756923645734787
17.881502151489258 -10.635507583618164 0.017570704221725464
17.901527404785156 -10.597189903259277 0.02095266431570053
17.946781158447266 -10.522162437438965 0.020953861996531487
17.976484298706055 -10.489511489868164 0.02096310257911682
18.00068473815918 -10.452150344848633 0.019907549023628235
18.01641845703125 -10.41135311126709 0.019688451662659645
18.03643798828125 -10.373052597045898 0.019686900079250336
18.05916404724121 -10.334847450256348 0.019687779247760773
18.068675994873047 -10.29057502746582 0.019674379378557205
18.076702117919922 -10.245522499084473 0.01860469952225685
18.089950561523438 -10.202035903930664 0.0183840561658144
18.106916427612305 -10.16213607788086 0.01837936043739319
18.148386001586914 -10.0851411819458 0.01837838441133499
18.168663024902344 -10.047119140625 0.01732255518436432
18.18729591369629 -9.957637786865234 0.01708937995135784
18.246078491210938 -9.841240882873535 0.016032392159104347
18.479883193969727 -9.373940467834473 0.016653703525662422
18.526424407958984 -9.251575469970703 0.015590803697705269
18.623703002929688 -9.154333114624023 0.014357481151819229
18.61034393310547 -9.002948760986328 0.014091343618929386
18.6336727142334 -8.966564178466797 0.014095176011323929
18.647706985473633 -8.924306869506836 0.014091214165091515
18.675214767456055 -8.889888763427734 0.013047765009105206
18.69580078125 -8.850982666015625 0.013048223219811916
18.722579956054688 -8.815912246704102 0.01305414829403162
18.722307205200195 -8.768362998962402 0.012829863466322422
18.744295120239258 -8.729886054992676 0.012832308188080788
18.75132179260254 -8.6858491897583 0.01156331691890955
18.77196502685547 -8.648143768310547 0.011564955115318298
18.79340362548828 -8.60939884185791 0.011566885747015476
18.80879020690918 -8.569270133972168 0.010515580885112286
18.838293075561523 -8.534395217895508 0.010521608404815197
18.840984344482422 -8.441312789916992 0.010292359627783298
18.85692024230957 -8.400361061096191 0.010291299782693386
18.8736515045166 -8.360687255859375 0.010290876030921936
18.89996337890625 -8.325468063354492 0.009246662259101868
18.905567169189453 -8.27975845336914 0.009240996092557907
18.9299259185791 -8.243651390075684 0.009244104847311974
18.930835723876953 -8.197354316711426 0.009025167673826218
18.95684051513672 -8.16057014465332 0.009029369801282883
18.976299285888672 -8.12231159210205 0.009030435234308243
18.996213912963867 -8.036348342895508 0.007976156659424305
19.036514282226562 -8.00686264038086 0.007986037991940975
19.242706298828125 -7.11313533782959 -0.0006219556089490652
19.23832130432129 -7.019566059112549 -0.0006207767874002457
19.247194290161133 -6.977578163146973 -0.0006203199154697359
19.250986099243164 -6.887362957000732 -0.0016573326429352164
19.228984832763672 -6.834512710571289 -0.0018640985945239663
19.191389083862305 -6.730252265930176 -0.00185688235796988
19.206249237060547 -6.6896443367004395 -0.0018574765417724848
19.127103805541992 -6.572970867156982 -0.008631277829408646
19.1407470703125 -6.532194137573242 -0.008629975840449333
19.183155059814453 -6.502033710479736 -0.009676352143287659
19.140962600708008 -6.443479061126709 -0.009642962366342545
19.184898376464844 -6.412891864776611 -0.00966179370880127
19.17413902282715 -6.364873886108398 -0.009646452963352203
19.213314056396484 -6.333642959594727 -0.009662212803959846
19.241146087646484 -6.297279357910156 -0.009876825846731663
19.24422836303711 -6.2541046142578125 -0.0108995595946908
19.249544143676758 -6.2106170654296875 -0.010892301797866821
19.25847053527832 -6.169183254241943 -0.010892143473029137
19.275129318237305 -6.130444526672363 -0.010893065482378006
19.287822723388672 -6.089359760284424 -0.010894399136304855
19.298416137695312 -6.048475742340088 -0.010893655009567738
19.312335968017578 -6.008852958679199 -0.012128048576414585
19.317102432250977 -5.965322494506836 -0.012122713960707188
19.33929443359375 -5.92802619934082 -0.012129555456340313
19.3046875 -5.784908771514893 -0.012082508765161037
19.361221313476562 -5.013235569000244 -0.023171233013272285
19.379600524902344 -4.888202667236328 -0.02315269596874714
19.374954223632812 -4.757681846618652 -0.02311786822974682
19.41006851196289 -4.679720878601074 -0.02435227483510971
19.412979125976562 -4.637816429138184 -0.030421357601881027
19.421419143676758 -4.553459167480469 -0.030811890959739685
19.438533782958984 -4.513895034790039 -0.03082604706287384
19.401655197143555 -4.420337677001953 -0.03194431588053703
19.425457000732422 -4.382339954376221 -0.031974125653505325
19.433225631713867 -4.341732025146484 -0.03197387605905533
19.432714462280273 -4.299088478088379 -0.03195641562342644
19.440446853637695 -4.257466793060303 -0.03195590153336525
19.458023071289062 -4.218809604644775 -0.03197192773222923
19.448535919189453 -4.174515247344971 -0.03193870186805725
19.445348739624023 -4.130606174468994 -0.031918831169605255
19.44704818725586 -4.088600158691406 -0.03311762586236
19.452129364013672 -4.046505451202393 -0.033114515244960785
19.450292587280273 -4.004031658172607 -0.033095501363277435
19.469554901123047 -3.965691089630127 -0.033115968108177185
19.48252296447754 -3.882951259613037 -0.03311127796769142
19.47247314453125 -3.83895206451416 -0.033077485859394073
19.49655532836914 -3.758470058441162 -0.03430633619427681
19.490617752075195 -3.6303939819335938 -0.03928140178322792
19.587472915649414 -2.76202130317688 -0.04221609607338905
19.613662719726562 -2.640068531036377 -0.045251451432704926
19.572803497314453 -2.509397029876709 -0.04552532732486725
19.583797454833984 -2.468498945236206 -0.045543886721134186
19.582061767578125 -2.384545087814331 -0.046517860144376755
19.575815200805664 -2.342568874359131 -0.04649136960506439
19.569717407226562 -2.3004531860351562 -0.04646342620253563
19.555376052856445 -2.256629705429077 -0.04641566053032875
19.560392379760742 -2.2160861492156982 -0.04641443118453026
19.558265686035156 -2.1745429039001465 -0.046404384076595306
19.567676544189453 -2.1334850788116455 -0.04661471024155617
19.560441970825195 -2.0916309356689453 -0.04658864066004753
19.56773567199707 -2.0090978145599365 -0.047584086656570435
19.573036193847656 -1.968604564666748 -0.047587230801582336
19.579364776611328 -1.8859844207763672 -0.04758445918560028
19.57354164123535 -1.8442330360412598 -0.04755910113453865
19.57921028137207 -1.7618142366409302 -0.04755443334579468
19.56507110595703 -1.719416856765747 -0.047709278762340546
19.58380126953125 -1.638183355331421 -0.04773752763867378
19.585527420043945 -1.514200210571289 -0.04792037978768349
19.51997947692871 -0.6046383380889893 -0.04803143069148064
19.529998779296875 -0.4820757210254669 -0.04804569110274315
19.506366729736328 -0.3993012011051178 -0.047980062663555145
19.50210189819336 -0.3587285280227661 -0.04796260595321655
19.49666404724121 -0.27649742364883423 -0.047949254512786865
19.520374298095703 -0.23631782829761505 -0.04800829291343689
19.504243850708008 -0.15397384762763977 -0.0489531010389328
19.494447708129883 -0.1134401485323906 -0.04912663623690605
19.48357582092285 -0.031322263181209564 -0.04909641668200493
18.010831832885742 0.010073970071971416 -0.07947561889886856
17.979015350341797 0.04736686497926712 -0.08026082813739777
17.99202537536621 0.0858364924788475 -0.08031567186117172
17.99289321899414 0.12318054586648941 -0.08031881600618362
17.97673797607422 0.1605585664510727 -0.08025377988815308
17.977439880371094 0.23610399663448334 -0.07658996433019638
17.969980239868164 0.27348482608795166 -0.0761978030204773
17.96001625061035 0.31153014302253723 -0.07616034150123596
17.979955673217773 0.3492005467414856 -0.07624777406454086
18.01115608215332 0.3873794674873352 -0.076382115483284
18.02443504333496 0.6153892278671265 -0.07646578550338745
18.003625869750977 0.6520862579345703 -0.07638657838106155
18.007925033569336 0.6898451447486877 -0.07733077555894852
18.00288963317871 0.7654126286506653 -0.07749981433153152
18.000850677490234 0.8029330968856812 -0.07749851047992706
18.0124454498291 0.8418281674385071 -0.07755743712186813
18.027223587036133 1.0698204040527344 -0.0776757001876831
18.058887481689453 1.1856721639633179 -0.07488636672496796
18.030550003051758 1.2977004051208496 -0.07480277121067047
17.944921493530273 1.7471503019332886 -0.07460446655750275
17.932931900024414 1.8598605394363403 -0.07552118599414825
17.913589477539062 1.971757411956787 -0.07566886395215988
17.868000030517578 2.0805106163024902 -0.07242451608181
17.825084686279297 2.3793797492980957 -0.07349435240030289
17.820510864257812 2.416419744491577 -0.07349593937397003
17.81454849243164 2.4534523487091064 -0.07349258661270142
17.811960220336914 2.4916975498199463 -0.07350518554449081
17.79486846923828 2.526968002319336 -0.07345627248287201
17.791534423828125 2.565279722213745 -0.0734666958451271
17.793277740478516 2.6032345294952393 -0.07349258661270142
17.792043685913086 2.640777826309204 -0.07351341843605042
17.782238006591797 2.6781582832336426 -0.07349299639463425
17.77789878845215 2.7152462005615234 -0.07350003719329834
17.762224197387695 2.7507667541503906 -0.07345844805240631
17.75633430480957 2.7885262966156006 -0.07345844805240631
17.759380340576172 2.826780080795288 -0.0734933540225029
17.746519088745117 2.862689256668091 -0.07346828281879425
17.736648559570312 2.8998029232025146 -0.07345130294561386
17.742183685302734 2.9385228157043457 -0.07349714636802673
17.725994110107422 2.97383189201355 -0.07345744967460632
17.719112396240234 3.011425495147705 -0.07345548272132874
17.687931060791016 3.082825183868408 -0.07338262349367142
17.669876098632812 3.11747407913208 -0.07333451509475708
17.65775489807129 3.192072629928589 -0.07333999127149582
17.644094467163086 3.227428436279297 -0.07330504804849625
17.633039474487305 3.3401005268096924 -0.07425859570503235
17.60641098022461 3.4498512744903564 -0.07424115389585495
17.466556549072266 3.9974002838134766 -0.0750594213604927
17.450536727905273 4.1093525886535645 -0.07509851455688477
17.424755096435547 4.219071388244629 -0.0751003548502922
17.409395217895508 4.293048858642578 -0.0751107931137085
17.39151954650879 4.32694673538208 -0.07507744431495667
17.38602638244629 4.403413772583008 -0.0751253217458725
17.373308181762695 4.4385786056518555 -0.07511632889509201
17.354578018188477 4.511735916137695 -0.07511673867702484
17.34335708618164 4.547263145446777 -0.07510732114315033
17.30963134765625 4.577017784118652 -0.07500621676445007
17.329864501953125 4.62181282043457 -0.07513721287250519
17.325939178466797 4.659298896789551 -0.07515726238489151
17.319690704345703 4.697316646575928 -0.077006496489048
17.307580947875977 4.732612133026123 -0.07699477672576904
17.297565460205078 4.76847505569458 -0.07699413597583771
17.28773307800293 4.805524826049805 -0.07699581980705261
17.27729034423828 4.841268539428711 -0.07699374854564667
17.245853424072266 4.871269226074219 -0.0769037976861
17.226316452026367 4.905322551727295 -0.07685986906290054
17.222055435180664 4.9427690505981445 -0.07688254117965698
17.217018127441406 4.981156349182129 -0.07690891623497009
17.219558715820312 5.020639419555664 -0.07696443051099777
17.225671768188477 5.06123161315918 -0.07704097032546997
17.203781127929688 5.094749450683594 -0.07699204236268997
17.225318908691406 5.140031337738037 -0.07713301479816437
17.147621154785156 5.1556243896484375 -0.07684193551540375
17.080739974975586 5.175328731536865 -0.07659859955310822
16.98812484741211 5.185781002044678 -0.07623666524887085
16.899484634399414 5.197085380554199 -0.07588482648134232
16.811168670654297 5.209261417388916 -0.07553984224796295
16.721534729003906 5.219542980194092 -0.0751831904053688
16.53728675842285 5.238563537597656 -0.07445605099201202
16.460350036621094 5.251802444458008 -0.07415656745433807
16.275135040283203 5.268329620361328 -0.07342472672462463
16.199230194091797 5.2809224128723145 -0.0748647153377533
14.856879234313965 5.4373345375061035 -0.06935634464025497
14.645259857177734 5.464529037475586 -0.0685284286737442
14.545654296875 5.46177864074707 -0.0681181401014328
14.43569564819336 5.48996639251709 -0.0677066296339035
14.35877799987793 5.494848251342773 -0.06896703690290451
14.207743644714355 5.505758762359619 -0.06835378706455231
14.142192840576172 5.5141401290893555 -0.06809365004301071
14.015238761901855 5.532748699188232 -0.06759220361709595
13.935888290405273 5.534877300262451 -0.06726504117250443
13.876776695251465 5.545586585998535 -0.06703592836856842
13.796204566955566 5.546779632568359 -0.06670543551445007
13.738248825073242 5.556624412536621 -0.06632854789495468
13.67747688293457 5.5660719871521 -0.06609334796667099
13.595022201538086 5.565428733825684 -0.06589937210083008
13.541656494140625 5.576422214508057 -0.06554895639419556
13.479278564453125 5.584442138671875 -0.06530264019966125
13.418697357177734 5.591997146606445 -0.06506603956222534
13.343452453613281 5.593167781829834 -0.06475704163312912
13.281200408935547 5.600460052490234 -0.06451305001974106
13.225944519042969 5.609515190124512 -0.064301036298275
13.166264533996582 5.6174187660217285 -0.06407000869512558
13.08297348022461 5.614002704620361 -0.06372139602899551
13.028642654418945 5.622733116149902 -0.06351441144943237
12.960311889648438 5.626116752624512 -0.06323928385972977
12.90748405456543 5.635046482086182 -0.06303902715444565
12.843194961547852 5.638740539550781 -0.06278222054243088
12.79493522644043 5.650184154510498 -0.06402799487113953
12.727128982543945 5.651832103729248 -0.06360486894845963
12.674430847167969 5.660720348358154 -0.06340102851390839
12.612319946289062 5.664557933807373 -0.06244669854640961
12.55134391784668 5.668501377105713 -0.0622016116976738
12.485922813415527 5.6709465980529785 -0.06263524293899536
12.432879447937012 5.678160190582275 -0.06242862343788147
12.388601303100586 5.689038276672363 -0.06157159060239792
12.285463333129883 5.7044477462768555 -0.06117900460958481
12.212472915649414 5.701394081115723 -0.0608745701611042
12.11754322052002 5.719352722167969 -0.060520004481077194
12.062188148498535 5.72386360168457 -0.06030219420790672
11.95132827758789 5.733047008514404 -0.05986858531832695
11.902194023132324 5.740636825561523 -0.05968263000249863
11.344820976257324 5.798123359680176 -0.05728449672460556
11.2088041305542 5.817911148071289 -0.056781355291604996
11.062177658081055 5.830374717712402 -0.056222833693027496
11.022354125976562 5.8386454582214355 -0.056081317365169525
10.966341018676758 5.838866233825684 -0.055860526859760284
10.925004959106445 5.84613037109375 -0.055711716413497925
10.877467155456543 5.849760055541992 -0.05553049594163895
10.835298538208008 5.85681676864624 -0.05537884309887886
10.788131713867188 5.860424041748047 -0.055200155824422836
10.744416236877441 5.8655853271484375 -0.05503886938095093
10.694002151489258 5.867610931396484 -0.05484448000788689
10.640447616577148 5.867128372192383 -0.05463247746229172
10.61050796508789 5.879365921020508 -0.05454057455062866
10.563492774963379 5.882843971252441 -0.05436398833990097
10.512639045715332 5.883138656616211 -0.05416541174054146
10.469754219055176 5.8877034187316895 -0.054006826132535934
10.430766105651855 5.895142555236816 -0.05387067794799805
10.388252258300781 5.899592399597168 -0.053105905652046204
10.342653274536133 5.902812957763672 -0.05269549787044525
10.28567886352539 5.898766040802002 -0.05246803164482117
10.26644515991211 5.916081428527832 -0.0524316132068634
10.20779800415039 5.911230564117432 -0.05159611999988556
10.174606323242188 5.920376777648926 -0.051491133868694305
10.125957489013672 5.920231342315674 -0.051307663321495056
10.100725173950195 5.934329986572266 -0.05124243348836899
10.052775382995605 5.934392929077148 -0.05106232315301895
10.009533882141113 5.936911582946777 -0.05090508610010147
9.983223915100098 5.950172424316406 -0.050835464149713516
9.935445785522461 5.949672222137451 -0.05065596103668213
9.895312309265137 5.954257488250732 -0.05051469802856445
9.859407424926758 5.960693836212158 -0.0503949336707592
9.827269554138184 5.96914529800415 -0.05029258877038956
9.783695220947266 5.971189975738525 -0.050135064870119095
9.758243560791016 5.983621597290039 -0.05006825551390648
9.717775344848633 5.986591339111328 -0.0499241016805172
9.629761695861816 5.988462924957275 -0.0494861826300621
9.595633506774902 5.995567798614502 -0.049376845359802246
9.51784610748291 6.00216817855835 -0.0491047278046608
9.483748435974121 6.008884906768799 -0.04899444058537483
9.417133331298828 6.021732330322266 -0.047415126115083694
9.37778377532959 6.024698734283447 -0.04671424254775047
9.305961608886719 6.0334014892578125 -0.04648100584745407
9.271788597106934 6.039283275604248 -0.04637368395924568
9.193007469177246 6.0425920486450195 -0.046105481684207916
9.07891845703125 6.0503435134887695 -0.045724645256996155
8.974656105041504 6.062682151794434 -0.04539085552096367
8.869359016418457 6.073101997375488 -0.044941604137420654
8.779508590698242 6.093000888824463 -0.044678933918476105
8.696484565734863 6.089806079864502 -0.0443868488073349
8.667728424072266 6.0966477394104 -0.04430500790476799
8.5980806350708 6.101812839508057 -0.04193362966179848
8.567742347717285 6.1071882247924805 -0.04163408279418945
8.53881549835205 6.113331317901611 -0.04155557230114937
8.504709243774414 6.116305351257324 -0.0414520725607872
8.473135948181152 6.120446681976318 -0.0413602851331234
8.430875778198242 6.117239952087402 -0.041218310594558716
8.407572746276855 6.127134799957275 -0.04106077179312706
8.371070861816406 6.127172946929932 -0.04094472900032997
8.34054183959961 6.132102012634277 -0.04085857793688774
8.301712989807129 6.130264759063721 -0.04073086380958557
8.271404266357422 6.134449005126953 -0.04064508154988289
8.22740650177002 6.1289753913879395 -0.040492769330739975
8.215316772460938 6.146649360656738 -0.04049589857459068
8.181722640991211 6.148037910461426 -0.04039296135306358
8.157782554626465 6.157229423522949 -0.04033917188644409
8.109882354736328 6.147664546966553 -0.04016609489917755
8.082412719726562 6.153293609619141 -0.04009336233139038
8.043442726135254 6.150681495666504 -0.03996579349040985
8.019365310668945 6.158815383911133 -0.03939544036984444
7.983471393585205 6.158276557922363 -0.039283089339733124
7.953274726867676 6.1614813804626465 -0.039197713136672974
7.9269256591796875 6.167433738708496 -0.03913125768303871
7.898523330688477 6.172338485717773 -0.03905509412288666
7.86406946182251 6.171871185302734 -0.038948822766542435
7.846248149871826 6.184238910675049 -0.03729672729969025
7.810328483581543 6.182894229888916 -0.03698737919330597
7.7740654945373535 6.180602073669434 -0.03687627986073494
7.754727840423584 6.191535949707031 -0.03684492036700249
7.713818073272705 6.185772895812988 -0.03621101379394531
7.685070991516113 6.189096450805664 -0.03613536059856415
7.664657115936279 6.198922157287598 -0.03610031679272652
7.618030071258545 6.188048362731934 -0.03594373166561127
7.6040239334106445 6.203035831451416 -0.035937655717134476
7.554118633270264 6.189119815826416 -0.03576386719942093
7.513278007507324 6.208080768585205 -0.03569241613149643
7.47418212890625 6.202563285827637 -0.035570383071899414
7.41943359375 6.210079669952393 -0.03543318808078766
7.391026496887207 6.212431907653809 -0.03535960987210274
7.336454391479492 6.219474792480469 -0.03512508049607277
7.261023998260498 6.234403133392334 -0.03495055437088013
7.176833152770996 6.240922451019287 -0.034250032156705856
7.093767166137695 6.247438430786133 -0.032405998557806015
7.033843994140625 6.2474589347839355 -0.03225268796086311
7.016966819763184 6.258566856384277 -0.03223388269543648
6.961904048919678 6.262298107147217 -0.03210233524441719
6.933762550354004 6.263192176818848 -0.03203270584344864
6.887353897094727 6.274017333984375 -0.03193970024585724
6.8506340980529785 6.266758441925049 -0.03183054178953171
6.7995195388793945 6.272674560546875 -0.03171591833233833
6.780793190002441 6.281622886657715 -0.031593725085258484
6.7147016525268555 6.273022651672363 -0.031410135328769684
6.686649799346924 6.272981643676758 -0.031340036541223526
6.664190292358398 6.27860164642334 -0.03129604831337929
6.629823684692383 6.272245407104492 -0.03073321282863617
6.615663528442383 6.2850446701049805 -0.030727911740541458
6.596221446990967 6.293309688568115 -0.030697051435709
6.556097507476807 6.281197547912598 -0.030575275421142578
6.540148735046387 6.291998386383057 -0.03055933676660061
6.518653869628906 6.298059940338135 -0.030060749500989914
6.482649803161621 6.289466381072998 -0.029864031821489334
6.459927558898926 6.294137477874756 -0.02982003055512905
6.43580961227417 6.296725749969482 -0.029769791290163994
6.412083148956299 6.299737930297852 -0.029265103861689568
6.384354591369629 6.299225807189941 -0.02910669893026352
6.34794282913208 6.2894792556762695 -0.029001113027334213
6.3294172286987305 6.297205448150635 -0.02897528186440468
6.308899879455566 6.303539276123047 -0.02894219197332859
6.278063774108887 6.298946380615234 -0.028862524777650833
6.264101982116699 6.311077117919922 -0.0288569126278162
6.237029075622559 6.3105788230896 -0.028794150799512863
6.201987266540527 6.301353931427002 -0.02869517169892788
6.189013481140137 6.314971446990967 -0.02869551256299019
6.162816524505615 6.314399719238281 -0.02863415516912937
6.133596420288086 6.310736656188965 -0.028560755774378777
6.113853931427002 6.317240238189697 -0.028531108051538467
6.092983245849609 6.32187557220459 -0.02840426191687584
6.063777923583984 6.3178887367248535 -0.028331350535154343
6.043325424194336 6.323434352874756 -0.02785349264740944
6.024775505065918 6.330401420593262 -0.027826890349388123
5.996519088745117 6.32695198059082 -0.027757743373513222
5.975460529327393 6.331639766693115 -0.027722744271159172
5.921714782714844 6.32722282409668 -0.027596160769462585
5.899367809295654 6.330267429351807 -0.027554208412766457
5.844902038574219 6.325022220611572 -0.027335932478308678
5.835259437561035 6.340936660766602 -0.02735203132033348
5.790297508239746 6.345503330230713 -0.026830192655324936
5.761110305786133 6.339890480041504 -0.026755983009934425
5.720439434051514 6.348649024963379 -0.026690933853387833
5.702826976776123 6.3555731773376465 -0.02667056769132614
5.672585487365723 6.349104404449463 -0.02659195475280285
5.665804386138916 6.368063926696777 -0.026621755212545395
5.615957260131836 6.365821838378906 -0.026427363976836205
5.595635890960693 6.369381904602051 -0.026393132284283638
5.538370609283447 6.358001708984375 -0.026248827576637268
5.517999649047852 6.3612213134765625 -0.02621539868414402
5.470370292663574 6.360230445861816 -0.02569083496928215
5.452394008636475 6.366136074066162 -0.025667086243629456
5.428164005279541 6.365187168121338 -0.02561776526272297
5.408498287200928 6.368847846984863 -0.025587983429431915
5.38022518157959 6.362399101257324 -0.025940032675862312
5.365189075469971 6.372043609619141 -0.025847163051366806
5.341998100280762 6.371289253234863 -0.025799425318837166
5.333634376525879 6.388327598571777 -0.025823788717389107
5.304767608642578 6.381278991699219 -0.02532769925892353
5.282843589782715 6.381799697875977 -0.02528585121035576
5.270268440246582 6.393706798553467 -0.025288967415690422
5.242028713226318 6.387065887451172 -0.025218747556209564
5.226954936981201 6.395717620849609 -0.02520952746272087
5.200437068939209 6.390421390533447 -0.02514640986919403
5.193089962005615 6.409178256988525 -0.025176765397191048
5.152178764343262 6.385868072509766 -0.02495964802801609
5.134782314300537 6.392065525054932 -0.024940287694334984
5.117238998413086 6.397372722625732 -0.024919692426919937
5.097987174987793 6.400622367858887 -0.02489139512181282
5.068660259246826 6.39163875579834 -0.024813968688249588
5.059924125671387 6.407891273498535 -0.024421334266662598
5.034152507781982 6.4026618003845215 -0.02436147630214691
5.018914699554443 6.411287784576416 -0.024352846667170525
4.9800238609313965 6.388879299163818 -0.024229800328612328
4.978574752807617 6.415236473083496 -0.024288147687911987
4.954954147338867 6.412228584289551 -0.02415517531335354
4.938536167144775 6.4184675216674805 -0.024140093475580215
4.911630153656006 6.411792278289795 -0.024075854569673538
4.896993160247803 6.42024040222168 -0.024971792474389076
4.877274036407471 6.422117233276367 -0.024529945105314255
4.85727596282959 6.4240946769714355 -0.02441554330289364
4.8401288986206055 6.42910623550415 -0.024395622313022614
4.813694953918457 6.421821117401123 -0.024330828338861465
4.7963409423828125 6.427096366882324 -0.024312708526849747
4.781578063964844 6.435131549835205 -0.024305030703544617
4.7560014724731445 6.429353713989258 -0.024244166910648346
4.733531475067139 6.426830291748047 -0.02419775351881981
4.719034194946289 6.435209274291992 -0.024192120879888535
4.700187683105469 6.438167095184326 -0.02416587993502617
4.68031644821167 6.438963413238525 -0.023646829649806023
4.653923511505127 6.430809020996094 -0.023581115528941154
4.626422882080078 6.421509265899658 -0.023510949686169624
4.621035575866699 6.4421772956848145 -0.02355170249938965
4.58899450302124 6.4547319412231445 -0.023525923490524292
4.55197286605835 6.430875778198242 -0.023405063897371292
4.519551753997803 6.442437171936035 -0.023378120735287666
4.503267765045166 6.447643280029297 -0.02328171581029892
4.488828659057617 6.456305027008057 -0.02287827432155609
4.4648942947387695 6.450399398803711 -0.022825168445706367
4.428681373596191 6.456012725830078 -0.023574236780405045
4.407717227935791 6.454124927520752 -0.023533670231699944
4.362887859344482 6.446610927581787 -0.023439720273017883
4.351385593414307 6.45844841003418 -0.023449797183275223
4.329982757568359 6.456402778625488 -0.023408610373735428
4.31342077255249 6.4606499671936035 -0.02339179627597332
4.297807693481445 6.466282844543457 -0.022984836250543594
4.277032852172852 6.464941024780273 -0.022947922348976135
4.264007091522217 6.4744086265563965 -0.02287064865231514
4.244475364685059 6.473959922790527 -0.022838037461042404
4.22860050201416 6.479892253875732 -0.022826645523309708
4.207988262176514 6.477638244628906 -0.022788021713495255
4.180386543273926 6.464620590209961 -0.022711947560310364
4.165884971618652 6.472330570220947 -0.022707873955368996
4.144888877868652 6.469168663024902 -0.02266639657318592
4.134766101837158 6.48309326171875 -0.022215068340301514
4.112027645111084 6.477776527404785 -0.022167429327964783
4.099435329437256 6.4876556396484375 -0.02217171899974346
4.066900253295898 6.46671724319458 -0.02207065187394619
4.06272554397583 6.489924430847168 -0.022120725363492966
4.040571689605713 6.484563827514648 -0.022073565050959587
4.020051956176758 6.482295989990234 -0.022037018090486526
4.00803279876709 6.492959976196289 -0.022044532001018524
3.9881486892700195 6.490993976593018 -0.022397154942154884
3.9657857418060303 6.485469341278076 -0.022348960861563683
3.9509809017181396 6.4914870262146 -0.022341299802064896
3.9368410110473633 6.498732566833496 -0.022260336205363274
3.91874361038208 6.500001430511475 -0.022236095741391182
3.902968645095825 6.504322528839111 -0.022223124280571938
3.8787271976470947 6.495334148406982 -0.022164052352309227
3.86409854888916 6.5014495849609375 -0.021773207932710648
3.850327730178833 6.50899600982666 -0.02177165076136589
3.8283658027648926 6.503533840179443 -0.021726014092564583
3.816242218017578 6.513821601867676 -0.021656688302755356
3.7874755859375 6.495741367340088 -0.021570269018411636
3.76857852935791 6.495026588439941 -0.02154124155640602
9.505653381347656 -11.3573637008667 -0.046107854694128036
9.626395225524902 -11.35581111907959 -0.046347491443157196
9.739951133728027 -11.344404220581055 -0.04670335352420807
11.597485542297363 -11.224658966064453 -0.05517161637544632
11.734189987182617 -11.214961051940918 -0.0564768984913826
11.830255508422852 -11.211824417114258 -0.056711580604314804
11.88027572631836 -11.212523460388184 -0.056839533150196075
11.968811988830566 -11.201157569885254 -0.05803823843598366
12.016839027404785 -11.19941520690918 -0.058156948536634445
12.109304428100586 -11.19067096710205 -0.058377061039209366
12.157559394836426 -11.188577651977539 -0.058497440069913864
12.249223709106445 -11.17802619934082 -0.05635610967874527
12.387839317321777 -11.162603378295898 -0.0571746863424778
12.549786567687988 -11.166377067565918 -0.05759432166814804
12.685110092163086 -11.144697189331055 -0.05892515182495117
12.839229583740234 -11.137866973876953 -0.059314459562301636
14.329427719116211 -11.025771141052246 -0.06456742435693741
14.508398056030273 -11.017803192138672 -0.06505607068538666
14.669524192810059 -10.995447158813477 -0.06658725440502167
14.830048561096191 -10.97083854675293 -0.06306228786706924
14.882160186767578 -10.961676597595215 -0.06318113952875137
14.945344924926758 -10.960213661193848 -0.0633474662899971
14.978090286254883 -10.935333251953125 -0.0633847564458847
15.046525955200195 -10.9375 -0.06357268244028091
15.147774696350098 -10.91389274597168 -0.06475090980529785
15.202919960021973 -10.905767440795898 -0.06507394462823868
15.25549602508545 -10.895373344421387 -0.06519708782434464
15.285715103149414 -10.867952346801758 -0.06522625684738159
15.31704330444336 -10.84221076965332 -0.06526299566030502
15.361019134521484 -10.776752471923828 -0.0662124752998352
15.383688926696777 -10.744857788085938 -0.06621307879686356
15.424356460571289 -10.67712688446045 -0.06638005375862122
15.453010559082031 -10.649367332458496 -0.0664064809679985
15.493324279785156 -10.581418991088867 -0.06638921797275543
15.511390686035156 -10.546391487121582 -0.06636858731508255
15.550262451171875 -10.477330207824707 -0.06748941540718079
15.576370239257812 -10.447988510131836 -0.06750918179750443
15.599008560180664 -10.36819076538086 -0.06341012567281723
15.609914779663086 -10.328800201416016 -0.06432367861270905
16.002567291259766 -9.602778434753418 -0.0666065514087677
16.065683364868164 -9.503800392150879 -0.06471844762563705
16.08414077758789 -9.423502922058105 -0.06481832265853882
16.10668182373047 -9.391866683959961 -0.06482341885566711
16.155784606933594 -9.329547882080078 -0.06581445783376694
16.183780670166016 -9.300984382629395 -0.06584827601909637
16.236309051513672 -9.19587516784668 -0.06582662463188171
16.246536254882812 -9.111513137817383 -0.0659058690071106
16.2698974609375 -9.080283164978027 -0.06591962277889252
16.30938148498535 -9.012450218200684 -0.06687510013580322
16.323789596557617 -8.97624397277832 -0.06685470789670944
16.34324836730957 -8.941526412963867 -0.06685591489076614
16.388750076293945 -8.833008766174316 -0.06700091063976288
16.416109085083008 -8.803839683532715 -0.0670359656214714
16.435916900634766 -8.769306182861328 -0.06703995168209076
16.436166763305664 -8.725669860839844 -0.06697067618370056
16.44109535217285 -8.684600830078125 -0.06692207604646683
16.467309951782227 -8.653505325317383 -0.06695152819156647
16.478544235229492 -8.615817070007324 -0.06692817062139511
16.510425567626953 -8.588905334472656 -0.06716501712799072
16.514572143554688 -8.546285629272461 -0.06711511313915253
16.542762756347656 -8.517398834228516 -0.0671575739979744
16.567296981811523 -8.486580848693848 -0.06813061982393265
16.582626342773438 -8.449762344360352 -0.06811776012182236
16.62877082824707 -8.342013359069824 -0.068091981112957
16.652616500854492 -8.31076431274414 -0.06830210238695145
16.679122924804688 -8.236440658569336 -0.0682700127363205
16.687206268310547 -8.197402000427246 -0.06823518127202988
16.732152938842773 -8.132190704345703 -0.06922651827335358
16.74345588684082 -8.094773292541504 -0.06920914351940155
16.871662139892578 -7.896403789520264 -0.07044748961925507
16.920042037963867 -7.703560829162598 -0.0703149065375328
16.96500587463379 -7.595638751983643 -0.0714351013302803
16.992767333984375 -7.480185508728027 -0.07134068757295609
17.00665855407715 -7.359018325805664 -0.07233306020498276
17.028377532958984 -7.325470447540283 -0.07235553860664368
17.000038146972656 -7.229611873626709 -0.07211421430110931
16.988853454589844 -7.182239055633545 -0.07200463861227036
17.004243850708008 -7.146987438201904 -0.07200677692890167
17.009374618530273 -7.106627941131592 -0.07196398079395294
17.01492691040039 -7.067510604858398 -0.07192710041999817
17.004972457885742 -7.021834373474121 -0.07200378179550171
17.017276763916016 -6.98460054397583 -0.07294012606143951
17.026874542236328 -6.94728946685791 -0.07385140657424927
17.031307220458984 -6.9077067375183105 -0.07381001114845276
17.026718139648438 -6.863725185394287 -0.07372834533452988
17.055309295654297 -6.667976379394531 -0.07466234266757965
17.073047637939453 -6.5931549072265625 -0.07462106645107269
17.09438705444336 -6.559663772583008 -0.07465160638093948
17.09845733642578 -6.520550727844238 -0.07460995018482208
17.10735511779785 -6.483115196228027 -0.07458636164665222
17.097187042236328 -6.437723159790039 -0.07448871433734894
17.10972023010254 -6.401737689971924 -0.07559818029403687
17.12140464782715 -6.365637302398682 -0.07559152692556381
17.131954193115234 -6.328130722045898 -0.07557728886604309
17.138940811157227 -6.290127754211426 -0.0755528137087822
17.13186264038086 -6.247220039367676 -0.07546599954366684
17.14529037475586 -6.170433521270752 -0.07540671527385712
17.158681869506836 -6.135063648223877 -0.07541129738092422
17.171215057373047 -6.098399639129639 -0.07559055089950562
17.18606185913086 -6.022287368774414 -0.07721715420484543
17.198083877563477 -5.986263751983643 -0.07721506804227829
17.201553344726562 -5.947478771209717 -0.0781041830778122
17.199901580810547 -5.905994892120361 -0.07821948081254959
17.202407836914062 -5.866783618927002 -0.07817667722702026
17.21253204345703 -5.830390930175781 -0.07816609740257263
17.227828979492188 -5.794769763946533 -0.07818068563938141
17.241430282592773 -5.75935173034668 -0.07818935811519623
17.22241973876953 -5.713301181793213 -0.07805053889751434
17.252593994140625 -5.682621002197266 -0.07812941074371338
17.253887176513672 -5.643191814422607 -0.07808170467615128
17.261821746826172 -5.606160640716553 -0.07898745685815811
17.265567779541016 -5.566631317138672 -0.07913512736558914
17.26615333557129 -5.527291774749756 -0.07908503711223602
17.27770233154297 -5.491486549377441 -0.07908547669649124
17.289627075195312 -5.4546380043029785 -0.0790865421295166
17.300676345825195 -5.418673515319824 -0.07908547669649124
17.276575088500977 -5.331333160400391 -0.07887230068445206
17.29556655883789 -5.297909259796143 -0.07891277223825455
17.307193756103516 -5.261055946350098 -0.07909645140171051
17.31661605834961 -5.224689483642578 -0.08001011610031128
17.315845489501953 -5.185276031494141 -0.07995672523975372
17.316116333007812 -5.145074844360352 -0.07990701496601105
17.318140029907227 -5.106588840484619 -0.08060696721076965
17.346031188964844 -5.035508155822754 -0.08155570179224014
17.356510162353516 -4.9995198249816895 -0.08155456930398941
17.37691307067871 -4.926239490509033 -0.08155354857444763
17.371305465698242 -4.885725975036621 -0.08148298412561417
17.381702423095703 -4.848605155944824 -0.08148298412561417
17.387550354003906 -4.811368942260742 -0.08146105706691742
17.39533042907715 -4.774681091308594 -0.08163129538297653
17.40308380126953 -4.736855506896973 -0.08161885291337967
17.41520118713379 -4.701357841491699 -0.08255055546760559
17.420352935791016 -4.663985252380371 -0.08252795785665512
17.424579620361328 -4.625248432159424 -0.08250170201063156
17.43130111694336 -4.5883307456970215 -0.08248719573020935
17.45018196105957 -4.554600715637207 -0.0825304463505745
17.423276901245117 -4.507844924926758 -0.08236202597618103
17.426651000976562 -4.470154285430908 -0.08233049511909485
17.441865921020508 -4.434553623199463 -0.0823611170053482
17.458786010742188 -4.400116920471191 -0.08257635682821274
17.454605102539062 -4.360560894012451 -0.0825122743844986
17.469676971435547 -4.324698448181152 -0.08346068859100342
17.47849464416504 -4.288407325744629 -0.08346020430326462
17.482145309448242 -4.25085973739624 -0.08343175798654556
17.49011993408203 -4.213247299194336 -0.0830649882555008
17.498746871948242 -4.176923751831055 -0.08306456357240677
17.498558044433594 -4.138329982757568 -0.08302347362041473
17.51506233215332 -4.102930068969727 -0.08305817097425461
17.516067504882812 -4.064840316772461 -0.08302480727434158
17.53728675842285 -4.031243324279785 -0.08308632671833038
17.541988372802734 -3.9930758476257324 -0.08306632190942764
17.558364868164062 -3.9200398921966553 -0.08416396379470825
17.566699981689453 -3.8827078342437744 -0.08416417986154556
17.574480056762695 -3.8461928367614746 -0.08416303992271423
17.582895278930664 -3.808692693710327 -0.08416417986154556
17.591318130493164 -3.7723159790039062 -0.0841667652130127
17.59874725341797 -3.7355408668518066 -0.08416490256786346
17.597023010253906 -3.6960926055908203 -0.08411982655525208
17.613609313964844 -3.661428928375244 -0.0841616839170456
17.612049102783203 -3.6228082180023193 -0.08411888778209686
17.639068603515625 -3.5892927646636963 -0.08439020812511444
17.636234283447266 -3.5506174564361572 -0.08525948971509933
17.653127670288086 -3.5157315731048584 -0.08530465513467789
17.651588439941406 -3.4764227867126465 -0.085262231528759
17.659204483032227 -3.4398703575134277 -0.08526433259248734
17.66555404663086 -3.401953935623169 -0.08525970578193665
17.675823211669922 -3.365905523300171 -0.08527631312608719
17.67827796936035 -3.328371524810791 -0.0839739516377449
17.689329147338867 -3.291339874267578 -0.08399460464715958
17.692537307739258 -3.253964900970459 -0.08397581428289413
17.72602081298828 -3.1830053329467773 -0.08406960964202881
17.714359283447266 -3.142979621887207 -0.08399010449647903
17.765262603759766 -3.0748958587646484 -0.08416056632995605
17.781553268432617 -2.9627041816711426 -0.08506743609905243
17.804052352905273 -2.8515372276306152 -0.08526928722858429
17.802440643310547 -2.736605405807495 -0.08517394959926605
17.785306930541992 -2.657349109649658 -0.08504029363393784
17.80217742919922 -2.6221137046813965 -0.08509478718042374
17.791839599609375 -2.5440831184387207 -0.08591067045927048
17.795604705810547 -2.5067663192749023 -0.08608298748731613
17.79560089111328 -2.469114303588867 -0.08606062829494476
17.796974182128906 -2.4307479858398438 -0.08275112509727478
17.801239013671875 -2.3935294151306152 -0.08274778723716736
17.81810760498047 -2.3581631183624268 -0.08280321210622787
17.811782836914062 -2.3188023567199707 -0.08275074511766434
17.840147018432617 -2.2470550537109375 -0.08301689475774765
17.83552360534668 -2.2079591751098633 -0.08389099687337875
17.844663619995117 -2.132826805114746 -0.0838908851146698
17.858518600463867 -2.0967211723327637 -0.08393451571464539
17.853097915649414 -2.058534622192383 -0.08388952910900116
17.859790802001953 -2.0208370685577393 -0.08390157669782639
17.859893798828125 -1.9456274509429932 -0.08386501669883728
17.850303649902344 -1.9061882495880127 -0.08379992842674255
17.845468521118164 -1.8680437803268433 -0.0837596207857132
17.87810516357422 -1.8330401182174683 -0.08407200872898102
17.88250732421875 -1.7958182096481323 -0.08407585322856903
17.882308959960938 -1.7583225965499878 -0.08405769616365433
17.894651412963867 -1.7211287021636963 -0.08501341938972473
17.872549057006836 -1.6813970804214478 -0.08489414304494858
17.88762855529785 -1.645374059677124 -0.08494936674833298
17.899696350097656 -1.6081115007400513 -0.08498841524124146
17.910545349121094 -1.5714442729949951 -0.08135348558425903
17.896085739135742 -1.5327582359313965 -0.08091648668050766
17.903194427490234 -1.495029330253601 -0.0809297040104866
17.896955490112305 -1.4569354057312012 -0.08088862895965576
17.919387817382812 -1.4213354587554932 -0.08097436279058456
17.918228149414062 -1.3453320264816284 -0.08094610273838043
17.908552169799805 -1.307237982749939 -0.08088883757591248
17.922651290893555 -1.2324081659317017 -0.08184374868869781
17.896883010864258 -1.1924093961715698 -0.08189723640680313
17.92014503479004 -1.119093418121338 -0.08197963237762451
17.90378189086914 -1.0798609256744385 -0.08189626783132553
17.900318145751953 -1.0049269199371338 -0.08185619860887527
17.906038284301758 -0.8923630714416504 -0.08185508102178574
17.935396194458008 -0.553909420967102 -0.07808520644903183
17.93971061706543 -0.44117528200149536 -0.07900744676589966
17.97431182861328 -0.3289761543273926 -0.07914921641349792
17.98412322998047 -0.21606996655464172 -0.07918524742126465
17.9832820892334 -0.17873643338680267 -0.079181008040905
17.98138427734375 -0.1403021663427353 -0.07917094975709915
17.991233825683594 -0.10304200649261475 -0.07921264320611954
17.99872398376465 -0.06573330610990524 -0.07924357056617737
17.977689743041992 -0.027251478284597397 -0.07915376871824265
21.28927993774414 0.0560869425535202 0.08039487898349762
21.284305572509766 0.18988539278507233 0.08037535101175308
21.28905487060547 0.27959612011909485 0.08039675652980804
21.331863403320312 0.3244348168373108 0.08056293427944183
21.323471069335938 0.59253990650177 0.07924969494342804
21.290170669555664 0.6360456347465515 0.07913178205490112
21.302528381347656 0.6817522644996643 0.07918152958154678
21.306127548217773 0.7261300086975098 0.07920311391353607
21.289560317993164 0.7700138092041016 0.07914260774850845
21.300090789794922 0.8157457113265991 0.07919088006019592
21.307825088500977 0.860328197479248 0.07922609895467758
21.2962646484375 0.9043449759483337 0.08353866636753082
21.31674575805664 0.9506244659423828 0.0840575098991394
21.31034278869629 0.9946541786193848 0.08403948694467545
21.30931854248047 1.0402318239212036 0.08404257148504257
21.30523109436035 1.0843548774719238 0.08403138071298599
21.318735122680664 1.1296155452728271 0.08300983160734177
21.308311462402344 1.1745023727416992 0.08297476172447205
21.344837188720703 1.2209498882293701 0.0831303820014
21.33388900756836 1.2649599313735962 0.08309651911258698
21.331520080566406 1.3103402853012085 0.08288395404815674
21.326642990112305 1.3544706106185913 0.08287550508975983
21.333494186401367 1.399576187133789 0.08291085809469223
21.357688903808594 1.446776032447815 0.08301977813243866
21.360652923583984 1.4915140867233276 0.0830424427986145
21.34965705871582 1.536583423614502 0.0830133855342865
21.34375 1.5806868076324463 0.0830022543668747
21.307903289794922 1.6682896614074707 0.08288900554180145
21.30197525024414 1.7123090028762817 0.08288367837667465
21.25148582458496 1.7983593940734863 0.08271410316228867
21.256587982177734 1.843226432800293 0.08274853974580765
21.07919692993164 2.767935037612915 0.08462047576904297
21.050376892089844 2.898881435394287 0.08457600325345993
21.037578582763672 2.987450122833252 0.08457451313734055
21.032060623168945 3.031205177307129 0.08674406260251999
21.010826110839844 3.1185240745544434 0.08692115545272827
21.008140563964844 3.162696123123169 0.08693502843379974
20.99622917175293 3.2513883113861084 0.08694437891244888
20.988529205322266 3.2948100566864014 0.08694437146186829
20.967256546020508 3.382009267807007 0.086911141872406
20.96780014038086 3.4267563819885254 0.08694632351398468
20.942432403564453 3.467461109161377 0.08686976134777069
20.932554244995117 3.511569023132324 0.08686140179634094
20.928007125854492 3.555689573287964 0.08687093108892441
20.92691421508789 3.6013002395629883 0.08690151572227478
20.91132354736328 3.643313407897949 0.08686411380767822
20.903799057006836 3.6869306564331055 0.08686471730470657
20.89385986328125 3.731001377105713 0.08685809373855591
20.898761749267578 3.7766456604003906 0.08691108971834183
20.883499145507812 3.818873167037964 0.08687689900398254
20.87889289855957 3.8639259338378906 0.08689866214990616
20.835525512695312 3.900636672973633 0.08674291521310806
20.86677360534668 3.951540231704712 0.08691247552633286
20.818805694580078 3.988328456878662 0.08674034476280212
20.81950569152832 4.033270359039307 0.08569791167974472
20.808547973632812 4.0761847496032715 0.08677302300930023
20.803926467895508 4.121230125427246 0.08678648620843887
20.773027420043945 4.20610237121582 0.08673050999641418
20.761667251586914 4.248671531677246 0.08671943098306656
20.739656448364258 4.335247993469238 0.08670111000537872
20.737964630126953 4.379829406738281 0.0867343321442604
20.711515426635742 4.46544075012207 0.08561918884515762
20.710756301879883 4.5102739334106445 0.08565393090248108
20.69136619567871 4.597408771514893 0.08565492928028107
20.6754093170166 4.638907432556152 0.0856255516409874
20.499347686767578 5.420223236083984 0.08459874987602234
20.33222198486328 5.513021469116211 0.08403057605028152
20.099863052368164 5.5409955978393555 0.08316640555858612
19.969791412353516 5.549753189086914 0.08267293870449066
19.72708511352539 5.571905136108398 0.08176340907812119
19.610734939575195 5.583010673522949 0.08133221417665482
19.500961303710938 5.596821308135986 0.08092433214187622
19.37311363220215 5.603669166564941 0.08044558763504028
19.26563835144043 5.615932941436768 0.08004491031169891
19.163366317749023 5.6305646896362305 0.07967159897089005
19.032379150390625 5.635010242462158 0.07917424291372299
18.9202823638916 5.644552707672119 0.07875648885965347
18.83040428161621 5.661572456359863 0.07843263447284698
18.719085693359375 5.670487403869629 0.07602562755346298
18.629470825195312 5.685574054718018 0.07571100443601608
18.491153717041016 5.686570167541504 0.07519320398569107
18.399978637695312 5.700353145599365 0.0748712569475174
18.290637969970703 5.708308696746826 0.0744742676615715
18.182525634765625 5.717019557952881 0.07408111542463303
18.080774307250977 5.726284027099609 0.07371599972248077
17.995502471923828 5.741604804992676 0.07341915369033813
17.89166259765625 5.7494096755981445 0.07304371893405914
17.800172805786133 5.76078987121582 0.07271957397460938
17.673969268798828 5.761686325073242 0.07224936783313751
