VERSION .7
FIELDS x y z
SIZE 4 4 4
TYPE F F F
COUNT 1 1 1
WIDTH 851
HEIGHT 1
VIEWPOINT 0 0 0 1 0 0 0
POINTS 851
DATA ascii
9.537925720214844 -10.18037223815918 0.31089693307876587
9.591102600097656 -10.193916320800781 0.3127829134464264
9.616291046142578 -10.177766799926758 0.31376221776008606
9.660816192626953 -10.182479858398438 0.3157377243041992
9.69516372680664 -10.175576210021973 0.31701481342315674
9.735458374023438 -10.174985885620117 0.31899696588516235
9.765164375305176 -10.16372299194336 0.32013916969299316
9.814655303955078 -10.17165470123291 0.32191091775894165
9.845844268798828 -10.161689758300781 0.32310521602630615
9.89364242553711 -10.167984962463379 0.325195848941803
9.923460960388184 -10.155861854553223 0.3263387084007263
9.968799591064453 -10.159996032714844 0.32800501585006714
10.009984970092773 -10.158985137939453 0.3300354778766632
10.051127433776855 -10.15797233581543 0.33011358976364136
10.08858871459961 -10.153603553771973 0.3294792175292969
10.122627258300781 -10.144939422607422 0.3307648003101349
10.169755935668945 -10.149444580078125 0.3324848413467407
10.211223602294922 -10.147895812988281 0.33401817083358765
10.243865966796875 -10.138168334960938 0.33527782559394836
10.285802841186523 -10.136993408203125 0.3368338644504547
10.318464279174805 -10.126335144042969 0.33808642625808716
10.39838695526123 -10.119876861572266 0.34145790338516235
10.449689865112305 -10.126943588256836 0.34384793043136597
10.524296760559082 -10.114370346069336 0.34669286012649536
10.567169189453125 -10.112749099731445 0.3482936918735504
10.65196418762207 -10.108297348022461 0.3514758050441742
10.77683162689209 -10.098793983459473 0.3565746545791626
10.902349472045898 -10.088441848754883 0.36187270283699036
10.98484992980957 -10.079240798950195 0.3650217354297638
11.111519813537598 -10.067541122436523 0.3660488724708557
11.168800354003906 -10.076802253723145 0.368152916431427
11.254596710205078 -10.069067001342773 0.37143445014953613
11.300621032714844 -10.067586898803711 0.37317919731140137
11.338188171386719 -10.058205604553223 0.3746434152126312
11.389765739440918 -10.061800956726074 0.3771294951438904
11.421675682067871 -10.047354698181152 0.37841522693634033
11.466259956359863 -10.043720245361328 0.3805065155029297
11.509881019592285 -10.039793014526367 0.38219553232192993
11.565595626831055 -10.045693397521973 0.3842774033546448
11.602973937988281 -10.035266876220703 0.3857537806034088
11.663074493408203 -10.045015335083008 0.387997031211853
11.745195388793945 -10.029897689819336 0.39120808243751526
11.79823112487793 -10.032410621643066 0.39321762323379517
11.8447847366333 -10.028989791870117 0.39500927925109863
11.882699012756348 -10.018829345703125 0.3965289294719696
11.930087089538574 -10.015987396240234 0.39835864305496216
11.981714248657227 -10.016287803649902 0.4003306031227112
12.031405448913574 -10.015485763549805 0.40280941128730774
12.074830055236816 -10.008042335510254 0.4049026668071747
12.122371673583984 -10.005080223083496 0.4055657386779785
12.17313003540039 -10.004060745239258 0.4041435420513153
12.220932006835938 -10.000198364257812 0.4059929847717285
12.254003524780273 -9.98487663269043 0.40736982226371765
12.31255054473877 -9.989622116088867 0.4095826745033264
12.359289169311523 -9.984353065490723 0.41140884160995483
12.41220474243164 -9.984603881835938 0.41345080733299255
12.442753791809082 -9.965473175048828 0.4147321581840515
12.49956226348877 -9.968463897705078 0.41691166162490845
12.55355453491211 -9.968973159790039 0.4189983606338501
12.613027572631836 -9.972339630126953 0.4212556481361389
12.64454460144043 -9.954687118530273 0.4226000905036926
12.751049041748047 -9.951837539672852 0.4267325699329376
12.80152702331543 -9.948554992675781 0.42871880531311035
12.904325485229492 -9.941560745239258 0.43274229764938354
12.951326370239258 -9.93501091003418 0.4346262812614441
12.99094009399414 -9.921388626098633 0.43624305725097656
13.044343948364258 -9.919384002685547 0.4387569725513458
13.102310180664062 -9.92061710357666 0.44060444831848145
13.150644302368164 -9.913087844848633 0.442937433719635
13.199893951416016 -9.90732192993164 0.44490569829940796
13.307252883911133 -9.90056324005127 0.4478871822357178
13.360943794250488 -9.897500991821289 0.4464486241340637
13.42055892944336 -9.897331237792969 0.4487506151199341
13.472742080688477 -9.892715454101562 0.45083150267601013
13.525480270385742 -9.8883056640625 0.4529383182525635
13.578107833862305 -9.882339477539062 0.4550166726112366
13.639274597167969 -9.883626937866211 0.45740050077438354
13.692183494567871 -9.877427101135254 0.45950210094451904
13.724098205566406 -9.857213020324707 0.46091872453689575
13.78292465209961 -9.856172561645508 0.4632419943809509
13.855834007263184 -9.863641738891602 0.4660157263278961
13.904746055603027 -9.855047225952148 0.46801698207855225
13.962390899658203 -9.852437973022461 0.4703110456466675
14.020538330078125 -9.848670959472656 0.47260379791259766
14.074833869934082 -9.843255043029785 0.47418439388275146
14.126670837402344 -9.835166931152344 0.47628146409988403
14.184877395629883 -9.831518173217773 0.4785979390144348
14.24299144744873 -9.828104019165039 0.48092275857925415
14.306344985961914 -9.826773643493652 0.4834185242652893
14.352581024169922 -9.81475830078125 0.48535579442977905
14.407112121582031 -9.808231353759766 0.487575888633728
14.470563888549805 -9.806253433227539 0.4900779724121094
14.538336753845215 -9.808218002319336 0.4927552342414856
14.587223052978516 -9.796456336975098 0.49478578567504883
14.653297424316406 -9.79623031616211 0.4960631728172302
14.721420288085938 -9.797632217407227 0.4943338632583618
14.760461807250977 -9.778717994689941 0.49603569507598877
14.825664520263672 -9.777168273925781 0.49817323684692383
14.886207580566406 -9.772067070007324 0.500593900680542
14.947919845581055 -9.767711639404297 0.5030673742294312
15.00527572631836 -9.760814666748047 0.5054126977920532
15.063623428344727 -9.753579139709473 0.5077764987945557
15.133199691772461 -9.753576278686523 0.5105335116386414
15.189020156860352 -9.744999885559082 0.512831449508667
15.243759155273438 -9.734756469726562 0.5144426226615906
15.305801391601562 -9.729175567626953 0.516955554485321
15.429327011108398 -9.716703414916992 0.5219659805297852
15.491874694824219 -9.711254119873047 0.524513304233551
15.617650985717773 -9.698720932006836 0.5296405553817749
15.819550514221191 -9.686832427978516 0.5373413562774658
16.01087760925293 -9.666120529174805 0.5445122718811035
16.143373489379883 -9.653581619262695 0.5485081672668457
16.345829010009766 -9.635659217834473 0.551567792892456
16.410797119140625 -9.627336502075195 0.5542327165603638
16.556888580322266 -9.62033748626709 0.560147762298584
16.623855590820312 -9.612367630004883 0.5622094869613647
16.694746017456055 -9.606622695922852 0.5651046633720398
16.76531219482422 -9.600176811218262 0.5679776668548584
16.845949172973633 -9.599984169006348 0.5712203979492188
16.910329818725586 -9.58967399597168 0.5734148621559143
16.975019454956055 -9.579059600830078 0.5761158466339111
17.048187255859375 -9.573190689086914 0.5784071087837219
17.127456665039062 -9.57020378112793 0.5816091895103455
17.195802688598633 -9.561620712280273 0.5844572186470032
17.26226806640625 -9.551163673400879 0.5872343182563782
17.336687088012695 -9.544595718383789 0.5902841091156006
17.420808792114258 -9.543851852416992 0.5931849479675293
17.48470687866211 -9.53116512298584 0.5951851606369019
17.56241226196289 -9.525487899780273 0.5983588695526123
17.630882263183594 -9.515327453613281 0.6012482047080994
17.70890235900879 -9.508642196655273 0.6044394969940186
17.785579681396484 -9.50231647491455 0.6076147556304932
17.856948852539062 -9.49228572845459 0.6085563898086548
17.93522834777832 -9.485393524169922 0.6074314117431641
18.01243019104004 -9.47844123840332 0.6093779802322388
18.09741973876953 -9.474678039550781 0.6128197908401489
18.1757869720459 -9.466875076293945 0.616057813167572
18.2474422454834 -9.456110000610352 0.6190740466117859
18.326276779174805 -9.447355270385742 0.622313380241394
18.403005599975586 -9.43862247467041 0.6242605447769165
18.48654556274414 -9.432476043701172 0.6276928782463074
18.645084381103516 -9.415206909179688 0.634274959564209
18.889965057373047 -9.389701843261719 0.643155574798584
19.136438369750977 -9.362654685974121 0.6526706218719482
19.922080993652344 -9.284706115722656 0.6760445237159729
20.089319229125977 -9.259868621826172 0.6831046342849731
20.177837371826172 -9.249948501586914 0.685456395149231
20.373708724975586 -9.236104965209961 0.6935155391693115
20.460548400878906 -9.224334716796875 0.6963820457458496
20.553882598876953 -9.213631629943848 0.6996909379959106
20.644023895263672 -9.20263671875 0.7034847736358643
20.745010375976562 -9.196098327636719 0.7076622843742371
20.830326080322266 -9.180727005004883 0.7104883193969727
21.022769927978516 -9.160004615783691 0.7179473638534546
21.115619659423828 -9.148370742797852 0.7210490703582764
21.223648071289062 -9.14291000366211 0.7249189615249634
21.317461013793945 -9.129383087158203 0.7288649678230286
21.518428802490234 -9.109946250915527 0.73646080493927
21.622194290161133 -9.099456787109375 0.7401930093765259
21.81648826599121 -9.073263168334961 0.7475675344467163
21.913394927978516 -9.060272216796875 0.751090943813324
22.019989013671875 -9.050882339477539 0.7516866326332092
22.139019012451172 -9.044570922851562 0.7565470933914185
22.44277572631836 -9.004449844360352 0.7644745111465454
24.842220306396484 -8.717479705810547 0.8505502939224243
24.950260162353516 -8.697282791137695 0.8517526984214783
25.080810546875 -8.682744979858398 0.8571885824203491
25.20238494873047 -8.666308403015137 0.8614048957824707
25.33130645751953 -8.650887489318848 0.8661329746246338
25.45610237121582 -8.633842468261719 0.871429443359375
25.591096878051758 -8.620452880859375 0.8754246234893799
25.71725845336914 -8.601824760437012 0.8807746171951294
25.85463523864746 -8.58815860748291 0.8848680257797241
25.983234405517578 -8.571046829223633 0.8903297185897827
26.115489959716797 -8.552858352661133 0.8942371606826782
26.246627807617188 -8.535536766052246 0.8997883796691895
26.386442184448242 -8.519458770751953 0.904686689376831
26.520694732666016 -8.50133228302002 0.9096660614013672
26.799776077270508 -8.466496467590332 0.9197169542312622
26.93722915649414 -8.448482513427734 0.9245541095733643
27.215795516967773 -8.410123825073242 0.9346306920051575
27.350078582763672 -8.389482498168945 0.9396607875823975
27.636947631835938 -8.350299835205078 0.950072169303894
28.08349609375 -8.292916297912598 0.9649578332901001
29.964689254760742 -8.033119201660156 1.0306860208511353
30.45684242248535 -7.960169792175293 1.0485906600952148
31.31743812561035 -7.834813117980957 1.0804290771484375
31.4801025390625 -7.806126594543457 1.0854853391647339
31.668167114257812 -7.780988693237305 1.0922199487686157
32.03435516357422 -7.7289137840271 1.103226900100708
32.206695556640625 -7.698940277099609 1.1106274127960205
32.412940979003906 -7.675950527191162 1.117177963256836
32.57544708251953 -7.643077850341797 1.1234325170516968
32.77581787109375 -7.617488861083984 1.1306458711624146
32.96199417114258 -7.587457656860352 1.136511206626892
33.151824951171875 -7.557862281799316 1.1445783376693726
33.33002471923828 -7.52576208114624 1.1501855850219727
33.724517822265625 -7.465706825256348 1.1648104190826416
34.32371520996094 -7.372311115264893 1.1860374212265015
23.470237731933594 -3.8161213397979736 0.8152078986167908
24.68975067138672 -3.9077508449554443 0.856985867023468
24.83340835571289 -3.8242616653442383 0.8629399538040161
25.225574493408203 -3.7224645614624023 0.8772968053817749
25.580427169799805 -3.7196836471557617 0.8894553184509277
25.784866333007812 -3.694113254547119 0.8962551355361938
33.016353607177734 -4.589665412902832 1.1532530784606934
33.334625244140625 -4.562307357788086 1.1669830083847046
42.78712844848633 -3.6725549697875977 1.5005345344543457
42.812721252441406 -3.4931859970092773 1.5009055137634277
42.80691146850586 -3.4033021926879883 1.5004470348358154
42.84477233886719 -3.315732002258301 1.5015157461166382
42.849056243896484 -3.225114345550537 1.5025386810302734
42.873382568359375 -3.1374855041503906 1.5031676292419434
42.887977600097656 -3.0464580059051514 1.5034414529800415
42.88630676269531 -2.9569053649902344 1.503162145614624
42.90165710449219 -2.8685226440429688 1.5049865245819092
42.93762969970703 -2.6893417835235596 1.5058449506759644
42.94116973876953 -2.4186534881591797 1.5054110288619995
42.59785461425781 -0.24921400845050812 1.4958575963974
50.255653381347656 0.44216716289520264 2.1764750480651855
50.316856384277344 0.7590702772140503 2.179332971572876
50.026954650878906 1.5948703289031982 2.167583465576172
49.95280456542969 1.6962807178497314 2.164517402648926
49.92695617675781 1.9059407711029053 2.161970615386963
49.852195739746094 2.217022657394409 2.1606156826019287
49.280845642089844 4.6887407302856445 2.1381325721740723
49.18818664550781 4.992142677307129 2.133687734603882
49.15867614746094 5.092233657836914 2.132866859436035
49.104248046875 5.2957048416137695 2.130181312561035
49.07582473754883 5.395689964294434 2.129420757293701
49.02867889404297 5.4965338706970215 2.127882480621338
49.03131866455078 5.599883079528809 2.1267542839050293
48.9735107421875 5.802321910858154 2.125277519226074
48.943695068359375 5.901806831359863 2.1245346069335938
48.82146453857422 6.198692321777344 2.1196060180664062
47.8825798034668 8.240042686462402 2.0785064697265625
47.7357292175293 8.524094581604004 2.072702407836914
47.59971618652344 8.706817626953125 2.067117214202881
47.56183624267578 8.801931381225586 2.0662612915039062
47.43412780761719 8.985066413879395 2.0593721866607666
47.370994567871094 9.07497787475586 2.057466983795166
47.313018798828125 9.166974067687988 2.055764675140381
47.255836486816406 9.259403228759766 2.052884578704834
47.189422607421875 9.348118782043457 2.0474584102630615
47.10045623779297 9.536812782287598 2.042375087738037
47.01935958862305 9.622010231018066 2.039713144302368
46.91947937011719 9.807622909545898 2.0359039306640625
46.85413360595703 9.89675521850586 2.0322916507720947
46.76309585571289 10.082167625427246 2.030150890350342
46.58979797363281 10.35300064086914 2.022496223449707
42.01888656616211 11.018085479736328 1.8250749111175537
41.603729248046875 11.003119468688965 1.8065359592437744
40.805667877197266 10.976129531860352 1.772768497467041
40.42375564575195 10.963409423828125 1.755664348602295
40.035125732421875 10.948354721069336 1.73872971534729
39.670249938964844 10.93861198425293 1.7238695621490479
39.29106903076172 10.921843528747559 1.7069451808929443
38.91008758544922 10.904054641723633 1.6903433799743652
38.54743194580078 10.890222549438477 1.6755762100219727
38.19160461425781 10.875326156616211 1.6596722602844238
37.82854461669922 10.857915878295898 1.6438355445861816
37.4741325378418 10.841846466064453 1.6294423341751099
37.11992645263672 10.823933601379395 1.6150074005126953
36.44968795776367 10.794240951538086 1.585481882095337
36.128482818603516 10.781728744506836 1.571141004562378
35.46656799316406 10.747068405151367 1.5414323806762695
35.14954376220703 10.730693817138672 1.528649091720581
34.523292541503906 10.69865608215332 1.5024151802062988
29.638404846191406 10.42728328704834 1.292555332183838
29.172874450683594 10.401775360107422 1.2722361087799072
28.929710388183594 10.382791519165039 1.2609937191009521
28.491968154907227 10.36134147644043 1.2441012859344482
28.259326934814453 10.344324111938477 1.233830213546753
27.821434020996094 10.315984725952148 1.2147653102874756
27.622163772583008 10.308465957641602 1.2070097923278809
27.39877700805664 10.290725708007812 1.197427749633789
27.209692001342773 10.284188270568848 1.1890531778335571
26.996461868286133 10.268770217895508 1.1799391508102417
26.80318832397461 10.259757995605469 1.1714131832122803
26.566617965698242 10.233546257019043 1.162010908126831
26.387596130371094 10.227520942687988 1.153381586074829
26.188819885253906 10.213809967041016 1.1456209421157837
26.00259017944336 10.204463958740234 1.1367101669311523
25.794153213500977 10.185246467590332 1.1285282373428345
25.60619354248047 10.172502517700195 1.1205202341079712
25.24761962890625 10.153369903564453 1.1050260066986084
25.04313087463379 10.13155746459961 1.096031904220581
24.693069458007812 10.111156463623047 1.0809409618377686
24.16759490966797 10.07385540008545 1.0577473640441895
22.22018051147461 9.926669120788574 0.9768190979957581
21.92667579650879 9.906529426574707 0.9642665386199951
21.767623901367188 9.88911247253418 0.957328200340271
21.471782684326172 9.864009857177734 0.944688618183136
21.352397918701172 9.862879753112793 0.9397318363189697
21.070682525634766 9.840633392333984 0.9277235269546509
20.927947998046875 9.826927185058594 0.9215065240859985
20.797109603881836 9.819768905639648 0.9160777926445007
20.65199851989746 9.803714752197266 0.909765899181366
20.52364730834961 9.795921325683594 0.9038550853729248
20.39344024658203 9.786426544189453 0.9014461636543274
20.257003784179688 9.772721290588379 0.894938588142395
20.12248992919922 9.76024055480957 0.8899042010307312
20.004629135131836 9.755035400390625 0.8842338919639587
19.867406845092773 9.739204406738281 0.8790640234947205
19.751541137695312 9.734794616699219 0.8735038638114929
19.610916137695312 9.716118812561035 0.8681768178939819
19.507524490356445 9.716230392456055 0.8631735444068909
19.372297286987305 9.699721336364746 0.8580935001373291
19.267688751220703 9.697402954101562 0.8530255556106567
19.134056091308594 9.68143081665039 0.8467124700546265
19.02637481689453 9.676589965820312 0.8428325653076172
18.897571563720703 9.660494804382324 0.836717963218689
18.663776397705078 9.640334129333496 0.8268688917160034
18.324968338012695 9.611745834350586 0.8132588863372803
16.8486328125 9.479515075683594 0.752395749092102
16.760665893554688 9.475868225097656 0.7481683492660522
16.571243286132812 9.461091995239258 0.7403182983398438
16.470598220825195 9.449004173278809 0.7355368733406067
16.28647804260254 9.434761047363281 0.727933406829834
16.181316375732422 9.418744087219238 0.7229573726654053
16.095130920410156 9.414667129516602 0.7200025320053101
16.013885498046875 9.411799430847168 0.7161056995391846
15.923174858093262 9.403762817382812 0.7118070125579834
15.82179069519043 9.388771057128906 0.7081577777862549
15.743730545043945 9.386680603027344 0.7044074535369873
15.652549743652344 9.377157211303711 0.7012147903442383
15.566425323486328 9.370052337646484 0.6971269845962524
15.475717544555664 9.359258651733398 0.6928272843360901
15.403799057006836 9.360764503479004 0.6909557580947876
15.31151008605957 9.348243713378906 0.6878707408905029
15.240238189697266 9.348200798034668 0.6850829124450684
15.136411666870117 9.32907485961914 0.6806741952896118
15.06920337677002 9.330857276916504 0.6774364709854126
14.97476577758789 9.316695213317871 0.6736368536949158
14.898263931274414 9.31203842163086 0.6704362630844116
14.814184188842773 9.302292823791504 0.6670753955841064
14.736927032470703 9.297734260559082 0.6634253263473511
14.651605606079102 9.286466598510742 0.6598285436630249
14.571846008300781 9.278358459472656 0.6566656231880188
14.422346115112305 9.268760681152344 0.6500204801559448
14.189580917358398 9.245731353759766 0.6400620937347412
13.406518936157227 9.183428764343262 0.6081880927085876
13.188671112060547 9.157247543334961 0.5989546775817871
13.122689247131348 9.151851654052734 0.595844030380249
12.981077194213867 9.134588241577148 0.5896191596984863
12.910562515258789 9.125085830688477 0.5868716239929199
12.775822639465332 9.110777854919434 0.5805699825286865
12.732105255126953 9.119519233703613 0.5794392824172974
12.659453392028809 9.107776641845703 0.5760471820831299
12.605891227722168 9.109685897827148 0.5735344290733337
12.526287078857422 9.091788291931152 0.5702187418937683
12.472176551818848 9.093255996704102 0.5682454109191895
12.404537200927734 9.083427429199219 0.565081000328064
12.34603500366211 9.08000659942627 0.562337338924408
12.272470474243164 9.066363334655762 0.5598680973052979
12.218697547912598 9.06589412689209 0.5573367476463318
12.159786224365234 9.06252384185791 0.5546082854270935
12.10556697845459 9.061250686645508 0.5520681738853455
12.029081344604492 9.043008804321289 0.549436092376709
11.980081558227539 9.046292304992676 0.5479202270507812
11.92017650604248 9.039960861206055 0.5456597208976746
11.859145164489746 9.032976150512695 0.5428225994110107
11.799955368041992 9.027315139770508 0.540074348449707
11.749156951904297 9.027165412902832 0.5380759835243225
11.677146911621094 9.010910034179688 0.5352686047554016
11.620001792907715 9.006011009216309 0.5326203107833862
11.578535079956055 9.012395858764648 0.5306787490844727
11.453341484069824 8.99266242980957 0.5257824063301086
11.399702072143555 8.989317893981934 0.5232980847358704
11.287040710449219 8.977361679077148 0.5184493064880371
11.239116668701172 8.977849960327148 0.516750156879425
11.132241249084473 8.969070434570312 0.5118093490600586
11.083160400390625 8.967985153198242 0.5095476508140564
10.96385669708252 8.947654724121094 0.5049127340316772
10.810541152954102 8.93680477142334 0.4982253313064575
10.54538345336914 8.905604362487793 0.48676878213882446
10.499676704406738 8.905044555664062 0.48517483472824097
10.398584365844727 8.89422607421875 0.48089146614074707
10.348794937133789 8.889534950256348 0.47862544655799866
10.250995635986328 8.8801851272583 0.4746364951133728
10.202144622802734 8.875632286071777 0.47241640090942383
10.152652740478516 8.870110511779785 0.4705030620098114
10.095829010009766 8.858114242553711 0.4679141342639923
10.055925369262695 8.860102653503418 0.4660952091217041
9.998838424682617 8.847180366516113 0.4639769196510315
9.958415031433105 8.848962783813477 0.4621480703353882
9.90941047668457 8.842287063598633 0.4599136710166931
9.870661735534668 8.845022201538086 0.45850080251693726
9.820956230163574 8.837930679321289 0.45624929666519165
9.777623176574707 8.835726737976074 0.45474982261657715
9.72991943359375 8.829815864562988 0.45259273052215576
9.687557220458984 8.8287353515625 0.4506899118423462
9.633018493652344 8.816141128540039 0.44821369647979736
9.590914726257324 8.814251899719238 0.4466407299041748
9.543143272399902 8.80757999420166 0.4449519217014313
9.503957748413086 8.808453559875488 0.44319474697113037
9.448890686035156 8.79456901550293 0.4401055872440338
9.416731834411621 8.801624298095703 0.4386776089668274
9.364614486694336 8.78939437866211 0.43677395582199097
9.319353103637695 8.783987998962402 0.4347454607486725
9.277295112609863 8.781219482421875 0.4328618049621582
9.239873886108398 8.78222370147705 0.4311870336532593
9.192798614501953 8.774490356445312 0.42907312512397766
9.154501914978027 8.774759292602539 0.4276919960975647
9.110494613647461 8.769552230834961 0.42617952823638916
9.070261001586914 8.767159461975098 0.42437559366226196
9.015996932983398 8.751413345336914 0.4219306707382202
8.980948448181152 8.754289627075195 0.4203909933567047
8.93860149383545 8.749702453613281 0.4185020327568054
8.900762557983398 8.748905181884766 0.41681721806526184
8.851068496704102 8.736871719360352 0.41490668058395386
8.818984031677246 8.741849899291992 0.4139469563961029
8.779501914978027 8.738908767700195 0.4121828079223633
8.736974716186523 8.733373641967773 0.41029632091522217
8.685638427734375 8.718608856201172 0.4079964756965637
8.61746597290039 8.722905158996582 0.4050029218196869
8.577849388122559 8.7193603515625 0.40325772762298584
8.488384246826172 8.701417922973633 0.40002769231796265
8.45819091796875 8.70654010772705 0.3978443145751953
8.371728897094727 8.690471649169922 0.39402055740356445
8.342324256896973 8.695991516113281 0.39317870140075684
8.295173645019531 8.68389892578125 0.39109501242637634
8.253250122070312 8.675987243652344 0.38924115896224976
8.21147632598877 8.668024063110352 0.3873869776725769
8.184921264648438 8.677042007446289 0.3865831196308136
8.132164001464844 8.657033920288086 0.3842068910598755
8.06243896484375 8.655569076538086 0.38118976354599
8.038833618164062 8.666215896606445 0.38020089268684387
7.950904846191406 8.644156455993652 0.37674379348754883
7.919350624084473 8.645791053771973 0.3753775954246521
7.886053085327148 8.64645004272461 0.37396174669265747
7.835400581359863 8.626802444458008 0.37169933319091797
7.812681198120117 8.638357162475586 0.37077033519744873
7.768476486206055 8.625831604003906 0.3688264489173889
7.742269992828369 8.632691383361816 0.3677215576171875
7.696723937988281 8.618440628051758 0.36600565910339355
7.672025680541992 8.627191543579102 0.36539480090141296
7.626430511474609 8.611841201782227 0.3633735775947571
7.591150283813477 8.60854721069336 0.36157020926475525
7.555952072143555 8.604999542236328 0.35993480682373047
7.527979850769043 8.609111785888672 0.3587453365325928
7.484837055206299 8.596325874328613 0.35686272382736206
7.456483840942383 8.60017204284668 0.355680376291275
7.427357196807861 8.602581977844238 0.35443902015686035
7.386934280395508 8.592803955078125 0.35269731283187866
7.350818634033203 8.586773872375488 0.3511316180229187
7.318836212158203 8.586036682128906 0.3497813940048218
7.283616065979004 8.58116340637207 0.3482660949230194
7.25401496887207 8.582324981689453 0.34742310643196106
7.21344518661499 8.571399688720703 0.34566882252693176
7.184051513671875 8.572519302368164 0.3444278836250305
7.140931129455566 8.557073593139648 0.342530220746994
7.120929718017578 8.570255279541016 0.34176936745643616
7.076936721801758 8.553357124328613 0.3398287296295166
7.060957908630371 8.570192337036133 0.33923909068107605
7.0239129066467285 8.562435150146484 0.3376585841178894
6.980661869049072 8.545816421508789 0.33575356006622314
6.955303192138672 8.550928115844727 0.33471623063087463
6.9232330322265625 8.548742294311523 0.3333793878555298
6.886173248291016 8.539152145385742 0.33177757263183594
6.862433433532715 8.54594612121582 0.3308173418045044
6.823495388031006 8.534738540649414 0.32942527532577515
6.800384521484375 8.542116165161133 0.3286172151565552
6.756444454193115 8.5242280960083 0.32631802558898926
6.73292875289917 8.530867576599121 0.3253716230392456
6.687110900878906 8.509063720703125 0.32335078716278076
6.661862373352051 8.514312744140625 0.3223482668399811
6.635918617248535 8.517515182495117 0.32128196954727173
6.601856231689453 8.510164260864258 0.3198341131210327
6.568498134613037 8.504613876342773 0.3184378743171692
6.537178993225098 8.500469207763672 0.3175099194049835
6.47955846786499 8.49937629699707 0.31513869762420654
6.446571350097656 8.49260139465332 0.31373563408851624
6.386211395263672 8.487068176269531 0.3112366199493408
6.358822822570801 8.487271308898926 0.31011104583740234
6.326587200164795 8.481945037841797 0.3087765574455261
6.295653343200684 8.477121353149414 0.3074814975261688
6.264274597167969 8.471542358398438 0.30616334080696106
6.240215301513672 8.476825714111328 0.30522382259368896
6.200706481933594 8.459871292114258 0.30351388454437256
6.147796154022217 8.462198257446289 0.30138522386550903
6.117635726928711 8.457535743713379 0.3001273274421692
6.089385986328125 8.456464767456055 0.29846593737602234
6.054710388183594 8.445211410522461 0.29699239134788513
6.028533935546875 8.445659637451172 0.2963026165962219
6.004932880401611 8.450713157653809 0.295396625995636
5.968419075012207 8.43635082244873 0.29382920265197754
5.951026439666748 8.448897361755371 0.29320427775382996
5.916269779205322 8.437782287597656 0.29174742102622986
5.885509490966797 8.431079864501953 0.290468692779541
5.852541923522949 8.421031951904297 0.28907689452171326
5.8338847160339355 8.432567596435547 0.28841346502304077
5.801626205444336 8.423246383666992 0.2870607078075409
5.771850109100342 8.417353630065918 0.28582656383514404
5.744726181030273 8.416289329528809 0.2847486734390259
5.72879695892334 8.430471420288086 0.28420546650886536
5.691564559936523 8.413641929626465 0.282612144947052
5.664772033691406 8.41224479675293 0.2815452814102173
5.632326126098633 8.401641845703125 0.28018009662628174
5.616209030151367 8.416417121887207 0.27965253591537476
5.5836920738220215 8.405414581298828 0.27828624844551086
5.555253028869629 8.400374412536621 0.2771208882331848
5.526297569274902 8.395513534545898 0.2759568989276886
5.505948066711426 8.402515411376953 0.2751966118812561
5.469783306121826 8.385231971740723 0.2736489176750183
5.449700355529785 8.393574714660645 0.27292490005493164
5.412652015686035 8.37451171875 0.2708306610584259
5.3926568031311035 8.38233757019043 0.27010637521743774
5.361340522766113 8.372254371643066 0.2695234715938568
5.340529441833496 8.377988815307617 0.2687433660030365
5.312466144561768 8.372907638549805 0.26725852489471436
5.287445545196533 8.372294425964355 0.2662799060344696
5.256551265716553 8.361759185791016 0.26499396562576294
5.234408378601074 8.366147994995117 0.2641749382019043
5.206758975982666 8.360490798950195 0.26305335760116577
5.179948329925537 8.356034278869629 0.26197361946105957
5.156623840332031 8.358226776123047 0.2610960900783539
5.124706745147705 8.345198631286621 0.25975748896598816
5.100754737854004 8.344980239868164 0.2588233947753906
5.075118541717529 8.343038558959961 0.2578308880329132
5.043570518493652 8.330059051513672 0.2565104365348816
5.024656295776367 8.338300704956055 0.25584521889686584
5.003011226654053 8.342167854309082 0.25504451990127563
4.968598365783691 8.323898315429688 0.25357770919799805
4.949278831481934 8.331926345825195 0.2529080808162689
4.925561904907227 8.33132553100586 0.25198838114738464
4.888724327087402 8.30832576751709 0.2501524090766907
4.872133255004883 8.320745468139648 0.24962295591831207
4.855096817016602 8.33125114440918 0.24904653429985046
4.8244452476501465 8.318286895751953 0.24777144193649292
4.798948764801025 8.315204620361328 0.24654637277126312
4.775468826293945 8.314327239990234 0.24564000964164734
4.743418216705322 8.298351287841797 0.24497833847999573
4.720414161682129 8.299206733703613 0.24412301182746887
4.695785045623779 8.295917510986328 0.24281533062458038
4.648416996002197 8.293517112731934 0.24100801348686218
4.627354145050049 8.296256065368652 0.24022774398326874
4.582634925842285 8.29803466796875 0.2385600507259369
4.552457332611084 8.283966064453125 0.23706817626953125
4.531232833862305 8.287239074707031 0.23630750179290771
4.500334739685059 8.27146053314209 0.23501503467559814
4.483669757843018 8.281723976135254 0.2344672828912735
5.918254375457764 -10.386871337890625 0.2765658497810364
5.950676918029785 -10.392962455749512 0.2782212793827057
5.97700834274292 -10.38803482055664 0.2791557312011719
6.003695487976074 -10.384503364562988 0.28013256192207336
6.035200119018555 -10.38857650756836 0.28131526708602905
6.066575050354004 -10.392016410827637 0.2827957272529602
6.092704772949219 -10.387207984924316 0.2841753661632538
6.121780872344971 -10.386724472045898 0.28524595499038696
6.153919219970703 -10.391046524047852 0.2864563465118408
6.181359767913818 -10.387554168701172 0.28776484727859497
6.208780288696289 -10.384535789489746 0.2887763977050781
6.239005088806152 -10.385250091552734 0.290336936712265
6.294390678405762 -10.379018783569336 0.292684942483902
6.325818061828613 -10.381351470947266 0.29386699199676514
6.385903358459473 -10.382144927978516 0.2965700626373291
6.408819198608398 -10.370284080505371 0.29766613245010376
6.462512969970703 -10.359354019165039 0.2983850836753845
6.557011127471924 -10.365156173706055 0.3014169931411743
6.650947570800781 -10.368793487548828 0.3052997589111328
6.736011981964111 -10.357547760009766 0.3089112639427185
7.314480781555176 -10.322406768798828 0.3314515948295593
7.412860870361328 -10.323055267333984 0.3360670804977417
7.477794647216797 -10.321456909179688 0.3385908007621765
7.4987287521362305 -10.305273056030273 0.3396703004837036
7.5657501220703125 -10.305868148803711 0.3423011004924774
7.600320816040039 -10.308048248291016 0.34413641691207886
7.667212009429932 -10.307604789733887 0.3470931053161621
7.692172527313232 -10.29647445678711 0.3480379283428192
7.7289628982543945 -10.29975700378418 0.3494933247566223
7.753061771392822 -10.287332534790039 0.35086590051651
7.794315338134766 -10.297541618347168 0.3528815507888794
7.821572303771973 -10.287808418273926 0.3539069890975952
7.860086441040039 -10.294057846069336 0.3554719388484955
7.88456916809082 -10.281816482543945 0.3564065992832184
7.919488430023193 -10.281791687011719 0.35857996344566345
7.958879470825195 -10.2886962890625 0.35821110010147095
7.994181156158447 -10.28959846496582 0.35822516679763794
8.023821830749512 -10.28287410736084 0.3597070574760437
8.062359809875488 -10.288169860839844 0.36127668619155884
8.08785629272461 -10.275418281555176 0.3622291684150696
8.128364562988281 -10.282903671264648 0.3638888895511627
8.153119087219238 -10.270339965820312 0.36531364917755127
8.186325073242188 -10.267051696777344 0.3669510781764984
8.224337577819824 -10.270927429199219 0.3685038089752197
8.26302433013916 -10.275463104248047 0.37008774280548096
8.289392471313477 -10.263280868530273 0.37109047174453735
8.31800365447998 -10.255094528198242 0.3726963996887207
8.361736297607422 -10.26539421081543 0.3748418092727661
8.397163391113281 -10.264032363891602 0.376259446144104
8.496634483337402 -10.253410339355469 0.38025668263435364
8.53508186340332 -10.256410598754883 0.38265860080718994
8.609550476074219 -10.257726669311523 0.385689914226532
8.701725006103516 -10.236169815063477 0.39021483063697815
8.7432861328125 -10.241914749145508 0.39194267988204956
8.813066482543945 -10.236042022705078 0.3916269540786743
9.258195877075195 -10.220327377319336 0.41162222623825073
9.357346534729004 -10.200164794921875 0.41570913791656494
9.471067428588867 -10.194723129272461 0.4213070869445801
9.508453369140625 -10.192466735839844 0.4228801131248474
9.579118728637695 -10.181907653808594 0.42581906914711
9.619680404663086 -10.182599067687988 0.428392231464386
9.70286750793457 -10.184391021728516 0.4281080961227417
9.73117446899414 -10.171751022338867 0.42928677797317505
9.777854919433594 -10.176932334899902 0.4317514896392822
9.811185836791992 -10.16930103302002 0.43315449357032776
9.858741760253906 -10.175516128540039 0.43517112731933594
9.88383674621582 -10.158632278442383 0.43620285391807556
9.930702209472656 -10.16451358795166 0.43820565938949585
9.958747863769531 -10.150266647338867 0.4397274851799011
10.001800537109375 -10.151405334472656 0.44155555963516235
10.03933334350586 -10.147293090820312 0.4436645805835724
10.084529876708984 -10.150032043457031 0.4455883204936981
10.118857383728027 -10.141886711120605 0.4470372200012207
10.16694450378418 -10.147876739501953 0.44910871982574463
10.198328971862793 -10.13631820678711 0.45042580366134644
10.242801666259766 -10.137840270996094 0.45269542932510376
10.28286361694336 -10.135334014892578 0.4544186592102051
10.322582244873047 -10.131101608276367 0.4561001658439636
10.368824005126953 -10.134326934814453 0.458615779876709
10.442612648010254 -10.120808601379395 0.4617685377597809
10.49242877960205 -10.126947402954102 0.4639330208301544
10.523736953735352 -10.114344596862793 0.4656321406364441
10.573383331298828 -10.11941909790039 0.4677826166152954
10.598621368408203 -10.101516723632812 0.4670097529888153
10.692743301391602 -10.105629920959473 0.468970388174057
10.729181289672852 -10.097274780273438 0.47053444385528564
10.822501182556152 -10.100214004516602 0.4749554991722107
10.86182975769043 -10.094103813171387 0.47718173265457153
10.942895889282227 -10.084611892700195 0.4807063341140747
10.99151611328125 -10.086593627929688 0.4828181862831116
11.072975158691406 -10.075773239135742 0.48635855317115784
11.115488052368164 -10.072372436523438 0.4886023998260498
11.196063995361328 -10.059843063354492 0.4921175241470337
11.337074279785156 -10.058453559875488 0.4988465905189514
11.465410232543945 -10.044210433959961 0.504498302936554
11.560606002807617 -10.041872024536133 0.5090808868408203
11.603845596313477 -10.03725814819336 0.5110036134719849
11.70071792602539 -10.035218238830566 0.5109715461730957
11.735723495483398 -10.022533416748047 0.5125197172164917
11.838973999023438 -10.025310516357422 0.5170891284942627
11.887663841247559 -10.02374267578125 0.5192428827285767
11.91708755493164 -10.005587577819824 0.5205575823783875
11.973739624023438 -10.010862350463867 0.5230751037597656
12.015748023986816 -10.003177642822266 0.5249474048614502
12.071441650390625 -10.006475448608398 0.5274146199226379
12.105835914611816 -9.992158889770508 0.5289596915245056
12.167436599731445 -9.999898910522461 0.5326511859893799
12.202188491821289 -9.986104965209961 0.5342268943786621
12.25615119934082 -9.987356185913086 0.5366343259811401
12.307205200195312 -9.985801696777344 0.5389150977134705
12.35935115814209 -9.985649108886719 0.5412623882293701
12.401894569396973 -9.977039337158203 0.5431802272796631
12.451896667480469 -9.974042892456055 0.5454193353652954
12.493764877319336 -9.965087890625 0.5473242998123169
12.554689407348633 -9.970605850219727 0.5500549077987671
12.593125343322754 -9.957853317260742 0.5517980456352234
12.647743225097656 -9.958454132080078 0.5542645454406738
12.695218086242676 -9.951976776123047 0.5564002990722656
12.746710777282715 -9.94970417022705 0.5587402582168579
12.849583625793457 -9.943202018737793 0.5586705803871155
12.899723052978516 -9.93927001953125 0.5609495639801025
12.952686309814453 -9.936788558959961 0.56333988904953
12.993110656738281 -9.924301147460938 0.5651846528053284
13.054330825805664 -9.928234100341797 0.5683699250221252
13.104585647583008 -9.922340393066406 0.5706377625465393
13.151287078857422 -9.914831161499023 0.572780966758728
13.204252243041992 -9.91185188293457 0.5751980543136597
13.258638381958008 -9.908465385437012 0.5776531100273132
13.306679725646973 -9.901399612426758 0.5798669457435608
13.358573913574219 -9.895746231079102 0.5822238326072693
13.417122840881348 -9.896060943603516 0.5848937034606934
13.46992301940918 -9.891912460327148 0.5873227119445801
13.520309448242188 -9.884525299072266 0.5896211266517639
13.576377868652344 -9.882349967956543 0.5921973586082458
13.687795639038086 -9.875530242919922 0.5973021388053894
13.72362995147705 -9.858146667480469 0.599002480506897
13.839905738830566 -9.853574752807617 0.6043381690979004
13.903066635131836 -9.855132102966309 0.6072412729263306
13.956326484680176 -9.84815788269043 0.6096929311752319
14.008970260620117 -9.841822624206543 0.6121472716331482
14.072900772094727 -9.843181610107422 0.6137889623641968
14.125823974609375 -9.835326194763184 0.6125385165214539
14.18017578125 -9.829541206359863 0.6150624752044678
14.24616813659668 -9.830296516418457 0.6180680990219116
14.30435562133789 -9.826692581176758 0.6201519966125488
14.363300323486328 -9.823373794555664 0.6228877305984497
14.411293029785156 -9.811077117919922 0.6251211762428284
14.483747482299805 -9.816478729248047 0.6284500360488892
14.522706031799316 -9.798208236694336 0.6303125619888306
14.59156322479248 -9.800127029418945 0.6334736347198486
14.651487350463867 -9.796314239501953 0.63627028465271
14.70818042755127 -9.78935718536377 0.6389187574386597
14.767341613769531 -9.784034729003906 0.6416768431663513
14.836052894592285 -9.785316467285156 0.644860029220581
14.880937576293945 -9.76990795135498 0.6465567946434021
14.939620971679688 -9.763589859008789 0.6493045687675476
14.99783992767334 -9.757282257080078 0.6520466804504395
15.0694580078125 -9.758121490478516 0.6553448438644409
15.126514434814453 -9.750574111938477 0.6580498218536377
15.193460464477539 -9.748391151428223 0.6611618995666504
15.240615844726562 -9.733516693115234 0.6634311676025391
15.31198501586914 -9.734418869018555 0.6667624711990356
15.378318786621094 -9.730524063110352 0.6692113876342773
15.443353652954102 -9.72685432434082 0.6722744703292847
15.507102966308594 -9.722118377685547 0.6738972663879395
15.57261848449707 -9.716913223266602 0.6723716855049133
15.621366500854492 -9.702348709106445 0.6747297048568726
15.692097663879395 -9.70043659210205 0.6780266761779785
15.750473022460938 -9.690855979919434 0.6807971596717834
15.888118743896484 -9.684093475341797 0.687262773513794
15.960891723632812 -9.682525634765625 0.6906716823577881
16.024276733398438 -9.674764633178711 0.6936761140823364
16.089521408081055 -9.668099403381348 0.6956158876419067
16.223615646362305 -9.656471252441406 0.7019563913345337
16.291793823242188 -9.650764465332031 0.7051993012428284
16.36113166809082 -9.646026611328125 0.7084941864013672
16.495967864990234 -9.632135391235352 0.7148972749710083
16.63703727722168 -9.620780944824219 0.7209063172340393
16.69841194152832 -9.610088348388672 0.7238858938217163
16.83193016052246 -9.592792510986328 0.7297917604446411
16.919660568237305 -9.596329689025879 0.7339141368865967
17.060483932495117 -9.581464767456055 0.7406630516052246
17.19070053100586 -9.559588432312012 0.7405362129211426
17.268739700317383 -9.555315017700195 0.7437434196472168
17.4163818359375 -9.542236328125 0.7500905990600586
17.489770889282227 -9.534499168395996 0.7536071538925171
17.57014274597168 -9.5310697555542 0.7574337720870972
17.648876190185547 -9.525854110717773 0.7611887454986572
17.712661743164062 -9.512053489685059 0.7637938261032104
17.795284271240234 -9.508318901062012 0.7669956684112549
17.86701011657715 -9.498214721679688 0.7704709768295288
17.95267677307129 -9.496024131774902 0.7745431661605835
18.024717330932617 -9.48572826385498 0.7780399322509766
18.101350784301758 -9.477319717407227 0.7817296981811523
18.182994842529297 -9.472040176391602 0.7849314212799072
18.250619888305664 -9.45858383178711 0.7877291440963745
18.33191680908203 -9.451679229736328 0.7916287183761597
18.408641815185547 -9.442933082580566 0.7953746318817139
18.48336410522461 -9.431443214416504 0.7989884614944458
18.583187103271484 -9.43382453918457 0.8029864430427551
18.650348663330078 -9.418701171875 0.8057746887207031
18.74315643310547 -9.41596794128418 0.8102055788040161
18.814743041992188 -9.403083801269531 0.8137410879135132
18.907245635986328 -9.39888858795166 0.8181554079055786
18.984363555908203 -9.388142585754395 0.8190380334854126
19.06402587890625 -9.377752304077148 0.8183726072311401
19.14268684387207 -9.366312980651855 0.8221855163574219
19.238018035888672 -9.363525390625 0.8262108564376831
19.402925491333008 -9.342924118041992 0.834235429763794
19.487993240356445 -9.334117889404297 0.8376047611236572
19.661306381225586 -9.315536499023438 0.8454756140708923
19.75122833251953 -9.307390213012695 0.8490447402000427
20.00634765625 -9.274360656738281 0.8609690070152283
20.477190017700195 -9.232717514038086 0.88170325756073
20.738611221313477 -9.193262100219727 0.894023060798645
21.03086280822754 -9.165058135986328 0.9075057506561279
21.22323226928711 -9.142730712890625 0.9090650081634521
21.507577896118164 -9.105352401733398 0.9216464161872864
21.624664306640625 -9.102049827575684 0.9272874593734741
21.7130126953125 -9.085594177246094 0.9311010837554932
21.824264526367188 -9.078060150146484 0.9356468915939331
21.923925399780273 -9.066192626953125 0.940556526184082
22.026596069335938 -9.053598403930664 0.9449847936630249
22.127357482910156 -9.041383743286133 0.949104905128479
22.22870635986328 -9.029009819030762 0.9541033506393433
22.34219741821289 -9.019554138183594 0.959011435508728
22.446224212646484 -9.007423400878906 0.9632836580276489
22.54732894897461 -8.99278450012207 0.9683045148849487
22.65300750732422 -8.979825973510742 0.972896933555603
22.76266098022461 -8.96867847442627 0.9774249792098999
22.86890411376953 -8.954148292541504 0.9826523661613464
23.079822540283203 -8.926435470581055 0.9916345477104187
23.196786880493164 -8.914752960205078 0.9973653554916382
23.310333251953125 -8.902917861938477 1.0029773712158203
23.537673950195312 -8.87633991241455 1.0094777345657349
23.64398956298828 -8.860433578491211 1.0138933658599854
23.869611740112305 -8.830521583557129 1.0208022594451904
24.224689483642578 -8.789146423339844 1.036754846572876
25.32986831665039 -8.651407241821289 1.0850402116775513
25.720863342285156 -8.604774475097656 1.102759599685669
25.98714256286621 -8.572336196899414 1.1142929792404175
26.103818893432617 -8.550799369812012 1.1192290782928467
26.362098693847656 -8.512638092041016 1.1314418315887451
26.511871337890625 -8.500288963317871 1.1342840194702148
26.653507232666016 -8.482951164245605 1.1412684917449951
26.77993392944336 -8.462026596069336 1.143925666809082
26.916927337646484 -8.442864418029785 1.149730920791626
27.056617736816406 -8.424295425415039 1.1559510231018066
27.197067260742188 -8.40615463256836 1.161926031112671
27.629812240600586 -8.349984169006348 1.1809484958648682
27.770498275756836 -8.327799797058105 1.1879630088806152
27.931808471679688 -8.31303596496582 1.1948621273040771
28.064231872558594 -8.288000106811523 1.2008261680603027
28.22100067138672 -8.269887924194336 1.207529902458191
28.369403839111328 -8.249486923217773 1.2142095565795898
28.82797622680664 -8.186635971069336 1.234196662902832
29.127988815307617 -8.139429092407227 1.2474113702774048
29.616859436035156 -8.075657844543457 1.2691256999969482
31.64423370361328 -7.777156829833984 1.3534880876541138
32.00425338745117 -7.7228593826293945 1.3694937229156494
32.192344665527344 -7.697588920593262 1.3768705129623413
32.564395904541016 -7.641711711883545 1.3934326171875
32.74360656738281 -7.61210823059082 1.4012713432312012
33.11572265625 -7.551758766174316 1.4178946018218994
33.313026428222656 -7.522810935974121 1.4268878698349
33.49516296386719 -7.490029335021973 1.4340131282806396
33.69561004638672 -7.461465835571289 1.4428064823150635
34.09278869628906 -7.398935317993164 1.4605944156646729
34.283504486083984 -7.364582538604736 1.4693522453308105
34.50768280029297 -7.337858200073242 1.476518154144287
34.70023727416992 -7.302652835845947 1.4862573146820068
34.908241271972656 -7.2695088386535645 1.494495153427124
35.1059455871582 -7.2337751388549805 1.5023181438446045
35.32123947143555 -7.2017598152160645 1.513089895248413
35.535858154296875 -7.167421817779541 1.521632432937622
35.747249603271484 -7.131948947906494 1.530045509338379
36.16680145263672 -7.057409286499023 1.548961877822876
25.16632080078125 -3.9305830001831055 1.0803064107894897
36.72876739501953 -5.500265598297119 1.579429268836975
32.099178314208984 -4.738093376159668 1.382436752319336
41.91340637207031 -6.007401466369629 1.799919605255127
42.176849365234375 -5.954326629638672 1.811767816543579
42.43640899658203 -5.900082588195801 1.8223918676376343
42.69995880126953 -5.844874382019043 1.8331756591796875
42.980133056640625 -5.792386531829834 1.845778226852417
43.249114990234375 -5.736166954040527 1.8583683967590332
43.52420425415039 -5.679187774658203 1.8696706295013428
43.81067657470703 -5.624128341674805 1.8814705610275269
44.3644905090332 -5.505407333374023 1.9069676399230957
44.645652770996094 -5.445099830627441 1.9185621738433838
45.236419677734375 -5.323905944824219 1.9429678916931152
46.11479187011719 -5.133574485778809 1.9821150302886963
50.42674255371094 -3.6920156478881836 2.1746113300323486
50.4659423828125 -3.3742899894714355 2.1753501892089844
50.47150802612305 -3.056076765060425 2.1747095584869385
50.4822998046875 -2.845177173614502 2.1821186542510986
50.49639129638672 -2.7390823364257812 2.184248447418213
50.457420349121094 -2.631964683532715 2.1823368072509766
50.45972442626953 -2.5240120887756348 2.1822168827056885
50.477630615234375 -2.419905185699463 2.1827666759490967
50.46064758300781 -2.206134557723999 2.1816251277923584
50.48897933959961 -2.1024069786071777 2.1826508045196533
50.486793518066406 -1.8893604278564453 2.182180881500244
50.47325897216797 -1.782663345336914 2.1814486980438232
14.66018295288086 0.003944762982428074 -0.2373797744512558
14.685503005981445 0.034793417900800705 -0.23689480125904083
14.675765991210938 0.06522562354803085 -0.2358427345752716
14.674110412597656 0.15747453272342682 -0.2340359091758728
14.704068183898926 0.2507840394973755 -0.23220941424369812
