VERSION .7
FIELDS x y z
SIZE 4 4 4
TYPE F F F
COUNT 1 1 1
WIDTH 859
HEIGHT 1
VIEWPOINT 0 0 0 1 0 0 0
POINTS 859
DATA ascii
22.58150863647461 7.357458114624023 0.25985321402549744
22.552719116210938 7.399881839752197 0.2586178183555603
22.518287658691406 7.441906929016113 0.2584037482738495
22.471351623535156 7.4781575202941895 0.2576752305030823
22.322782516479492 7.533289432525635 0.2563304007053375
22.227508544921875 7.552554130554199 0.25541532039642334
18.924484252929688 7.651018142700195 0.21242809295654297
18.616533279418945 7.664025783538818 0.20828315615653992
18.309539794921875 7.672607421875 0.20416688919067383
18.11762237548828 7.681066036224365 0.20118039846420288
18.008920669555664 7.680082321166992 0.20015300810337067
17.8177490234375 7.68740177154541 0.19838915765285492
17.726411819458008 7.691667079925537 0.1963699609041214
17.636014938354492 7.695971488952637 0.1955450177192688
17.528364181518555 7.693609714508057 0.19453229010105133
17.434988021850586 7.695816516876221 0.19367322325706482
17.337047576904297 7.695612907409668 0.19276264309883118
17.261207580566406 7.706130027770996 0.19094927608966827
17.159595489501953 7.703513145446777 0.1900014579296112
17.063003540039062 7.703048229217529 0.18910913169384003
16.974470138549805 7.706461429595947 0.18830779194831848
16.88410758972168 7.707736015319824 0.1863492727279663
16.621950149536133 7.715006351470947 0.18399028480052948
14.932694435119629 7.7479939460754395 0.16326138377189636
14.72323989868164 7.757180690765381 0.16048860549926758
14.503408432006836 7.758234977722168 0.15761561691761017
14.295897483825684 7.7640604972839355 0.15489888191223145
14.153611183166504 7.763307571411133 0.15370537340641022
14.09375 7.769404411315918 0.1532331109046936
14.021903991699219 7.767783164978027 0.15189509093761444
13.948807716369629 7.765442848205566 0.15103548765182495
13.895848274230957 7.7746124267578125 0.15064147114753723
13.823604583740234 7.771902084350586 0.15002991259098053
13.755748748779297 7.771642684936523 0.14874708652496338
13.696130752563477 7.776327133178711 0.14804169535636902
13.642312049865723 7.78352689743042 0.147635355591774
13.552111625671387 7.770209789276123 0.14683657884597778
13.494860649108887 7.774640083312988 0.14567753672599792
13.444568634033203 7.783145904541016 0.14507520198822021
13.317900657653809 7.784883499145508 0.14405913650989532
13.251696586608887 7.783125877380371 0.14281490445137024
13.118969917297363 7.779664516448975 0.14150160551071167
12.942004203796387 7.7851080894470215 0.1398879736661911
12.76031494140625 7.785477638244629 0.13822469115257263
11.917401313781738 7.796506881713867 0.12821274995803833
11.754058837890625 7.795601844787598 0.1263338029384613
11.589984893798828 7.792136192321777 0.12573416531085968
11.498395919799805 7.801072120666504 0.12424785643815994
11.433504104614258 7.79174280166626 0.12372037768363953
11.386758804321289 7.795305252075195 0.1233934536576271
11.342256546020508 7.799712657928467 0.12245750427246094
11.29828929901123 7.804060459136963 0.1219482570886612
11.241069793701172 7.799806594848633 0.12150859832763672
11.199703216552734 7.805838584899902 0.12123758345842361
11.162364959716797 7.815042018890381 0.12038878351449966
11.100797653198242 7.806568145751953 0.11969346553087234
11.050496101379395 7.80551815032959 0.11932574957609177
11.001506805419922 7.805943012237549 0.11835731565952301
10.93889331817627 7.79594612121582 0.11765404790639877
10.899232864379883 7.801838397979736 0.11740157008171082
10.842174530029297 7.796077728271484 0.11696627736091614
10.806390762329102 7.804418087005615 0.11614372581243515
10.71003246307373 7.803668022155762 0.11525876075029373
10.657112121582031 7.799016952514648 0.11425776034593582
10.573781967163086 7.806625843048096 0.11351571977138519
10.528644561767578 7.807110786437988 0.11320493370294571
10.432914733886719 7.804435729980469 0.11332215368747711
10.378195762634277 7.797143936157227 0.11230888217687607
10.306458473205566 7.811368942260742 0.11168979108333588
10.178878784179688 7.815906524658203 0.11005416512489319
9.782608985900879 7.810231685638428 0.10524661093950272
9.66779613494873 7.818589210510254 0.10434878617525101
9.536694526672363 7.81223726272583 0.10270918160676956
9.445074081420898 7.803883075714111 0.10132847726345062
9.419278144836426 7.815518379211426 0.10196929425001144
9.359230041503906 7.798544406890869 0.10130950808525085
9.321901321411133 7.80124044418335 0.10052904486656189
9.290862083435059 7.80810546875 0.10036769509315491
9.25314712524414 7.809230327606201 0.09995071589946747
9.217350006103516 7.812796115875244 0.09974424540996552
9.171121597290039 7.8063740730285645 0.0988679900765419
9.137383460998535 7.811380386352539 0.09868268668651581
9.11011028289795 7.820845603942871 0.09838148206472397
9.054913520812988 7.806157112121582 0.09741155803203583
9.027969360351562 7.816610336303711 0.09730128943920135
8.994291305541992 7.820167541503906 0.09693120419979095
8.957159042358398 7.8215436935424805 0.09616566449403763
8.91494369506836 7.817347049713135 0.0958879292011261
8.866556167602539 7.807523727416992 0.09536150842905045
8.837601661682129 7.815608501434326 0.09522798657417297
8.805168151855469 7.8195481300354 0.09451313316822052
8.752655982971191 7.80546236038208 0.0939469188451767
8.721662521362305 7.81133508682251 0.0937923938035965
8.681487083435059 7.807881832122803 0.09299877285957336
8.657628059387207 7.81898307800293 0.09273894131183624
8.60496711730957 7.804862022399902 0.09235476702451706
8.579878807067871 7.814621448516846 0.09172701835632324
8.50532054901123 7.8125 0.091631680727005
8.467836380004883 7.810529708862305 0.09122663736343384
8.39637565612793 7.8103179931640625 0.09028564393520355
8.366375923156738 7.814858913421631 0.08996282517910004
8.249749183654785 7.80384635925293 0.08854268491268158
8.08072280883789 7.806314468383789 0.0869176983833313
7.981933116912842 7.80919885635376 0.08570310473442078
7.8737993240356445 7.800885200500488 0.08439300209283829
7.8234992027282715 7.815897464752197 0.08352242410182953
7.785548210144043 7.81104850769043 0.08329538255929947
7.719912052154541 7.809995651245117 0.08227004110813141
7.681530475616455 7.804205417633057 0.08220390230417252
7.653781890869141 7.808359622955322 0.08191420137882233
7.623751640319824 7.811031341552734 0.08127033710479736
7.59276819229126 7.811653137207031 0.08111245930194855
7.55340576171875 7.803490161895752 0.08069999516010284
7.52311897277832 7.8054986000061035 0.08005766570568085
7.491830825805664 7.805388450622559 0.07989609241485596
7.460345268249512 7.805179119110107 0.0795709565281868
7.431354522705078 7.8079376220703125 0.07894449681043625
7.401329040527344 7.808776378631592 0.07879713177680969
7.371933460235596 7.810396671295166 0.07849396020174026
7.332025527954102 7.8011980056762695 0.07775436341762543
7.3101067543029785 7.8105292320251465 0.07769279181957245
7.275472164154053 7.806647300720215 0.07734055072069168
7.252311706542969 7.81424617767334 0.0772649347782135
7.2152099609375 7.806936264038086 0.0765582025051117
7.186049461364746 7.808547019958496 0.07626208662986755
7.155229568481445 7.807511329650879 0.07610692083835602
7.125880241394043 7.808911323547363 0.0754888653755188
7.095762729644775 7.808389186859131 0.07518001645803452
7.064918518066406 7.8071746826171875 0.0750264823436737
7.027889728546143 7.799443244934082 0.07432667911052704
7.004420757293701 7.805910110473633 0.07408890128135681
6.980799198150635 7.8123779296875 0.07401211559772491
6.948896408081055 7.8099517822265625 0.0732126384973526
6.913741111755371 7.802987575531006 0.07301217317581177
6.890438556671143 7.809515476226807 0.07293783873319626
6.824726581573486 7.800777912139893 0.07195600122213364
6.7353739738464355 7.797257423400879 0.07090193033218384
6.671797752380371 7.8225321769714355 0.07011985033750534
6.609438896179199 7.815845966339111 0.06918492913246155
6.567574977874756 7.799108982086182 0.06891803443431854
6.518274784088135 7.8070597648620605 0.06812269985675812
6.435275077819824 7.806890487670898 0.06714819371700287
6.381563186645508 7.808499813079834 0.06693236529827118
6.34915018081665 7.801825523376465 0.06660818308591843
6.323622703552246 7.804210662841797 0.06605397164821625
6.301856517791748 7.810671329498291 0.06599682569503784
6.26889181137085 7.80362606048584 0.06490954756736755
6.239889144897461 7.800622463226318 0.0647776797413826
6.207354545593262 7.793291091918945 0.06415298581123352
6.189515113830566 7.804807186126709 0.06398682296276093
6.160177230834961 7.801009654998779 0.06385087966918945
6.129851818084717 7.79605770111084 0.06324920058250427
6.108658790588379 7.803110122680664 0.06305322051048279
6.0837202072143555 7.804812431335449 0.06296338140964508
6.051549434661865 7.796855926513672 0.06234443932771683
6.033417701721191 7.8076276779174805 0.06217896565794945
6.001213550567627 7.799598217010498 0.06201557070016861
5.966333389282227 7.788390159606934 0.061375465244054794
5.952300071716309 7.803808212280273 0.06124960631132126
5.921540260314941 7.796981334686279 0.0610998161137104
5.900978088378906 7.804218769073486 0.06060796231031418
5.868164539337158 7.794638633728027 0.060290418565273285
5.847451210021973 7.800761699676514 0.06024475768208504
5.825094223022461 7.805378437042236 0.05973806604743004
5.800321102142334 7.806173324584961 0.05950355529785156
5.764470100402832 7.792394161224365 0.05930549278855324
5.744440078735352 7.799365997314453 0.059119902551174164
5.716653347015381 7.79546594619751 0.058557309210300446
5.699977397918701 7.807397842407227 0.05855531990528107
5.6706223487854 7.801380157470703 0.05827462673187256
5.645121097564697 7.800281524658203 0.05700337141752243
5.620647430419922 7.801250457763672 0.05692305043339729
5.596602916717529 7.8022141456604 0.05669902265071869
5.556269645690918 7.815018653869629 0.05618162825703621
5.517558574676514 7.795022964477539 0.055810265243053436
5.475698947906494 7.805385112762451 0.05528188496828079
5.444705963134766 7.795566558837891 0.05498791113495827
5.398010730743408 7.798464775085449 0.05441231653094292
5.379106521606445 7.805719375610352 0.05424133688211441
5.351939678192139 7.801915168762207 0.054135844111442566
5.323859214782715 7.795611381530762 0.05358149856328964
5.281040191650391 7.803274631500244 0.05333755910396576
5.250964641571045 7.793629169464111 0.05276680737733841
5.2098846435546875 7.803375720977783 0.052540697157382965
5.184444427490234 7.800274848937988 0.05201806128025055
5.16500186920166 7.807148456573486 0.051848381757736206
5.146785736083984 7.814807891845703 0.05182696878910065
5.112122058868408 7.7973527908325195 0.051213912665843964
5.0911712646484375 7.801693439483643 0.051029033958911896
5.067258834838867 7.800371170043945 0.05010201781988144
5.038240432739258 7.7918291091918945 0.049978408962488174
5.024115562438965 7.805721282958984 0.05000010505318642
4.9943461418151855 7.794966697692871 0.049299925565719604
4.970238208770752 7.793682098388672 0.049224853515625
4.949770450592041 7.797492980957031 0.04918357729911804
4.927763938903809 7.799338340759277 0.04856588691473007
4.901458740234375 7.793735980987549 0.0484672449529171
4.875570297241211 7.788388729095459 0.048370860517024994
4.857151508331299 7.795680999755859 0.047931015491485596
4.829105854034424 7.78688907623291 0.04767569527029991
4.816734790802002 7.803046703338623 0.04771317541599274
4.794187545776367 7.803768157958984 0.04723447561264038
4.768452167510986 7.79811429977417 0.04700189828872681
4.747864246368408 7.800771713256836 0.04695827141404152
4.7217254638671875 7.7952728271484375 0.04630816727876663
4.696017265319824 7.7892608642578125 0.0462145134806633
4.678639888763428 7.79779577255249 0.04620613902807236
4.658119201660156 7.800507545471191 0.045747317373752594
4.626729965209961 7.784596920013428 0.045460525900125504
4.6104278564453125 7.795035362243652 0.04546389728784561
4.581406593322754 7.782781600952148 0.04492286592721939
4.562709808349609 7.7879438400268555 0.04476102069020271
4.539069652557373 7.785677909851074 0.04469200596213341
4.511463165283203 7.775365352630615 0.04389398172497749
4.490701675415039 7.776715278625488 0.043848901987075806
30.51236915588379 3.933377265930176 0.6206912994384766
30.453136444091797 4.1205315589904785 0.6200002431869507
30.404701232910156 4.308787822723389 0.617678701877594
30.351478576660156 4.431714057922363 0.616971492767334
30.267654418945312 4.6139936447143555 0.6158455014228821
30.154300689697266 4.790876388549805 0.6122757196426392
28.99460792541504 6.563729286193848 0.5875613689422607
28.876598358154297 6.728128433227539 0.5855556726455688
28.768138885498047 6.893813133239746 0.5828756093978882
28.673105239868164 6.9988579750061035 0.5810850262641907
28.658382415771484 7.0583109855651855 0.5810810327529907
28.575244903564453 7.165610313415527 0.5786611437797546
28.546682357788086 7.221446990966797 0.5783836841583252
28.476736068725586 7.331490516662598 0.5771328210830688
28.369598388671875 7.494388103485107 0.5745699405670166
28.256275177001953 7.654804229736328 0.5727816820144653
25.397335052490234 8.333250999450684 0.5127592086791992
24.857175827026367 8.329468727111816 0.5012874603271484
24.342931747436523 8.327729225158691 0.4903919994831085
24.031835556030273 8.334519386291504 0.48482775688171387
23.849002838134766 8.326595306396484 0.4799443483352661
23.535062789916992 8.328350067138672 0.4743279218673706
23.39196014404297 8.332371711730957 0.4717915952205658
23.086816787719727 8.33340835571289 0.4648418724536896
22.936241149902344 8.332895278930664 0.46215760707855225
22.628925323486328 8.329290390014648 0.4566681385040283
22.500442504882812 8.335058212280273 0.4533270597457886
22.212154388427734 8.334813117980957 0.4478571116924286
21.79766845703125 8.335983276367188 0.43948113918304443
19.13153076171875 8.347537994384766 0.3854277729988098
18.830032348632812 8.358322143554688 0.3791549801826477
18.509220123291016 8.355598449707031 0.37126055359840393
18.30290985107422 8.354419708251953 0.36781811714172363
18.214080810546875 8.360595703125 0.3663874566555023
18.011009216308594 8.359395980834961 0.3617950975894928
17.89698028564453 8.351655960083008 0.35985249280929565
17.80520248413086 8.35420036315918 0.35835838317871094
17.70975112915039 8.355290412902832 0.3567935824394226
17.618453979492188 8.35696029663086 0.3541122078895569
17.51310157775879 8.351881980895996 0.35234335064888
17.420425415039062 8.353079795837402 0.35083499550819397
17.32975196838379 8.353878021240234 0.34935635328292847
17.13448715209961 8.348861694335938 0.3449643850326538
17.059236526489258 8.356046676635742 0.34379902482032776
16.87335777282715 8.353289604187012 0.339896023273468
16.775554656982422 8.34858226776123 0.33798980712890625
15.048883438110352 8.335803985595703 0.30452898144721985
14.826072692871094 8.334615707397461 0.30003565549850464
14.622373580932617 8.341511726379395 0.295945405960083
14.38299560546875 8.326112747192383 0.29215967655181885
14.251617431640625 8.329514503479004 0.28918492794036865
14.197795867919922 8.338506698608398 0.28845226764678955
14.050163269042969 8.330711364746094 0.28540849685668945
13.976659774780273 8.327245712280273 0.284026175737381
13.919180870056152 8.332474708557129 0.28321218490600586
13.840030670166016 8.3241548538208 0.2819517254829407
13.78378963470459 8.33018970489502 0.28042691946029663
13.706575393676758 8.322693824768066 0.27896466851234436
13.654268264770508 8.330621719360352 0.2782599627971649
13.579635620117188 8.323806762695312 0.277091383934021
13.508389472961426 8.3190336227417 0.27526333928108215
13.449657440185547 8.322260856628418 0.27418333292007446
13.385720252990723 8.32144546508789 0.27323535084724426
13.267242431640625 8.325180053710938 0.2708117961883545
13.196515083312988 8.31929874420166 0.26948314905166626
13.008124351501465 8.315267562866211 0.2659917175769806
12.823015213012695 8.310953140258789 0.2635032832622528
11.943648338317871 8.286492347717285 0.247124582529068
11.780628204345703 8.283580780029297 0.24416525661945343
11.626270294189453 8.284756660461426 0.241169735789299
11.529958724975586 8.289562225341797 0.2405426800251007
11.468595504760742 8.281599998474121 0.23962047696113586
11.355032920837402 8.272574424743652 0.2371155321598053
11.325946807861328 8.287416458129883 0.2368670552968979
11.260480880737305 8.276506423950195 0.23586730659008026
11.213626861572266 8.277966499328613 0.2346065640449524
11.161789894104004 8.276330947875977 0.23367707431316376
11.122241020202637 8.283096313476562 0.23321105539798737
11.064386367797852 8.275760650634766 0.23172461986541748
11.00718879699707 8.269444465637207 0.2308935523033142
10.964900970458984 8.273589134216309 0.2301602065563202
10.914602279663086 8.271238327026367 0.22946380078792572
10.86915397644043 8.273408889770508 0.22825315594673157
10.82311725616455 8.273896217346191 0.2274387925863266
10.773488998413086 8.271435737609863 0.22675608098506927
10.714599609375 8.262664794921875 0.22526760399341583
10.657642364501953 8.254067420959473 0.22442986071109772
10.57630443572998 8.262563705444336 0.22324399650096893
10.537331581115723 8.267387390136719 0.22216875851154327
10.44325065612793 8.264863014221191 0.22071422636508942
10.30114459991455 8.258247375488281 0.21900267899036407
10.169804573059082 8.258511543273926 0.2171107977628708
10.040253639221191 8.258591651916504 0.21465501189231873
9.777883529663086 8.252084732055664 0.20969612896442413
9.647852897644043 8.24675178527832 0.2072402536869049
9.510257720947266 8.233170509338379 0.20462484657764435
9.424995422363281 8.22905158996582 0.20353396236896515
9.397334098815918 8.239331245422363 0.20254205167293549
9.316238403320312 8.237881660461426 0.20210734009742737
9.27437973022461 8.235225677490234 0.20156991481781006
9.230339050292969 8.231452941894531 0.20042824745178223
9.192124366760254 8.231681823730469 0.19978030025959015
9.150325775146484 8.228530883789062 0.1992429494857788
9.109149932861328 8.226767539978027 0.1981654167175293
9.073192596435547 8.22854232788086 0.1977548897266388
9.038762092590332 8.231566429138184 0.19719073176383972
8.99360466003418 8.22565746307373 0.19658821821212769
8.95937728881836 8.228562355041504 0.19565430283546448
8.9281644821167 8.235125541687012 0.195171058177948
8.866896629333496 8.21273422241211 0.19420592486858368
8.853998184204102 8.234991073608398 0.19374121725559235
8.8043212890625 8.223934173583984 0.19285514950752258
8.769761085510254 8.22579574584961 0.19247257709503174
8.726362228393555 8.219198226928711 0.19134336709976196
8.685934066772461 8.216204643249512 0.19066034257411957
8.64566421508789 8.212174415588379 0.19015060365200043
8.624006271362305 8.225712776184082 0.19004790484905243
8.567365646362305 8.20671272277832 0.18846175074577332
8.545400619506836 8.219743728637695 0.18835461139678955
8.479896545410156 8.2257719039917 0.186949223279953
8.425945281982422 8.20744514465332 0.18649466335773468
8.361466407775879 8.213544845581055 0.18583019077777863
8.324112892150879 8.211114883422852 0.18466800451278687
8.253072738647461 8.209653854370117 0.1838543713092804
8.144625663757324 8.20428466796875 0.18187665939331055
8.04604721069336 8.207793235778809 0.18012657761573792
7.929024696350098 8.191545486450195 0.17796830832958221
7.8459062576293945 8.20831298828125 0.1765628159046173
7.7760443687438965 8.203365325927734 0.1750684678554535
7.729863166809082 8.189366340637207 0.17442087829113007
7.663262367248535 8.186860084533691 0.1730004847049713
7.636221885681152 8.192732810974121 0.17278224229812622
7.571822643280029 8.192544937133789 0.17210450768470764
7.536342144012451 8.188180923461914 0.17117337882518768
7.511744499206543 8.195772171020508 0.17083463072776794
7.472352027893066 8.187589645385742 0.1703324019908905
7.438493728637695 8.184536933898926 0.169439435005188
7.40748405456543 8.18472671508789 0.16895721852779388
7.383439540863037 8.193020820617676 0.16880306601524353
7.349107265472412 8.189031600952148 0.1679014414548874
7.315269470214844 8.186440467834473 0.1673620343208313
7.2864580154418945 8.188334465026855 0.16709136962890625
7.258040428161621 8.190814018249512 0.16633012890815735
7.221428871154785 8.184404373168945 0.16572067141532898
7.197254180908203 8.191205978393555 0.1655559092760086
7.163378715515137 8.187105178833008 0.16467255353927612
7.121849060058594 8.17456340789795 0.16395220160484314
7.0910491943359375 8.173394203186035 0.1636323779821396
7.065858364105225 8.17883586883545 0.16294939815998077
7.033885955810547 8.1768217086792 0.16244801878929138
6.997718811035156 8.169257164001465 0.1620069295167923
6.972933769226074 8.175355911254883 0.1613391488790512
6.956844329833984 8.19085693359375 0.16119784116744995
6.9113006591796875 8.171794891357422 0.16053973138332367
6.878612518310547 8.168219566345215 0.1596938818693161
6.846205711364746 8.164314270019531 0.15917447209358215
6.829933166503906 8.17932415008545 0.15918713808059692
6.802184581756592 8.181303024291992 0.1582956463098526
6.766964912414551 8.173638343811035 0.15787580609321594
6.735754013061523 8.17039680480957 0.1575399935245514
6.711483955383301 8.176228523254395 0.15673404932022095
6.673175811767578 8.164300918579102 0.15623757243156433
6.5907745361328125 8.167742729187012 0.1548658311367035
6.530789375305176 8.163516998291016 0.15362632274627686
6.449623107910156 8.166783332824707 0.15228383243083954
6.37309455871582 8.175021171569824 0.15105465054512024
6.30955696105957 8.164196014404297 0.15020674467086792
6.2751007080078125 8.154529571533203 0.1497875154018402
6.220032691955566 8.153788566589355 0.14866644144058228
6.1963791847229 8.158609390258789 0.14851415157318115
6.137800693511963 8.151758193969727 0.14652322232723236
6.1040940284729 8.142876625061035 0.14612916111946106
6.085340976715088 8.153318405151367 0.14608800411224365
6.052460193634033 8.144468307495117 0.14508502185344696
6.030594825744629 8.151101112365723 0.14497357606887817
6.006909370422363 8.154685020446777 0.14481563866138458
5.976343154907227 8.148547172546387 0.14386732876300812
5.948110103607178 8.14622688293457 0.14360468089580536
5.9268798828125 8.152881622314453 0.1435028314590454
5.891860485076904 8.140959739685059 0.14245951175689697
5.871438980102539 8.148551940917969 0.1423773467540741
5.844239234924316 8.146393775939941 0.14212724566459656
5.816665172576904 8.144372940063477 0.14126554131507874
5.795902252197266 8.151275634765625 0.14117377996444702
5.76547384262085 8.145007133483887 0.14085352420806885
5.730632305145264 8.131516456604004 0.1398070603609085
5.72234582901001 8.155912399291992 0.14001914858818054
5.687540054321289 8.142984390258789 0.13959072530269623
5.663087844848633 8.14418888092041 0.13880261778831482
5.636874198913574 8.142488479614258 0.13857513666152954
5.615379333496094 8.148313522338867 0.13847069442272186
5.579968452453613 8.133265495300293 0.13741444051265717
5.560109615325928 8.140481948852539 0.1373414695262909
5.535902500152588 8.142065048217773 0.1362696886062622
5.508652210235596 8.138525009155273 0.1360170990228653
5.480338096618652 8.133805274963379 0.13529367744922638
5.460512638092041 8.14105224609375 0.13507592678070068
5.434318542480469 8.138457298278809 0.134844571352005
5.379300594329834 8.129992485046387 0.13373330235481262
5.356703758239746 8.132463455200195 0.13359099626541138
5.313453197479248 8.14123249053955 0.13277143239974976
5.275100231170654 8.119230270385742 0.13223476707935333
5.26218318939209 8.137347221374512 0.13190098106861115
5.233287811279297 8.12961196899414 0.13145384192466736
5.181738376617432 8.124507904052734 0.1305745542049408
5.166839122772217 8.138348579406738 0.13047786056995392
5.117977142333984 8.136916160583496 0.12966671586036682
5.042181015014648 8.129363059997559 0.12889361381530762
4.996443271636963 8.131878852844238 0.12801678478717804
4.973114967346191 8.131694793701172 0.12785053253173828
4.94198751449585 8.119441032409668 0.12662442028522491
4.917795181274414 8.117853164672852 0.12600429356098175
4.89685583114624 8.121270179748535 0.12575502693653107
4.8747358322143555 8.123779296875 0.12563222646713257
4.839856147766113 8.103721618652344 0.12473386526107788
4.826078414916992 8.119726181030273 0.1246786117553711
4.806707382202148 8.125760078430176 0.1246163472533226
4.7770280838012695 8.11396598815918 0.12385131418704987
4.752366065979004 8.111379623413086 0.12351527810096741
4.7353997230529785 8.121295928955078 0.12351527810096741
4.704124450683594 8.106269836425781 0.12270835787057877
4.686433792114258 8.115671157836914 0.12255653738975525
4.6572651863098145 8.103947639465332 0.12223328649997711
4.644906044006348 8.121407508850098 0.12192165106534958
4.615851402282715 8.110761642456055 0.12147180736064911
4.592395782470703 8.108643531799316 0.12129738181829453
4.567263603210449 8.104307174682617 0.12066099047660828
4.553772926330566 8.120006561279297 0.12061096727848053
4.523629188537598 8.10563850402832 0.12025772780179977
4.504828929901123 8.112338066101074 0.11978929489850998
4.4835991859436035 8.114023208618164 0.11953514814376831
4.45941686630249 8.10997200012207 0.1193389967083931
4.437112331390381 8.110396385192871 0.11878074705600739
4.408580303192139 8.098109245300293 0.11832746863365173
4.388519763946533 8.102136611938477 0.11810995638370514
4.366944313049316 8.102703094482422 0.11742299795150757
15.37597370147705 8.101982116699219 0.2591131925582886
15.147872924804688 8.103865623474121 0.2550739049911499
14.995267868041992 8.103633880615234 0.25307637453079224
14.766410827636719 8.100308418273926 0.24904032051563263
12.542534828186035 8.09415054321289 0.21116092801094055
12.360669136047363 8.087305068969727 0.20737266540527344
12.247418403625488 8.08707046508789 0.2058180868625641
12.169331550598145 8.071821212768555 0.20411719381809235
12.076798439025879 8.08388900756836 0.2022480070590973
12.007340431213379 8.073527336120605 0.20136524736881256
11.920061111450195 8.087946891784668 0.19959279894828796
11.848952293395996 8.075657844543457 0.19846366345882416
11.740259170532227 8.074196815490723 0.1965581774711609
11.683219909667969 8.070733070373535 0.1956651508808136
11.5760498046875 8.068925857543945 0.19379225373268127
11.430607795715332 8.074792861938477 0.19113540649414062
10.211347579956055 8.04793643951416 0.16963176429271698
10.081705093383789 8.049779891967773 0.16674651205539703
9.998514175415039 8.051788330078125 0.16572824120521545
9.948263168334961 8.046161651611328 0.16459152102470398
9.85398006439209 8.038787841796875 0.16281414031982422
9.8242826461792 8.048575401306152 0.1625993251800537
9.735886573791504 8.044914245605469 0.16092440485954285
9.685924530029297 8.037511825561523 0.16037395596504211
9.643619537353516 8.036506652832031 0.15918508172035217
9.602362632751465 8.036697387695312 0.1587851196527481
9.552462577819824 8.028701782226562 0.1574731469154358
9.524463653564453 8.039204597473145 0.1572885811328888
9.489723205566406 8.044410705566406 0.15699613094329834
9.424576759338379 8.022856712341309 0.15543779730796814
9.352493286132812 8.029669761657715 0.1540530025959015
9.31203842163086 8.028812408447266 0.1536625623703003
9.2294340133667 8.02535629272461 0.15210768580436707
9.18956470489502 8.024483680725098 0.1506088823080063
9.078049659729004 8.028249740600586 0.1488656848669052
8.504484176635742 8.01217269897461 0.1392485350370407
8.389988899230957 8.004459381103516 0.13677924871444702
8.326873779296875 8.011502265930176 0.13559380173683167
8.286727905273438 8.006057739257812 0.13485834002494812
8.217462539672852 8.006322860717773 0.13357801735401154
8.182696342468262 8.00561809539795 0.1332823634147644
8.118342399597168 8.009848594665527 0.13208596408367157
8.072025299072266 7.9972758293151855 0.13090911507606506
7.9953718185424805 7.988334655761719 0.12952037155628204
7.980048656463623 8.006185531616211 0.12954051792621613
7.940176963806152 8.00029182434082 0.12899841368198395
7.90742301940918 8.00042724609375 0.12822109460830688
7.861589431762695 7.9878716468811035 0.1277521848678589
7.835427761077881 7.9946489334106445 0.12691527605056763
7.801412582397461 7.993056297302246 0.12663209438323975
7.764620304107666 7.989191055297852 0.125629723072052
7.728550434112549 7.985409736633301 0.12531587481498718
7.696903228759766 7.985806941986084 0.12439291179180145
7.671633243560791 7.993692874908447 0.1242610365152359
7.633225917816162 7.986783981323242 0.12373922020196915
7.60152530670166 7.98746395111084 0.12299472093582153
7.572343826293945 7.990180969238281 0.12262441217899323
7.540390491485596 7.989606857299805 0.12187208980321884
7.481163024902344 7.994029998779297 0.12028774619102478
7.444632530212402 7.988157272338867 0.11996649205684662
7.3833160400390625 7.98956298828125 0.1188550814986229
7.346676826477051 7.983088493347168 0.11836778372526169
7.278081893920898 7.975701808929443 0.11714337021112442
7.186711311340332 7.9756999015808105 0.11533001065254211
7.091706275939941 7.970457553863525 0.11395542323589325
7.0027174949646 7.971029758453369 0.11252138763666153
6.917265892028809 7.9750518798828125 0.11082956194877625
6.848215103149414 7.962208271026611 0.10961250960826874
6.827627182006836 7.972413539886475 0.1093936413526535
6.76922082901001 7.971924781799316 0.10851553827524185
6.727127552032471 7.955756187438965 0.10778842866420746
6.681107521057129 7.9691596031188965 0.10695292055606842
6.65024995803833 7.965871810913086 0.10624652355909348
6.592264652252197 7.964354991912842 0.10522544384002686
6.566756725311279 7.967140197753906 0.10492430627346039
6.5388078689575195 7.967105388641357 0.1042713075876236
6.511496543884277 7.968232154846191 0.10394828021526337
6.484135627746582 7.968441009521484 0.10330469161272049
6.4474310874938965 7.957254409790039 0.10282938182353973
6.425195693969727 7.964288711547852 0.10227444022893906
6.390969276428223 7.955588340759277 0.1018376424908638
6.358019828796387 7.9492950439453125 0.10158243030309677
6.329623222351074 7.947545528411865 0.10077229142189026
6.310963153839111 7.958196640014648 0.10073897242546082
6.277656078338623 7.950778484344482 0.09985857456922531
6.245369911193848 7.943725109100342 0.09960710257291794
6.221694469451904 7.94774866104126 0.09903126955032349
6.188298225402832 7.939725875854492 0.0986148864030838
6.163412094116211 7.941980361938477 0.09802211076021194
6.139708042144775 7.9454240798950195 0.09775388240814209
6.118214130401611 7.952413558959961 0.09721942245960236
6.093020915985107 7.954017162322998 0.09693141281604767
6.062774181365967 7.94940185546875 0.09671826660633087
6.02644681930542 7.935867786407471 0.09579363465309143
6.014822959899902 7.955034255981445 0.09587220847606659
5.9807844161987305 7.944988250732422 0.09499126672744751
5.953958511352539 7.943606853485107 0.09482686966657639
5.930327892303467 7.946638107299805 0.09410974383354187
5.9102654457092285 7.954900741577148 0.09405875205993652
5.8744354248046875 7.941298007965088 0.09315004199743271
5.822742462158203 7.940896987915039 0.09225665032863617
5.798147201538086 7.9421162605285645 0.09212969243526459
5.7470622062683105 7.941908359527588 0.09124768525362015
5.722862720489502 7.943375587463379 0.09052975475788116
5.673108100891113 7.944647312164307 0.09012289345264435
5.6372575759887695 7.929184913635254 0.08936817944049835
5.593308925628662 7.937945365905762 0.08860784769058228
5.534306526184082 7.924882888793945 0.0876113772392273
5.513970851898193 7.93077278137207 0.08740314841270447
5.46563720703125 7.9323225021362305 0.08657744526863098
5.438173294067383 7.927624225616455 0.08640291541814804
5.385279178619385 7.9218316078186035 0.08550751209259033
5.364531517028809 7.926641941070557 0.08529341220855713
5.334930419921875 7.919296741485596 0.08465397357940674
5.3225250244140625 7.936375141143799 0.08457289636135101
5.2884674072265625 7.921863079071045 0.08386179804801941
5.266061305999756 7.9241204261779785 0.08362448215484619
5.245309829711914 7.9285383224487305 0.0831199511885643
5.220609664916992 7.927692413330078 0.08285084366798401
5.197244644165039 7.928243160247803 0.0823080912232399
5.169740200042725 7.922091960906982 0.08198912441730499
5.148626327514648 7.92642068862915 0.08148734271526337
5.1260528564453125 7.9278974533081055 0.08124880492687225
5.098011493682861 7.921328067779541 0.08063837885856628
5.079263687133789 7.928566932678223 0.08046095073223114
5.049389362335205 7.918061256408691 0.0798170417547226
5.027256965637207 7.920361518859863 0.07959028333425522
5.003922939300537 7.920144081115723 0.07905320823192596
4.978187561035156 7.915740966796875 0.07876399159431458
4.949681758880615 7.907849311828613 0.07815219461917877
4.927474498748779 7.908817291259766 0.077919140458107
4.905821800231934 7.910592079162598 0.07740921527147293
4.884264945983887 7.913524627685547 0.07719454169273376
4.8558454513549805 7.904132843017578 0.07700445502996445
4.838430881500244 7.913370132446289 0.07685349136590958
4.814173698425293 7.9108052253723145 0.07630600780248642
4.790023326873779 7.908027172088623 0.07604274898767471
4.764619827270508 7.904141902923584 0.07548416405916214
4.748935699462891 7.91522741317749 0.07535567879676819
4.716255187988281 7.897863388061523 0.07467513531446457
4.705421447753906 7.918097972869873 0.0746317207813263
4.670693874359131 7.8969292640686035 0.0739196240901947
4.657235145568848 7.91159725189209 0.07382702827453613
4.63041877746582 7.904619216918945 0.07324925065040588
4.606626033782959 7.901554584503174 0.07299327850341797
4.56166934967041 7.900726795196533 0.07225082814693451
15.72354793548584 8.71044921875 0.4117584824562073
15.08201789855957 8.689029693603516 0.3965962529182434
14.860708236694336 8.68641471862793 0.3911547362804413
12.576830863952637 8.610021591186523 0.3356509208679199
12.391702651977539 8.598190307617188 0.33122438192367554
12.273426055908203 8.59292221069336 0.32811257243156433
12.22676944732666 8.598121643066406 0.3273431956768036
12.107278823852539 8.590524673461914 0.3242039084434509
12.043783187866211 8.58310317993164 0.32230281829833984
11.930020332336426 8.578018188476562 0.31999725103378296
11.882837295532227 8.581554412841797 0.3185364603996277
11.765812873840332 8.57266616821289 0.31547650694847107
11.601357460021973 8.565011024475098 0.3116242289543152
11.442954063415527 8.559731483459473 0.3079354166984558
11.282220840454102 8.550636291503906 0.30418577790260315
10.199150085449219 8.499194145202637 0.27818217873573303
10.076146125793457 8.504592895507812 0.2742679715156555
9.982909202575684 8.497360229492188 0.2718905806541443
9.947181701660156 8.503397941589355 0.27140799164772034
9.835931777954102 8.48024845123291 0.26855140924453735
9.805959701538086 8.489948272705078 0.2682135999202728
9.71306037902832 8.48134708404541 0.265859991312027
9.65316104888916 8.464414596557617 0.26391685009002686
9.616817474365234 8.468172073364258 0.2634066939353943
9.577751159667969 8.469904899597168 0.2628280222415924
9.536179542541504 8.468472480773926 0.26139000058174133
9.490784645080566 8.463712692260742 0.2606305181980133
9.460424423217773 8.472728729248047 0.25951430201530457
9.406661033630371 8.460081100463867 0.25852370262145996
9.32972526550293 8.461973190307617 0.256614089012146
9.291632652282715 8.462892532348633 0.2560524344444275
9.19481372833252 8.445570945739746 0.2535962164402008
9.164826393127441 8.453415870666504 0.2524947226047516
9.088972091674805 8.454570770263672 0.2502458393573761
8.235091209411621 8.401409149169922 0.2299812138080597
8.176599502563477 8.412313461303711 0.22879669070243835
8.141051292419434 8.410592079162598 0.22775399684906006
8.063079833984375 8.40054702758789 0.2258489727973938
8.036687850952148 8.407906532287598 0.2255980372428894
7.952959060668945 8.390771865844727 0.2235323041677475
7.928219795227051 8.400284767150879 0.2226315587759018
7.889318466186523 8.39415168762207 0.22203166782855988
7.851649761199951 8.38888931274414 0.22128625214099884
7.817138195037842 8.387603759765625 0.22028863430023193
7.7895002365112305 8.393058776855469 0.21982890367507935
7.748867988586426 8.38410472869873 0.21865029633045197
7.711757659912109 8.37979507446289 0.2179345339536667
7.6689605712890625 8.368073463439941 0.21669617295265198
7.653973579406738 8.38659381866455 0.21676284074783325
7.605529308319092 8.36935043334961 0.21520593762397766
7.575282573699951 8.370902061462402 0.21484127640724182
7.537351131439209 8.364578247070312 0.21358045935630798
7.509369850158691 8.368638038635254 0.21328292787075043
7.46756649017334 8.356874465942383 0.2124175876379013
7.4462056159973145 8.368884086608887 0.21180403232574463
7.3997344970703125 8.35148811340332 0.21080543100833893
7.395168304443359 8.381311416625977 0.2101445496082306
7.3259148597717285 8.37364387512207 0.20849838852882385
7.279327392578125 8.355319023132324 0.2076646387577057
7.224898815155029 8.363702774047852 0.2064400166273117
7.12615442276001 8.354996681213379 0.20427927374839783
7.037036895751953 8.356603622436523 0.20206202566623688
6.769023895263672 8.35389518737793 0.19607597589492798
6.697413444519043 8.336274147033691 0.19451522827148438
6.658019542694092 8.323335647583008 0.19372166693210602
6.608656406402588 8.333332061767578 0.19249378144741058
6.579392433166504 8.331886291503906 0.1916581392288208
6.521313190460205 8.330228805541992 0.19034042954444885
6.487773895263672 8.322912216186523 0.18970465660095215
6.46659517288208 8.33160400390625 0.18911047279834747
6.432262897491455 8.323759078979492 0.18846189975738525
6.406694412231445 8.326327323913574 0.18773722648620605
6.373666763305664 8.319328308105469 0.1871197670698166
6.34508752822876 8.318512916564941 0.18679769337177277
6.320887565612793 8.322807312011719 0.18595856428146362
6.287670135498047 8.315630912780762 0.18550074100494385
6.257648944854736 8.311724662780762 0.18448804318904877
6.227401256561279 8.307632446289062 0.18410806357860565
6.195363998413086 8.301523208618164 0.18304848670959473
6.173778057098389 8.308513641357422 0.18292000889778137
6.142844200134277 8.303082466125488 0.1818864494562149
6.124706268310547 8.315398216247559 0.1818707287311554
6.087725639343262 8.301210403442383 0.1806560903787613
6.063318252563477 8.305074691772461 0.18045730888843536
6.0332770347595215 8.300039291381836 0.17944881319999695
6.012013912200928 8.307245254516602 0.17933249473571777
5.981079578399658 8.301515579223633 0.17830988764762878
5.946322441101074 8.289491653442383 0.1777864694595337
5.92103385925293 8.29077434539795 0.1773930788040161
5.904918670654297 8.305400848388672 0.17697015404701233
5.868590354919434 8.290681838989258 0.1762428879737854
5.846870422363281 8.296720504760742 0.17564617097377777
5.822027206420898 8.298794746398926 0.17542722821235657
5.801790237426758 8.306829452514648 0.17472198605537415
5.741677761077881 8.294689178466797 0.17334234714508057
5.701966762542725 8.274227142333984 0.17266570031642914
5.651669502258301 8.275616645812988 0.17158441245555878
5.631216526031494 8.28252124786377 0.17087307572364807
5.584321975708008 8.288406372070312 0.1698976308107376
5.545738220214844 8.26811408996582 0.16924521327018738
5.500322341918945 8.275530815124512 0.16831552982330322
5.445896148681641 8.268973350524902 0.16710901260375977
5.434788703918457 8.289505004882812 0.16669046878814697
5.374363899230957 8.27311897277832 0.16530214250087738
5.345274925231934 8.265839576721191 0.164934903383255
5.297762870788574 8.268525123596191 0.1642434149980545
5.274460315704346 8.270723342895508 0.16361463069915771
5.226546287536621 8.271390914916992 0.16259828209877014
5.194297790527344 8.259096145629883 0.16199153661727905
5.167359828948975 8.254501342773438 0.16124273836612701
5.13838005065918 8.246208190917969 0.16072434186935425
5.127677917480469 8.268052101135254 0.16049160063266754
5.090937614440918 8.247252464294434 0.15973366796970367
5.070002555847168 8.251598358154297 0.15916961431503296
5.045139789581299 8.25059700012207 0.1587950885295868
5.026462554931641 8.258511543273926 0.15830287337303162
4.988017559051514 8.23462200164795 0.15749558806419373
4.978694915771484 8.258137702941895 0.15730369091033936
4.948162078857422 8.246145248413086 0.15673327445983887
4.925656318664551 8.248242378234863 0.15613338351249695
4.898480415344238 8.241825103759766 0.1556723415851593
4.884649276733398 8.25752067565918 0.15533700585365295
4.8518171310424805 8.242148399353027 0.15470720827579498
4.819802761077881 8.226767539978027 0.1537933349609375
4.809557914733887 8.2484769821167 0.15386709570884705
4.78128719329834 8.240398406982422 0.15308843553066254
4.757274150848389 8.238348007202148 0.15272223949432373
4.728838920593262 8.229364395141602 0.1523694097995758
4.707605838775635 8.232200622558594 0.15209543704986572
4.690946578979492 8.242714881896973 0.15167446434497833
4.658758163452148 8.22669792175293 0.1510542333126068
4.641755104064941 8.236780166625977 0.150627002120018
4.6183905601501465 8.2352294921875 0.15027986466884613
4.598948955535889 8.241781234741211 0.14978672564029694
4.564144134521484 8.21944808959961 0.1490657776594162
4.54622745513916 8.228254318237305 0.14861896634101868
4.525537014007568 8.231409072875977 0.14836210012435913
4.508774757385254 8.241385459899902 0.14794211089611053
4.468401908874512 8.209189414978027 0.14705054461956024
4.458205699920654 8.23108959197998 0.1468474566936493
4.423417091369629 8.20748519897461 0.14612075686454773
18.366748809814453 8.480941772460938 0.4053652882575989
18.057710647583008 8.476373672485352 0.3984946310520172
17.55582618713379 8.466819763183594 0.3887611925601959
17.268829345703125 8.462628364562988 0.38240233063697815
14.435904502868652 8.400322914123535 0.3188604712486267
14.209733009338379 8.38873291015625 0.31376326084136963
14.089625358581543 8.39804458618164 0.31088829040527344
13.996946334838867 8.382219314575195 0.3092266023159027
13.872318267822266 8.38715934753418 0.3072507977485657
13.779057502746582 8.369869232177734 0.304584801197052
13.662278175354004 8.377904891967773 0.30180254578590393
13.45513916015625 8.367731094360352 0.29741552472114563
13.261281967163086 8.363239288330078 0.29332971572875977
13.072303771972656 8.359383583068848 0.2884117364883423
11.604133605957031 8.309362411499023 0.25504687428474426
11.442832946777344 8.303176879882812 0.2511335015296936
11.344317436218262 8.304049491882324 0.2488700896501541
11.284758567810059 8.29726791381836 0.24773499369621277
11.177587509155273 8.291217803955078 0.24529728293418884
11.125871658325195 8.288702964782715 0.24390387535095215
11.024687767028809 8.285748481750488 0.24055448174476624
10.971053123474121 8.281120300292969 0.23954850435256958
10.924321174621582 8.28175163269043 0.23827768862247467
10.87630844116211 8.281739234924316 0.2374042272567749
10.821266174316406 8.275360107421875 0.23595285415649414
10.776664733886719 8.27701187133789 0.23514974117279053
10.72299861907959 8.272010803222656 0.23374153673648834
10.691482543945312 8.283406257629395 0.23322470486164093
10.591384887695312 8.27720832824707 0.23097622394561768
10.538105964660645 8.271113395690918 0.2295774221420288
10.426111221313477 8.254145622253418 0.22687581181526184
10.39465618133545 8.264650344848633 0.22656667232513428
10.30586051940918 8.264869689941406 0.22457803785800934
9.330903053283691 8.218430519104004 0.2011311650276184
9.24696159362793 8.213908195495605 0.1993100494146347
9.207409858703613 8.213021278381348 0.19825918972492218
9.124738693237305 8.20854377746582 0.19647110998630524
9.087471008300781 8.209202766418457 0.1952883005142212
9.007287979125977 8.205921173095703 0.1935614049434662
8.96260929107666 8.200071334838867 0.19279137253761292
8.881872177124023 8.194433212280273 0.18994125723838806
8.844623565673828 8.194862365722656 0.18878094851970673
8.79784107208252 8.185762405395508 0.1881476640701294
8.7693452835083 8.193267822265625 0.18716664612293243
8.725763320922852 8.187280654907227 0.18660736083984375
8.692337989807129 8.190153121948242 0.18552912771701813
8.649616241455078 8.18385124206543 0.1844339370727539
8.600297927856445 8.172078132629395 0.18357378244400024
8.580322265625 8.187047958374023 0.1829642951488495
8.536779403686523 8.179410934448242 0.18221788108348846
8.503898620605469 8.182822227478027 0.18116846680641174
8.464202880859375 8.178522109985352 0.18068240582942963
8.423948287963867 8.17424488067627 0.17947769165039062
8.387848854064941 8.173328399658203 0.1790732443332672
8.350885391235352 8.171164512634277 0.17793118953704834
8.27958869934082 8.169937133789062 0.17643272876739502
8.239058494567871 8.16375732421875 0.1752227544784546
8.16684341430664 8.160651206970215 0.17371128499507904
8.135848999023438 8.163492202758789 0.17341189086437225
8.065876007080078 8.161741256713867 0.1712493747472763
7.9559431076049805 8.15237808227539 0.16860926151275635
7.849772930145264 8.145406723022461 0.16606086492538452
7.647467613220215 8.138814926147461 0.16189812123775482
7.556161880493164 8.143632888793945 0.15968699753284454
7.455715656280518 8.137383460998535 0.15729527175426483
7.380140781402588 8.123318672180176 0.15575318038463593
7.349295139312744 8.123173713684082 0.1547878086566925
7.291387557983398 8.12770938873291 0.15362125635147095
7.253410339355469 8.119209289550781 0.15317735075950623
7.19295597076416 8.120110511779785 0.1512964516878128
7.165316581726074 8.122808456420898 0.1504080593585968
7.1277008056640625 8.114294052124023 0.14997413754463196
7.099239826202393 8.11655044555664 0.14907847344875336
7.067483901977539 8.11416244506836 0.14860069751739502
7.039539337158203 8.116272926330566 0.1478777378797531
7.0043792724609375 8.110424995422363 0.14733636379241943
6.977533340454102 8.113564491271973 0.1466362327337265
6.942965984344482 8.10809326171875 0.1456211805343628
6.912375450134277 8.10635757446289 0.14517046511173248
6.879875183105469 8.102489471435547 0.14435528218746185
6.847766399383545 8.099431037902832 0.14388102293014526
6.822919845581055 8.104093551635742 0.14306418597698212
6.796771049499512 8.10737133026123 0.1423850804567337
6.7581071853637695 8.0960693359375 0.14177529513835907
6.731727123260498 8.098569869995117 0.14109186828136444
6.694453239440918 8.088817596435547 0.14051273465156555
6.664942264556885 8.087268829345703 0.13960649073123932
6.641724586486816 8.093509674072266 0.13899220526218414
6.616574287414551 8.097826957702637 0.1386668086051941
6.590656757354736 8.100357055664062 0.1379956305027008
6.552283763885498 8.087669372558594 0.13738900423049927
6.519399642944336 8.082067489624023 0.1364251673221588
6.499529838562012 8.091739654541016 0.13620097935199738
6.463296890258789 8.081171035766602 0.13516440987586975
6.441586494445801 8.089141845703125 0.13506866991519928
6.412801742553711 8.087379455566406 0.13418687880039215
6.347020149230957 8.0740327835083 0.1328934133052826
6.324431896209717 8.080004692077637 0.13214817643165588
6.2344841957092285 8.069092750549316 0.13008135557174683
6.184297561645508 8.074193000793457 0.1291220784187317
6.154191017150879 8.069520950317383 0.1288420706987381
6.0941972732543945 8.06103515625 0.12706248462200165
6.0653395652771 8.057567596435547 0.1268080621957779
6.02315092086792 8.072050094604492 0.1258677840232849
5.962650299072266 8.061579704284668 0.124239981174469
5.939184188842773 8.064805030822754 0.12409922480583191
5.88081693649292 8.056386947631836 0.12237092852592468
5.854609966278076 8.055536270141602 0.12217207252979279
5.798727512359619 8.049712181091309 0.12141187489032745
5.781375885009766 8.061623573303223 0.12095120549201965
5.750560283660889 8.05389404296875 0.1205054447054863
5.726099967956543 8.05518913269043 0.1197417825460434
5.696434497833252 8.049556732177734 0.11902638524770737
5.670801162719727 8.048964500427246 0.11869264394044876
5.643730640411377 8.045953750610352 0.11787506937980652
5.622285842895508 8.051651954650879 0.1173333078622818
5.584221839904785 8.032862663269043 0.1167406439781189
5.560991287231445 8.034969329833984 0.11615590751171112
5.540185928344727 8.04156494140625 0.11593057215213776
5.511519432067871 8.035598754882812 0.11508507281541824
5.480885982513428 8.027384757995605 0.11435474455356598
