VERSION .7
FIELDS x y z
SIZE 4 4 4
TYPE F F F
COUNT 1 1 1
WIDTH 821
HEIGHT 1
VIEWPOINT 0 0 0 1 0 0 0
POINTS 821
DATA ascii
30.33460807800293 -8.68179988861084 -0.0366583950817585
30.487966537475586 -8.657244682312012 -0.03685609623789787
30.81508445739746 -8.610095024108887 -0.03912574425339699
30.9849910736084 -8.588253021240234 -0.03931873291730881
31.3189640045166 -8.538992881774902 -0.03969654440879822
31.495073318481445 -8.51679515838623 -0.039932381361722946
31.836864471435547 -8.465498924255371 -0.040320247411727905
32.39348602294922 -8.395824432373047 -0.0429638996720314
32.94964599609375 -8.319271087646484 -0.043667882680892944
20.637285232543945 -4.207301616668701 -0.03087412752211094
20.60641098022461 -4.11198091506958 -0.032062824815511703
20.51053810119629 -4.0473313331604 -0.031900133937597275
20.588424682617188 -4.018307685852051 -0.03200822323560715
20.526735305786133 -3.8724710941314697 -0.03189622610807419
20.529905319213867 -3.827692985534668 -0.03188861161470413
20.51165008544922 -3.7802603244781494 -0.03180307894945145
20.497264862060547 -3.7336225509643555 -0.03179100155830383
20.486549377441406 -3.686494827270508 -0.031762100756168365
20.485395431518555 -3.642416000366211 -0.03174852579832077
20.48074722290039 -3.552675247192383 -0.03296438977122307
20.47323989868164 -3.507601737976074 -0.03294068202376366
21.140613555908203 -3.5303821563720703 -0.03399098664522171
20.516902923583984 -3.382455587387085 -0.032998085021972656
20.488563537597656 -3.2892348766326904 -0.03292993828654289
20.497575759887695 -3.2470414638519287 -0.034178297966718674
20.48434066772461 -3.1565704345703125 -0.03413348272442818
26.31674575805664 -2.820075035095215 -0.045232441276311874
26.021442413330078 -2.6214988231658936 -0.046291645616292953
25.80078887939453 -2.4911155700683594 -0.04588032141327858
25.64398193359375 -2.420722723007202 -0.04559217765927315
25.36585235595703 -2.2867321968078613 -0.04508017748594284
25.256690979003906 -2.224062442779541 -0.044877879321575165
25.203611373901367 -2.1666617393493652 -0.04477546736598015
25.11117172241211 -2.104713201522827 -0.04460315778851509
25.05260467529297 -2.047459363937378 -0.04454682394862175
24.978271484375 -1.9891841411590576 -0.04440721869468689
24.901750564575195 -1.929593801498413 -0.04426374286413193
24.836027145385742 -1.8726601600646973 -0.04413994029164314
24.783042907714844 -1.8169236183166504 -0.044038910418748856
24.695932388305664 -1.7575331926345825 -0.04387740418314934
24.618717193603516 -1.7006981372833252 -0.04373380169272423
24.50688934326172 -1.5893007516860962 -0.04502175375819206
24.467761993408203 -1.5357540845870972 -0.0449439212679863
24.347814559936523 -1.4253361225128174 -0.044712133705616
24.255876541137695 -1.3694250583648682 -0.044538047164678574
23.17209243774414 -0.28573092818260193 -0.04397397115826607
23.00201416015625 -0.13901610672473907 -0.0450274720788002
20.555757522583008 0.006249296013265848 -0.10025158524513245
20.497901916503906 0.04876892641186714 -0.09996958822011948
20.4521541595459 0.09232739359140396 -0.09974716603755951
20.366851806640625 0.13423240184783936 -0.09933213144540787
20.286312103271484 0.21911901235580444 -0.1001579612493515
20.25536346435547 0.26084795594215393 -0.10000766813755035
20.174556732177734 0.3447902500629425 -0.09961510449647903
18.952247619628906 1.3998737335205078 -0.09386531263589859
18.84630012512207 1.5112309455871582 -0.0933859646320343
18.73591423034668 1.6209838390350342 -0.09288763254880905
18.64946937561035 1.6926629543304443 -0.09249366819858551
18.622272491455078 1.7302898168563843 -0.09237692505121231
18.58382225036621 1.765622854232788 -0.09220405668020248
18.56075668334961 1.8023256063461304 -0.09210819751024246
18.528953552246094 1.839179515838623 -0.0919695794582367
18.491357803344727 1.874228596687317 -0.09180212765932083
18.442020416259766 1.9078999757766724 -0.09157663583755493
18.437496185302734 1.9472277164459229 -0.09159599244594574
18.376319885253906 1.9793565273284912 -0.09131219983100891
18.3367862701416 2.0136008262634277 -0.09224109351634979
18.3206787109375 2.051429033279419 -0.09218201786279678
18.281906127929688 2.0855319499969482 -0.09200845658779144
18.21605682373047 2.1557507514953613 -0.08952489495277405
18.181602478027344 2.18996262550354 -0.08937769383192062
18.120880126953125 2.260110378265381 -0.08912526816129684
18.01523780822754 2.3620429039001465 -0.08867692947387695
17.907928466796875 2.4625847339630127 -0.08824392408132553
17.33445167541504 3.054823398590088 -0.08487150818109512
17.244842529296875 3.150935411453247 -0.08452807366847992
17.193330764770508 3.1794729232788086 -0.08535590022802353
17.1567440032959 3.246426582336426 -0.08524046838283539
17.115772247314453 3.2765419483184814 -0.08509135991334915
17.1005859375 3.3104567527770996 -0.08504984527826309
17.067350387573242 3.340782880783081 -0.08491884171962738
17.048648834228516 3.3749334812164307 -0.08486145734786987
16.996482849121094 3.4012951850891113 -0.08463675528764725
16.945026397705078 3.4275851249694824 -0.08441576361656189
16.91756820678711 3.4596662521362305 -0.08431560546159744
16.901996612548828 3.49303936958313 -0.08427394181489944
16.867605209350586 3.5235002040863037 -0.08413977921009064
16.8638973236084 3.5592851638793945 -0.08415797352790833
16.83846664428711 3.590433359146118 -0.08406806737184525
16.748886108398438 3.6087355613708496 -0.0836590901017189
16.740079879760742 3.643225908279419 -0.08365271240472794
16.686262130737305 3.667797803878784 -0.08239799737930298
16.658817291259766 3.6990694999694824 -0.08230121433734894
16.551240921020508 3.71125864982605 -0.0818076804280281
16.495399475097656 3.7347068786621094 -0.08156975358724594
16.41618537902832 3.7536561489105225 -0.08121751248836517
16.332462310791016 3.7701950073242188 -0.08084186911582947
16.16208267211914 3.802626609802246 -0.08007706701755524
16.05264663696289 3.8120522499084473 -0.07957390695810318
14.62567138671875 4.128908157348633 -0.07238487154245377
14.552751541137695 4.140948295593262 -0.07206636667251587
14.424381256103516 4.170166015625 -0.07151702791452408
14.32552433013916 4.173818111419678 -0.07106970250606537
14.221251487731934 4.208494186401367 -0.07063965499401093
14.167411804199219 4.224555492401123 -0.07041554152965546
14.04865550994873 4.253651142120361 -0.06991370022296906
13.994365692138672 4.269853591918945 -0.06968872994184494
13.946450233459473 4.2869062423706055 -0.06951037049293518
13.876659393310547 4.296992301940918 -0.06919079273939133
13.826553344726562 4.313849925994873 -0.06900275498628616
13.769322395324707 4.327386379241943 -0.06876173615455627
13.709636688232422 4.339909553527832 -0.06850865483283997
13.637297630310059 4.349083423614502 -0.06819339841604233
13.567254066467285 4.357783794403076 -0.06788820773363113
13.519112586975098 4.373291015625 -0.0676925778388977
13.467000007629395 4.3882341384887695 -0.06747837364673615
13.392916679382324 4.394859313964844 -0.06630814075469971
13.358996391296387 4.415344715118408 -0.06617098301649094
13.302268028259277 4.427253246307373 -0.0659509152173996
13.246430397033691 4.4392242431640625 -0.06571952998638153
13.169137001037598 4.444634914398193 -0.06538313627243042
13.121959686279297 4.459066390991211 -0.06519471108913422
13.054726600646973 4.466460704803467 -0.06490660458803177
12.948992729187012 4.491291046142578 -0.06447430700063705
12.795088768005371 4.528223037719727 -0.06384840607643127
12.640180587768555 4.563017845153809 -0.06321710348129272
12.09274959564209 4.713189601898193 -0.06026143208146095
11.98194694519043 4.728226184844971 -0.05980803444981575
11.94665813446045 4.742976665496826 -0.059680771082639694
11.856472969055176 4.765072345733643 -0.05932994559407234
11.801130294799805 4.771298408508301 -0.05910244584083557
11.693495750427246 4.785175800323486 -0.058663927018642426
11.66885757446289 4.803387641906738 -0.058590084314346313
11.564353942871094 4.8174238204956055 -0.0581667535007
11.519560813903809 4.826842784881592 -0.0579916313290596
11.474656105041504 4.836868762969971 -0.057817425578832626
11.429179191589355 4.84565544128418 -0.05763879045844078
11.381745338439941 4.8534345626831055 -0.057450346648693085
11.342466354370117 4.865347385406494 -0.05730431526899338
11.295538902282715 4.872995853424072 -0.057118188589811325
11.253159523010254 4.88325309753418 -0.05695647373795509
11.197307586669922 4.886653900146484 -0.05672498047351837
11.14737319946289 4.892425060272217 -0.056523397564888
11.120928764343262 4.909179210662842 -0.05642900615930557
11.063992500305176 4.911503791809082 -0.05619177222251892
11.02314281463623 4.920779228210449 -0.05603599175810814
10.97862434387207 4.929059028625488 -0.05586305260658264
10.936833381652832 4.937592506408691 -0.055702440440654755
10.886609077453613 4.942154884338379 -0.05549875646829605
10.842840194702148 4.9502339363098145 -0.05532936006784439
10.805789947509766 4.960443019866943 -0.05519269034266472
10.726707458496094 4.978940486907959 -0.05489540472626686
10.675591468811035 4.982166767120361 -0.05467383936047554
10.590398788452148 4.996830940246582 -0.0543447844684124
10.56238079071045 5.010435581207275 -0.05425421893596649
10.472957611083984 5.022156238555908 -0.05390307307243347
10.354687690734863 5.045750141143799 -0.05276598781347275
10.10603141784668 5.0835700035095215 -0.051809780299663544
10.007190704345703 5.112931251525879 -0.05146675556898117
9.918397903442383 5.119600296020508 -0.05111899599432945
9.893072128295898 5.1333088874816895 -0.05104484036564827
9.799415588378906 5.137208461761475 -0.050672758370637894
9.76219367980957 5.14354944229126 -0.05053537338972092
9.685294151306152 5.1552605628967285 -0.050249241292476654
9.674091339111328 5.175089359283447 -0.05024666339159012
9.591570854187012 5.183016300201416 -0.049919258803129196
9.541887283325195 5.181780815124512 -0.0497165322303772
9.514236450195312 5.1923747062683105 -0.04962851107120514
9.473920822143555 5.196654796600342 -0.04947599768638611
9.444934844970703 5.206282615661621 -0.04938092455267906
9.398855209350586 5.20709228515625 -0.049198053777217865
9.365851402282715 5.21423864364624 -0.04908185079693794
9.319679260253906 5.213910102844238 -0.04889654368162155
9.281950950622559 5.218854904174805 -0.04875693470239639
9.24039363861084 5.220757007598877 -0.04859546571969986
9.219350814819336 5.234879970550537 -0.04854348674416542
9.178118705749512 5.236685276031494 -0.0483720637857914
9.146991729736328 5.244116306304932 -0.04826526343822479
9.12388801574707 5.256799697875977 -0.048202503472566605
9.081697463989258 5.25762414932251 -0.04803713783621788
9.057112693786621 5.268516540527344 -0.047964829951524734
9.032315254211426 5.279947280883789 -0.04789312928915024
8.980436325073242 5.274655342102051 -0.04767598584294319
8.95854377746582 5.286844730377197 -0.04761793091893196
8.91502571105957 5.286859035491943 -0.04744650796055794
8.90092945098877 5.303498268127441 -0.04742996022105217
8.813910484313965 5.3020734786987305 -0.04708484187722206
8.783843994140625 5.308841228485107 -0.046982962638139725
8.722172737121582 5.321847438812256 -0.04677256569266319
8.69880485534668 5.332406520843506 -0.04670653119683266
8.629531860351562 5.340057849884033 -0.04584644362330437
8.599508285522461 5.346202373504639 -0.04574579745531082
8.525801658630371 5.35029411315918 -0.04547317326068878
8.414137840270996 5.354240417480469 -0.04504547640681267
8.33494758605957 5.378469944000244 -0.044803373515605927
8.250899314880371 5.398003578186035 -0.04453311488032341
8.20279598236084 5.415295600891113 -0.044394444674253464
8.161200523376465 5.41288948059082 -0.044231776148080826
8.106569290161133 5.425248622894287 -0.04405737668275833
8.076178550720215 5.429912567138672 -0.04395511746406555
8.021368980407715 5.442253112792969 -0.04378116503357887
7.989412307739258 5.444818019866943 -0.04366832599043846
7.977056503295898 5.460686683654785 -0.043072622269392014
7.941860198974609 5.4615325927734375 -0.04294544458389282
7.916068077087402 5.468026161193848 -0.04286724328994751
7.883382320404053 5.469661712646484 -0.042751651257276535
7.8593597412109375 5.477889537811279 -0.042684704065322876
7.817572116851807 5.472916603088379 -0.04251938313245773
7.792976379394531 5.479829788208008 -0.04244735836982727
7.759564399719238 5.481132984161377 -0.04232902079820633
7.747762203216553 5.496944427490234 -0.042326804250478745
7.717392921447754 5.500207901000977 -0.0422249510884285
7.693305969238281 5.507150650024414 -0.04215560108423233
7.658976078033447 5.5066633224487305 -0.04203005135059357
7.632749557495117 5.512566566467285 -0.04195062443614006
7.602564811706543 5.514808177947998 -0.041847530752420425
7.5791521072387695 5.522573947906494 -0.04178350418806076
7.544119834899902 5.521051406860352 -0.04165345057845116
7.517217636108398 5.52536678314209 -0.04156816750764847
7.484384059906006 5.525886058807373 -0.04145175218582153
7.459497451782227 5.531466484069824 -0.04137739911675453
7.422328472137451 5.527826309204102 -0.041234809905290604
7.411859512329102 5.544672012329102 -0.04123235121369362
7.393484115600586 5.554892539978027 -0.040639687329530716
7.348507881164551 5.545008182525635 -0.0404556579887867
7.340467929840088 5.563577651977539 -0.04047670215368271
7.3013529777526855 5.55783748626709 -0.040324561297893524
7.254566669464111 5.570621013641357 -0.040195345878601074
7.226667404174805 5.5730881690979 -0.04010479152202606
7.169681549072266 5.577450275421143 -0.03991854190826416
7.155758857727051 5.590494632720947 -0.03990553691983223
7.105799674987793 5.599813461303711 -0.0392155796289444
7.077578544616699 5.60142183303833 -0.039123907685279846
7.017443656921387 5.602054595947266 -0.03892159089446068
6.954974174499512 5.624134540557861 -0.03877043351531029
6.908414840698242 5.634768486022949 -0.038642823696136475
6.872597694396973 5.63003396987915 -0.0385001040995121
6.824252605438232 5.637934684753418 -0.03836005926132202
6.811812877655029 5.652172565460205 -0.03835788741707802
6.778802871704102 5.6485748291015625 -0.03823792561888695
6.761672496795654 5.658128261566162 -0.037678807973861694
6.743020534515381 5.667044639587402 -0.03764219954609871
6.714298248291016 5.666733741760254 -0.037547457963228226
6.673418045043945 5.655985355377197 -0.03738441318273544
6.669496059417725 5.677175521850586 -0.03743025287985802
6.637807846069336 5.674012660980225 -0.03731844574213028
6.608818054199219 5.673698902130127 -0.037223488092422485
6.585750579833984 5.677677154541016 -0.037159860134124756
6.560596942901611 5.679780006408691 -0.03707507625222206
6.538424968719482 5.685054302215576 -0.037018295377492905
6.519683361053467 5.692571640014648 -0.036988306790590286
6.4951090812683105 5.694913387298584 -0.0369158536195755
6.469746112823486 5.697154521942139 -0.036840762943029404
6.45084810256958 5.7043352127075195 -0.03680048882961273
6.413022518157959 5.694645881652832 -0.036652084439992905
6.407548904418945 5.714300155639648 -0.03669038414955139
6.382668972015381 5.715948104858398 -0.03661583364009857
6.3597731590271 5.719960689544678 -0.03603237122297287
6.326857089996338 5.714163303375244 -0.03591303527355194
6.314582824707031 5.726914405822754 -0.0359107106924057
6.288435935974121 5.727720260620117 -0.0358315110206604
6.253682613372803 5.719866752624512 -0.035701051354408264
6.246152400970459 5.737520694732666 -0.03572792187333107
6.217549800872803 5.735081672668457 -0.03563234210014343
6.209006309509277 5.751107215881348 -0.035651691257953644
6.173396110534668 5.742661476135254 -0.03551756963133812
6.155838489532471 5.750216960906982 -0.035485170781612396
6.1295318603515625 5.749508380889893 -0.035402216017246246
6.085836887359619 5.756894588470459 -0.034778255969285965
6.065423965454102 5.761481761932373 -0.034729842096567154
6.03159236907959 5.777860641479492 -0.03467511758208275
5.993253707885742 5.789733409881592 -0.03460345417261124
5.970465660095215 5.791719436645508 -0.03454119339585304
5.929193019866943 5.800349712371826 -0.03393715247511864
5.897026538848877 5.792879104614258 -0.03382181376218796
5.85796594619751 5.803187847137451 -0.033737655729055405
5.834031105041504 5.8035149574279785 -0.033669110387563705
5.801191806793213 5.795555114746094 -0.033551011234521866
5.79082727432251 5.809261798858643 -0.033560678362846375
5.757864952087402 5.825053691864014 -0.03351148962974548
5.730215549468994 5.821194171905518 -0.03341210260987282
5.7074875831604 5.8229217529296875 -0.03286305069923401
5.697680473327637 5.83711051940918 -0.03287624195218086
5.660089492797852 5.823422431945801 -0.03273104876279831
5.640440940856934 5.827354431152344 -0.03268730267882347
5.621028900146484 5.831479549407959 -0.03264490142464638
5.615973949432373 5.851186275482178 -0.032687991857528687
5.58411169052124 5.842222213745117 -0.03257310390472412
5.559330940246582 5.840513229370117 -0.032499149441719055
5.5466389656066895 5.852149486541748 -0.032497890293598175
5.534465789794922 5.863641738891602 -0.03200569003820419
5.514755725860596 5.867103576660156 -0.03196204453706741
5.478342056274414 5.853368759155273 -0.03182342275977135
5.46685791015625 5.865448951721191 -0.031827352941036224
5.4499831199646 5.872433185577393 -0.03180203214287758
5.418726921081543 5.863121509552002 -0.031211860477924347
5.398734092712402 5.865863800048828 -0.031166737899184227
5.381848335266113 5.872632026672363 -0.031141554936766624
5.367738246917725 5.881705284118652 -0.031130477786064148
5.337441444396973 5.872939109802246 -0.031025469303131104
5.323549747467041 5.882853984832764 -0.031017694622278214
5.30509090423584 5.886964797973633 -0.030972763895988464
5.285196304321289 5.889418125152588 -0.030927900224924088
5.2672119140625 5.894662380218506 -0.030896276235580444
5.260397911071777 5.911681175231934 -0.030928153544664383
5.221235752105713 5.892959117889404 -0.030299708247184753
5.205585479736328 5.899929523468018 -0.03027990832924843
5.18726921081543 5.903820991516113 -0.03024454042315483
5.167059898376465 5.906204700469971 -0.030200157314538956
5.151223659515381 5.912831783294678 -0.030179278925061226
5.106003284454346 5.911003589630127 -0.030051613226532936
5.087270259857178 5.9140825271606445 -0.030013544484972954
5.039036750793457 5.9081573486328125 -0.02940986305475235
5.033336162567139 5.926338195800781 -0.029448244720697403
5.006409168243408 5.9202189445495605 -0.028899678960442543
4.995687961578369 5.932466506958008 -0.028908737003803253
4.973676681518555 5.931264400482178 -0.028852537274360657
4.9518232345581055 5.930891513824463 -0.028790999203920364
4.944436073303223 5.947086334228516 -0.02881968393921852
4.913413047790527 5.960658073425293 -0.028784867376089096
4.8718037605285645 5.935232162475586 -0.028613340109586716
4.8648176193237305 5.9526047706604 -0.0281857717782259
4.8474225997924805 5.956504821777344 -0.02815650962293148
4.8384270668029785 5.970717906951904 -0.028176167979836464
4.816633224487305 5.969850540161133 -0.028123456984758377
4.785893440246582 5.957003593444824 -0.028008081018924713
4.777331352233887 5.97168493270874 -0.028030304238200188
4.761401176452637 5.977907180786133 -0.028011754155158997
4.732377529144287 5.966835021972656 -0.027913814410567284
4.721957206726074 5.979876518249512 -0.027927616611123085
4.696345329284668 5.972898483276367 -0.027393775060772896
4.678636074066162 5.975856304168701 -0.027362678200006485
4.665487766265869 5.985360622406006 -0.027360472828149796
4.6414055824279785 5.980016708374023 -0.02728402614593506
4.625182628631592 5.985456466674805 -0.02726367861032486
4.606873512268066 5.987415313720703 -0.02722899802029133
4.587821960449219 5.988326549530029 -0.02718976140022278
4.574843883514404 5.997884273529053 -0.026283815503120422
4.555274486541748 5.997998237609863 -0.026242895051836967
4.539337635040283 6.002837181091309 -0.026222819462418556
4.522801876068115 6.007603645324707 -0.026201285421848297
4.5100483894348145 6.016605854034424 -0.0261917095631361
4.484381675720215 6.008305072784424 -0.026114996522665024
4.4780683517456055 6.026662349700928 -0.026153137907385826
4.464969158172607 6.035153865814209 -0.026149602606892586
4.432076454162598 6.017537593841553 -0.02603241801261902
4.4125871658325195 6.017186641693115 -0.02554362267255783
4.400537490844727 6.026943206787109 -0.025546152144670486
4.387050628662109 6.035501956939697 -0.025534737855196
4.359610080718994 6.023995399475098 -0.025447838008403778
4.341431617736816 6.025162696838379 -0.025414608418941498
4.3229079246521 6.026557445526123 -0.02538156323134899
4.3133320808410645 6.0396318435668945 -0.025398798286914825
4.297627925872803 6.044122219085693 -0.025380102917551994
4.264157772064209 6.024260520935059 -0.024815892800688744
4.257497310638428 6.0413970947265625 -0.024842089042067528
4.242534637451172 6.047560691833496 -0.024830134585499763
4.226280212402344 6.051060199737549 -0.02480841428041458
4.2070088386535645 6.050175189971924 -0.024768872186541557
4.191617965698242 6.055598735809326 -0.02475437894463539
4.167531490325928 6.047581195831299 -0.02468625083565712
4.155438423156738 6.057687759399414 -0.023809989914298058
4.139681816101074 6.061646938323975 -0.02378387749195099
4.126222610473633 6.068942070007324 -0.023778827860951424
4.095420837402344 6.051401615142822 -0.023675819858908653
4.086332321166992 6.065048694610596 -0.023696020245552063
4.066784858703613 6.063150405883789 -0.023655571043491364
4.0615739822387695 6.083433151245117 -0.023700740188360214
4.028106689453125 6.060502529144287 -0.023142561316490173
4.01515007019043 6.0682878494262695 -0.023132488131523132
4.001289367675781 6.075501918792725 -0.02312738262116909
3.9943227767944336 6.092411041259766 -0.023160088807344437
3.9679453372955322 6.080465793609619 -0.023082468658685684
3.9533588886260986 6.085670471191406 -0.02307104878127575
3.936167001724243 6.086819171905518 -0.023044509813189507
3.9181675910949707 6.087464332580566 -0.022580968216061592
3.8993937969207764 6.086010456085205 -0.022537877783179283
3.8843512535095215 6.0903191566467285 -0.0225239098072052
3.869013547897339 6.0949506759643555 -0.02251036837697029
3.8579976558685303 6.105562686920166 -0.0225199144333601
3.8392395973205566 6.103904724121094 -0.022484369575977325
3.8220596313476562 6.105477333068848 -0.022460125386714935
3.8000123500823975 6.098360538482666 -0.022397169843316078
3.7922005653381348 6.1148881912231445 -0.021996481344103813
3.7739052772521973 6.11367654800415 -0.021963855251669884
3.7599241733551025 6.119417190551758 -0.021525681018829346
3.747542142868042 6.128563404083252 -0.02152952179312706
3.726365327835083 6.122442722320557 -0.02147342450916767
3.701918840408325 6.111635208129883 -0.021407747641205788
3.680649518966675 6.105075836181641 -0.02135803923010826
3.666485071182251 6.1102213859558105 -0.021349314600229263
3.654209613800049 6.119356632232666 -0.021353930234909058
3.638930559158325 6.122597694396973 -0.02091171219944954
3.625525712966919 6.128967761993408 -0.020900052040815353
3.6013474464416504 6.117881774902344 -0.020836077630519867
3.5880985260009766 6.124410629272461 -0.020832879468798637
3.5788419246673584 6.137793064117432 -0.02085302025079727
3.5524072647094727 6.122462272644043 -0.020775137469172478
3.5410053730010986 6.1320905685424805 -0.02078281342983246
6.387477397918701 -11.157121658325195 -0.02198486402630806
6.420663356781006 -11.161307334899902 -0.022019296884536743
6.470667362213135 -11.139430046081543 -0.022802136838436127
6.511047840118408 -11.155552864074707 -0.022862764075398445
6.568248271942139 -11.145499229431152 -0.02212296426296234
6.597474098205566 -11.142139434814453 -0.02214343473315239
6.632143020629883 -11.146334648132324 -0.022179841995239258
6.661251068115234 -11.142570495605469 -0.022213825955986977
6.690030097961426 -11.138137817382812 -0.02223263308405876
6.720117092132568 -11.134300231933594 -0.02225353755056858
6.743231773376465 -11.120341300964355 -0.022253576666116714
6.8166608810424805 -11.188997268676758 -0.023204732686281204
6.81485652923584 -11.132469177246094 -0.02311769127845764
6.842436790466309 -11.125581741333008 -0.02313285507261753
6.872165203094482 -11.1221284866333 -0.023169368505477905
6.905807971954346 -11.123394012451172 -0.02320263721048832
6.929642677307129 -11.110241889953613 -0.023205220699310303
6.967087268829346 -11.117341995239258 -0.023251036182045937
7.001870155334473 -11.121487617492676 -0.023290017619729042
7.026829719543457 -11.109903335571289 -0.02408447675406933
7.056451797485352 -11.104186058044434 -0.024104679003357887
7.125910758972168 -11.111315727233887 -0.0241983775049448
7.155661582946777 -11.10545539855957 -0.024218851700425148
7.221405982971191 -11.10449504852295 -0.02428284101188183
7.244809150695801 -11.090059280395508 -0.0242841187864542
7.346854209899902 -11.09332275390625 -0.024391913786530495
7.832426071166992 -11.053915023803711 -0.026489270851016045
7.921555519104004 -11.032022476196289 -0.02657030150294304
7.995731830596924 -11.036917686462402 -0.027480071410536766
8.033889770507812 -11.041290283203125 -0.027532357722520828
8.09256649017334 -11.02404499053955 -0.027574148029088974
8.135334968566895 -11.03422737121582 -0.027641739696264267
8.189223289489746 -11.009942054748535 -0.027667121961712837
8.226359367370605 -11.012075424194336 -0.027715317904949188
8.263508796691895 -11.01265811920166 -0.027761153876781464
8.292563438415527 -11.003738403320312 -0.02862292341887951
8.330909729003906 -11.006999015808105 -0.02867637202143669
8.35441780090332 -10.989218711853027 -0.028676467016339302
8.397518157958984 -10.99846363067627 -0.028745977208018303
8.435452461242676 -11.000718116760254 -0.028797604143619537
8.472477912902832 -11.000283241271973 -0.028843754902482033
8.495993614196777 -10.983566284179688 -0.02884616330265999
8.533866882324219 -10.983989715576172 -0.02974395640194416
8.570280075073242 -10.983734130859375 -0.029791416600346565
8.599684715270996 -10.97436237335205 -0.029814358800649643
8.643418312072754 -10.981793403625488 -0.029884574934840202
8.67413330078125 -10.973883628845215 -0.029912011697888374
8.712158203125 -10.97372055053711 -0.029962208122015
8.750234603881836 -10.974835395812988 -0.030014781281352043
8.77872371673584 -10.963814735412598 -0.030049532651901245
8.846562385559082 -10.953668594360352 -0.03095257841050625
8.96733570098877 -10.961506843566895 -0.031997814774513245
9.065917015075684 -10.940937995910645 -0.032103531062603
9.178852081298828 -10.936552047729492 -0.032259322702884674
9.52023696899414 -10.917010307312012 -0.034495409578084946
9.63565444946289 -10.910134315490723 -0.03466441482305527
9.710086822509766 -10.901535034179688 -0.03476670756936073
9.757074356079102 -10.908623695373535 -0.034853801131248474
9.81785774230957 -10.88398551940918 -0.035785749554634094
9.863553047180176 -10.88912582397461 -0.03675078600645065
9.909507751464844 -10.892998695373535 -0.03685108944773674
9.940823554992676 -10.881970405578613 -0.03688349202275276
9.972691535949707 -10.871463775634766 -0.03691794350743294
10.018441200256348 -10.874610900878906 -0.037001222372055054
10.055251121520996 -10.86921501159668 -0.03705378621816635
10.086845397949219 -10.858078956604004 -0.0370870977640152
10.134075164794922 -10.862292289733887 -0.03806605562567711
10.164586067199707 -10.84976863861084 -0.038112033158540726
10.211271286010742 -10.85306167602539 -0.038200099021196365
10.249622344970703 -10.848604202270508 -0.03825922682881355
10.294623374938965 -10.851037979125977 -0.03834306821227074
10.334009170532227 -10.846055030822754 -0.038403380662202835
10.372217178344727 -10.841018676757812 -0.03846168518066406
10.407279014587402 -10.832571983337402 -0.03940890356898308
10.45917797088623 -10.8401460647583 -0.039517682045698166
10.497005462646484 -10.834264755249023 -0.03959182649850845
10.582632064819336 -10.830994606018066 -0.03974239155650139
10.611393928527832 -10.815441131591797 -0.03976603224873543
10.692126274108887 -10.806310653686523 -0.03989766538143158
10.746898651123047 -10.816679954528809 -0.04184667766094208
10.816193580627441 -10.795114517211914 -0.04193904623389244
10.863665580749512 -10.79629135131836 -0.042033664882183075
10.950592994689941 -10.792689323425293 -0.043134719133377075
11.084240913391113 -10.787884712219238 -0.043393153697252274
11.210593223571777 -10.773162841796875 -0.04361927881836891
11.353398323059082 -10.773931503295898 -0.04486584663391113
11.440909385681152 -10.765767097473145 -0.0450320802628994
11.474040985107422 -10.752113342285156 -0.04507448151707649
11.56331729888916 -10.744693756103516 -0.04621051624417305
11.61530590057373 -10.748149871826172 -0.04632900655269623
11.710941314697266 -10.74547290802002 -0.046529632061719894
11.753253936767578 -10.739435195922852 -0.046609025448560715
11.839147567749023 -10.726780891418457 -0.04772799089550972
11.889198303222656 -10.727287292480469 -0.047839898616075516
11.920692443847656 -10.70961856842041 -0.048835307359695435
11.97921371459961 -10.717330932617188 -0.04898380860686302
12.016531944274902 -10.705904960632324 -0.04906284809112549
12.067458152770996 -10.705145835876465 -0.049177300184965134
12.110696792602539 -10.698652267456055 -0.04926292225718498
12.153209686279297 -10.691388130187988 -0.049345456063747406
12.202855110168457 -10.6889066696167 -0.049454204738140106
12.24842357635498 -10.683981895446777 -0.05052342265844345
12.297784805297852 -10.680891036987305 -0.0506327860057354
12.34884262084961 -10.68033504486084 -0.050751615315675735
12.390490531921387 -10.671489715576172 -0.05084926635026932
12.451605796813965 -10.67790412902832 -0.051006488502025604
12.4900541305542 -10.6659517288208 -0.05107308179140091
12.548056602478027 -10.669238090515137 -0.051217012107372284
12.580106735229492 -10.65158748626709 -0.05224580690264702
12.638163566589355 -10.655771255493164 -0.05239499732851982
12.687591552734375 -10.651183128356934 -0.05250546708703041
12.745112419128418 -10.654438018798828 -0.052669793367385864
12.780893325805664 -10.639369010925293 -0.052726298570632935
12.825538635253906 -10.630256652832031 -0.05281669646501541
12.895796775817871 -10.643394470214844 -0.05301498621702194
12.939525604248047 -10.633121490478516 -0.05310123786330223
12.983610153198242 -10.624286651611328 -0.053191572427749634
13.025304794311523 -10.613329887390137 -0.05427948012948036
13.08873462677002 -10.618593215942383 -0.05444919317960739
13.189509391784668 -10.609858512878418 -0.05470295250415802
13.244607925415039 -10.607682228088379 -0.054837435483932495
13.341675758361816 -10.594809532165527 -0.05505669489502907
13.393759727478027 -10.589616775512695 -0.056201912462711334
13.513102531433105 -10.591796875 -0.056515034288167953
13.675565719604492 -10.581023216247559 -0.05693382769823074
13.781259536743164 -10.570320129394531 -0.0582294724881649
13.833099365234375 -10.564558982849121 -0.05835568159818649
13.936017036437988 -10.55053424835205 -0.058601778000593185
13.996438026428223 -10.55065631866455 -0.05878263711929321
14.112008094787598 -10.544864654541016 -0.05908095836639404
14.180585861206055 -10.550297737121582 -0.06031717732548714
14.212807655334473 -10.527199745178223 -0.0603773258626461
14.262451171875 -10.518206596374512 -0.06049538403749466
14.317617416381836 -10.51306438446045 -0.06063656508922577
14.381340026855469 -10.512666702270508 -0.06081133335828781
14.448893547058105 -10.516111373901367 -0.0610046349465847
14.490614891052246 -10.50052261352539 -0.06216149404644966
14.548145294189453 -10.49491024017334 -0.0623120553791523
14.61156940460205 -10.494607925415039 -0.06250965595245361
14.68051528930664 -10.496684074401855 -0.06270873546600342
14.730990409851074 -10.486644744873047 -0.06283111125230789
14.799921989440918 -10.489482879638672 -0.06303209811449051
14.856927871704102 -10.482301712036133 -0.06317950040102005
14.919316291809082 -10.48001480102539 -0.06335220485925674
14.965617179870605 -10.466201782226562 -0.06455131620168686
15.02153205871582 -10.457616806030273 -0.06469598412513733
15.081295013427734 -10.452798843383789 -0.06487952172756195
15.15093994140625 -10.453251838684082 -0.06508304178714752
15.201326370239258 -10.441519737243652 -0.06520622223615646
15.257034301757812 -10.4332275390625 -0.06535206735134125
15.337163925170898 -10.440031051635742 -0.06671234965324402
15.390732765197754 -10.429823875427246 -0.06685099750757217
15.448616981506348 -10.422310829162598 -0.06700827181339264
15.509663581848145 -10.415376663208008 -0.06717634201049805
15.575746536254883 -10.412919998168945 -0.06624549627304077
15.630517959594727 -10.401290893554688 -0.06638366729021072
15.690536499023438 -10.394314765930176 -0.06654681265354156
15.757100105285645 -10.391403198242188 -0.06673754751682281
15.817827224731445 -10.383057594299316 -0.06690069288015366
15.87828540802002 -10.37565803527832 -0.06708554923534393
15.938526153564453 -10.367863655090332 -0.06724897027015686
16.011356353759766 -10.366653442382812 -0.0674627348780632
16.068267822265625 -10.356243133544922 -0.0687580332159996
16.121824264526367 -10.342080116271973 -0.06889250129461288
16.189834594726562 -10.338348388671875 -0.06909127533435822
16.318931579589844 -10.32429313659668 -0.06945601850748062
16.394866943359375 -10.324760437011719 -0.06970877200365067
16.459318161010742 -10.316306114196777 -0.06988892704248428
16.52444839477539 -10.309426307678223 -0.0712423026561737
16.5786190032959 -10.295491218566895 -0.0713835209608078
16.65277862548828 -10.292316436767578 -0.07160798460245132
16.723331451416016 -10.288021087646484 -0.07181940972805023
16.862043380737305 -10.275720596313477 -0.07222867757081985
16.92099952697754 -10.263553619384766 -0.07241106033325195
17.0519962310791 -10.245027542114258 -0.07397905737161636
17.127437591552734 -10.24204158782959 -0.07179942727088928
17.204092025756836 -10.23804759979248 -0.07205051183700562
17.268970489501953 -10.228190422058105 -0.07223314791917801
17.32785987854004 -10.214554786682129 -0.07359665632247925
17.40489959716797 -10.209931373596191 -0.07383105903863907
17.47691535949707 -10.203487396240234 -0.0740465596318245
17.551681518554688 -10.198333740234375 -0.07427345216274261
17.61146354675293 -10.18283462524414 -0.07443421334028244
17.692440032958984 -10.1807222366333 -0.07468704879283905
17.770954132080078 -10.175432205200195 -0.07494862377643585
17.82912826538086 -10.159668922424316 -0.07510488480329514
17.914724349975586 -10.159255981445312 -0.07661134004592896
17.98675537109375 -10.149382591247559 -0.07682646811008453
18.062702178955078 -10.142877578735352 -0.07706079632043839
18.133695602416992 -10.131851196289062 -0.07727112621068954
18.20088005065918 -10.119884490966797 -0.07746769487857819
18.274503707885742 -10.11122989654541 -0.07769165188074112
18.3485164642334 -10.101045608520508 -0.07793692499399185
18.42626953125 -10.094079971313477 -0.0781780555844307
18.502920150756836 -10.086206436157227 -0.07967773824930191
18.591022491455078 -10.082776069641113 -0.07996416836977005
18.667171478271484 -10.07400131225586 -0.0802016630768776
18.734066009521484 -10.05848503112793 -0.08039656281471252
18.83308982849121 -10.061358451843262 -0.08073177933692932
18.889251708984375 -10.041030883789062 -0.07960037887096405
18.97404670715332 -10.034177780151367 -0.07986722886562347
19.063039779663086 -10.030674934387207 -0.08015405386686325
19.145830154418945 -10.023560523986816 -0.08041450381278992
19.218914031982422 -10.00957202911377 -0.08063147962093353
19.290464401245117 -9.996000289916992 -0.08084447681903839
19.385488510131836 -9.992794036865234 -0.08115311712026596
19.466333389282227 -9.983366012573242 -0.08273985981941223
19.548686981201172 -9.974417686462402 -0.0830017477273941
19.6141414642334 -9.955063819885254 -0.08318915963172913
19.71428680419922 -9.954496383666992 -0.08352617919445038
19.807241439819336 -9.949901580810547 -0.08383235335350037
19.880104064941406 -9.933374404907227 -0.08405068516731262
19.983570098876953 -9.933303833007812 -0.08440088480710983
20.154695510864258 -9.91273307800293 -0.08631739765405655
20.239389419555664 -9.902280807495117 -0.08659190684556961
20.325725555419922 -9.890765190124512 -0.08687072992324829
20.40967559814453 -9.87928581237793 -0.08714169263839722
20.5194091796875 -9.87989616394043 -0.08752255141735077
20.585229873657227 -9.857473373413086 -0.08771321922540665
20.690279006958008 -9.855048179626465 -0.08807353675365448
20.961441040039062 -9.823012351989746 -0.08618725091218948
21.05536460876465 -9.812226295471191 -0.08787985146045685
21.145286560058594 -9.80077075958252 -0.08817008137702942
21.426639556884766 -9.768013000488281 -0.08908544480800629
21.525638580322266 -9.757686614990234 -0.08941023051738739
21.60943031311035 -9.741634368896484 -0.08967404067516327
21.714107513427734 -9.734654426574707 -0.09005005657672882
21.818235397338867 -9.725441932678223 -0.09182784706354141
21.919946670532227 -9.716275215148926 -0.0921708196401596
22.031444549560547 -9.709467887878418 -0.09255227446556091
22.122251510620117 -9.694684028625488 -0.09284897893667221
22.224504470825195 -9.684568405151367 -0.09319359064102173
22.332935333251953 -9.675131797790527 -0.09356145560741425
22.52053451538086 -9.645562171936035 -0.09420520067214966
22.74247932434082 -9.62747573852539 -0.09644392877817154
22.84783935546875 -9.616215705871582 -0.0968058779835701
22.961244583129883 -9.606258392333984 -0.09719923883676529
23.058591842651367 -9.590807914733887 -0.09752684831619263
23.173938751220703 -9.580796241760254 -0.0979280024766922
23.278135299682617 -9.567330360412598 -0.09828411787748337
23.387794494628906 -9.55571460723877 -0.09866318106651306
23.50098419189453 -9.543458938598633 -0.09905450791120529
23.85129737854004 -9.511458396911621 -0.10027701407670975
24.177892684936523 -9.465968132019043 -0.10142583400011063
24.293752670288086 -9.45323371887207 -0.10339239984750748
24.53819465637207 -9.429556846618652 -0.10426279902458191
24.87914276123047 -9.38150405883789 -0.10545878857374191
25.11399269104004 -9.349449157714844 -0.1062864288687706
25.241395950317383 -9.337284088134766 -0.10677235573530197
25.476293563842773 -9.30239200592041 -0.10922548174858093
25.85955238342285 -9.25851058959961 -0.11061691492795944
25.978790283203125 -9.238670349121094 -0.111042320728302
26.094392776489258 -9.218795776367188 -0.11145438998937607
26.23436737060547 -9.20705509185791 -0.1119404211640358
26.35329818725586 -9.18564224243164 -0.11236395686864853
26.501815795898438 -9.17574405670166 -0.11291573941707611
26.631103515625 -9.156877517700195 -0.11341339349746704
26.758052825927734 -9.138477325439453 -0.11387299746274948
26.89902114868164 -9.12430191040039 -0.11439204961061478
27.018043518066406 -9.100396156311035 -0.11481527239084244
27.17774772644043 -9.091402053833008 -0.11541350930929184
27.30613899230957 -9.071389198303223 -0.11760374903678894
27.425737380981445 -9.046146392822266 -0.11803533881902695
27.572162628173828 -9.031009674072266 -0.11858457326889038
27.736074447631836 -9.019169807434082 -0.1192065104842186
27.865272521972656 -8.997283935546875 -0.11968126147985458
27.99538803100586 -8.975153923034668 -0.12019148468971252
28.158103942871094 -8.961064338684082 -0.12080768495798111
28.31107521057129 -8.945087432861328 -0.12138406932353973
28.434022903442383 -8.919044494628906 -0.12183152139186859
28.587453842163086 -8.90017318725586 -0.12240726500749588
28.738109588623047 -8.881668090820312 -0.12477658689022064
28.887165069580078 -8.860208511352539 -0.12534135580062866
29.039501190185547 -8.841042518615723 -0.12592250108718872
29.20433807373047 -8.82501220703125 -0.12655757367610931
29.345008850097656 -8.799186706542969 -0.1270853728055954
29.497297286987305 -8.778141021728516 -0.1276988834142685
29.66663360595703 -8.761560440063477 -0.12646494805812836
29.838497161865234 -8.743094444274902 -0.12711773812770844
29.992969512939453 -8.720776557922363 -0.1276983916759491
30.315492630004883 -8.67629337310791 -0.1308055967092514
30.48512077331543 -8.656400680541992 -0.13145966827869415
30.816404342651367 -8.610427856445312 -0.13276518881320953
31.337539672851562 -8.543985366821289 -0.1347762793302536
31.829660415649414 -8.463546752929688 -0.13666123151779175
32.35973358154297 -8.387038230895996 -0.14071235060691833
30.962263107299805 -7.678891181945801 -0.13430947065353394
30.188798904418945 -7.28591775894165 -0.13261708617210388
29.95308494567871 -7.161373138427734 -0.1315135657787323
20.702190399169922 -4.857541084289551 -0.09078481048345566
20.69649314880371 -4.810912132263184 -0.09071581810712814
20.67621612548828 -4.760972023010254 -0.09060578048229218
20.676570892333984 -4.714588165283203 -0.09183487296104431
20.66655921936035 -4.667208671569824 -0.09174748510122299
20.660554885864258 -4.61948823928833 -0.09167680889368057
20.652734756469727 -4.572760105133057 -0.09159979969263077
20.608755111694336 -4.518178939819336 -0.09136281907558441
20.671308517456055 -4.48563289642334 -0.09159766137599945
20.690027236938477 -4.44475793838501 -0.09163960069417953
20.57976531982422 -4.376389980316162 -0.09111049771308899
20.707691192626953 -4.357401371002197 -0.09163587540388107
20.719867706298828 -4.3150811195373535 -0.09165005385875702
20.754343032836914 -4.18630313873291 -0.09297657012939453
20.477245330810547 -4.0407395362854 -0.09165730327367783
20.540672302246094 -4.0089874267578125 -0.09190407395362854
20.697053909301758 -3.9936299324035645 -0.09256599843502045
20.6717472076416 -3.9442696571350098 -0.09241588413715363
20.637773513793945 -3.847780704498291 -0.09342798590660095
20.73992347717285 -3.8223073482513428 -0.09387688338756561
20.813777923583984 -3.7453553676605225 -0.09413927793502808
20.5977725982666 -3.5729525089263916 -0.09305709600448608
20.586576461791992 -3.4378392696380615 -0.09290773421525955
20.537935256958008 -3.2971391677856445 -0.0938623771071434
20.571487426757812 -3.0364487171173096 -0.09382656961679459
23.966140747070312 -3.230173349380493 -0.11055749654769897
23.581708908081055 -3.0275399684906006 -0.11013577878475189
23.4444637298584 -2.909611225128174 -0.10943583399057388
23.313636779785156 -2.84426212310791 -0.10879644751548767
23.241682052612305 -2.7851080894470215 -0.10843165218830109
23.153900146484375 -2.725862741470337 -0.10799352824687958
23.05720329284668 -2.6659810543060303 -0.10750328004360199
22.887100219726562 -2.5486841201782227 -0.1066589280962944
22.82487678527832 -2.4938127994537354 -0.10637187212705612
22.76888084411621 -2.438485860824585 -0.1060866117477417
22.718032836914062 -2.3853652477264404 -0.10582665354013443
22.664451599121094 -2.330827236175537 -0.1069180890917778
22.59679412841797 -2.276463508605957 -0.10657663643360138
22.543399810791016 -2.22383713722229 -0.10630311816930771
22.513010025024414 -2.172288417816162 -0.10613797605037689
22.472455978393555 -2.1213159561157227 -0.1059257909655571
22.417011260986328 -2.069157123565674 -0.10564420372247696
22.342575073242188 -2.01416015625 -0.10527285188436508
22.301958084106445 -1.9638502597808838 -0.10506201535463333
22.217567443847656 -1.862160325050354 -0.10596141219139099
22.161266326904297 -1.8111375570297241 -0.10567492991685867
22.089378356933594 -1.7116448879241943 -0.10532288253307343
21.937158584594727 -1.5611768960952759 -0.10586489737033844
21.80855941772461 -1.41428804397583 -0.10519955307245255
21.258739471435547 -0.8412631750106812 -0.10371105372905731
21.130998611450195 -0.7031888961791992 -0.10182309150695801
21.028709411621094 -0.5674649477005005 -0.10131113231182098
20.90885353088379 -0.4327094256877899 -0.1019708514213562
20.891048431396484 -0.34432926774024963 -0.10187625885009766
20.810958862304688 -0.29981210827827454 -0.10148238390684128
20.799755096435547 -0.25523391366004944 -0.10142480581998825
20.753171920776367 -0.21156582236289978 -0.10119526088237762
20.701873779296875 -0.16683928668498993 -0.10094309598207474
20.65172576904297 -0.12355265021324158 -0.10069695860147476
20.612483978271484 -0.08054187893867493 -0.10052867233753204
20.597599029541016 -0.03650600463151932 -0.10045564919710159
25.797809600830078 0.006267991382628679 0.08520907908678055
25.65970802307129 0.11429920792579651 0.08475346863269806
25.594297409057617 0.16712264716625214 0.08453816920518875
25.489126205444336 0.2737896740436554 0.0841936469078064
25.416873931884766 0.3257658779621124 0.08392730355262756
24.976959228515625 0.6876816749572754 0.08100319653749466
24.8303165435791 0.7367019057273865 0.08053229749202728
24.74032974243164 0.7854214906692505 0.0802454873919487
24.65522575378418 0.833967924118042 0.07997487485408783
24.59351921081543 0.8844534754753113 0.07978074997663498
24.524694442749023 0.9329416155815125 0.07956342399120331
24.44370460510254 0.9806920289993286 0.07930707186460495
24.372840881347656 1.0299748182296753 0.07908417284488678
24.29825782775879 1.0773696899414062 0.07882072031497955
24.014320373535156 1.2160899639129639 0.07792292535305023
23.82001304626465 1.356431484222412 0.07731829583644867
23.581029891967773 1.4916036128997803 0.07657146453857422
22.447980880737305 2.2738754749298096 0.07309239357709885
22.296653747558594 2.400247812271118 0.07264725118875504
22.147756576538086 2.478616952896118 0.07219558209180832
22.094966888427734 2.5191454887390137 0.07204032689332962
22.003591537475586 2.602644443511963 0.0717773288488388
21.931795120239258 2.6416454315185547 0.07156156003475189
21.880809783935547 2.681581497192383 0.07141312956809998
21.828563690185547 2.7211947441101074 0.07126082479953766
21.76519775390625 2.760500431060791 0.07104774564504623
21.701274871826172 2.798189640045166 0.07085804641246796
21.63886070251465 2.8358054161071777 0.06936637312173843
21.621435165405273 2.8804914951324463 0.06932992488145828
21.54665756225586 2.91607403755188 0.06910954415798187
21.514415740966797 2.958500385284424 0.0690261498093605
21.44333267211914 2.994079113006592 0.06881788372993469
21.42198371887207 3.0364584922790527 0.0687694400548935
21.31920051574707 3.1135079860687256 0.07106125354766846
21.25449562072754 3.1491446495056152 0.07086720317602158
21.160717010498047 3.2263808250427246 0.07059919834136963
21.005403518676758 3.33795428276062 0.07014968246221542
20.877416610717773 3.452315092086792 0.06976887583732605
20.741701126098633 3.5639750957489014 0.06938885152339935
19.92167091369629 4.072742938995361 0.06825920939445496
19.57791519165039 4.130856037139893 0.06597025692462921
19.334793090820312 4.16468620300293 0.06520955264568329
19.23607063293457 4.185211181640625 0.06490571051836014
19.135618209838867 4.2061662673950195 0.06459690630435944
19.01347541809082 4.220722675323486 0.06421403586864471
18.92536163330078 4.242391109466553 0.06394602358341217
18.792211532592773 4.254703521728516 0.06350507587194443
18.7043399810791 4.2756547927856445 0.0632379949092865
18.583105087280273 4.288539886474609 0.06285806745290756
18.50556755065918 4.312282085418701 0.06262678653001785
18.396053314208984 4.327051639556885 0.062286440283060074
18.32084846496582 4.350665092468262 0.06206312030553818
18.197378158569336 4.3612775802612305 0.06167539209127426
18.108659744262695 4.379772663116455 0.061405379325151443
18.030805587768555 4.401713848114014 0.06117311120033264
17.90276336669922 4.409862995147705 0.06076963618397713
17.745513916015625 4.4504594802856445 0.061395224183797836
17.65118408203125 4.4657769203186035 0.06110081076622009
17.469491958618164 4.498172283172607 0.060536909848451614
17.389209747314453 4.516000747680664 0.06029105186462402
17.21004295349121 4.54692268371582 0.05973571538925171
17.122995376586914 4.561959743499756 0.05946636572480202
16.96735191345215 4.597107887268066 0.05899256840348244
16.71824073791504 4.642624378204346 0.05822679400444031
15.458165168762207 4.821891784667969 0.055310625582933426
15.240363121032715 4.8592939376831055 0.0546395406126976
15.164163589477539 4.869688510894775 0.054402463138103485
15.09380054473877 4.882686138153076 0.05418732017278671
15.029967308044434 4.896513938903809 0.0539945550262928
14.974335670471191 4.91278600692749 0.05383119732141495
14.891868591308594 4.92099142074585 0.05357235670089722
14.826994895935059 4.933705806732178 0.05337568372488022
