VERSION .7
FIELDS x y z
SIZE 4 4 4
TYPE F F F
COUNT 1 1 1
WIDTH 832
HEIGHT 1
VIEWPOINT 0 0 0 1 0 0 0
POINTS 832
DATA ascii
9.89529037475586 6.960008144378662 -0.0074048652313649654
9.819172859191895 6.968388080596924 -0.0073697823099792
9.779989242553711 6.971219539642334 -0.007350893225520849
9.745627403259277 6.977270603179932 -0.007335740141570568
9.683646202087402 6.9642333984375 -0.007301976438611746
9.661844253540039 6.979020595550537 -0.007293821312487125
9.627132415771484 6.985214710235596 -0.0072786142118275166
9.574178695678711 6.977242946624756 -0.007250555790960789
9.534947395324707 6.978994846343994 -0.0072320252656936646
9.499834060668945 6.984432220458984 -0.0072152200154960155
9.462053298950195 6.987027645111084 -0.007198633626103401
9.424260139465332 6.989387035369873 -0.007181590888649225
9.37759017944336 6.985875606536865 -0.007156551815569401
9.334931373596191 6.984266757965088 -0.008376591838896275
9.30758285522461 6.993978977203369 -0.009013867937028408
9.273582458496094 6.999475955963135 -0.008995533920824528
9.232930183410645 6.99891471862793 -0.008969813585281372
9.197610855102539 7.002243518829346 -0.00894948747009039
9.146446228027344 6.994204521179199 -0.008914468809962273
9.114450454711914 6.99976110458374 -0.00889794435352087
9.079767227172852 7.00393533706665 -0.008877849206328392
9.054330825805664 7.014408588409424 -0.008867422118782997
9.012742042541504 7.0121660232543945 -0.00884111039340496
8.97119140625 7.0105791091918945 -0.00881539098918438
8.939650535583496 7.015935897827148 -0.008797823451459408
8.898455619812012 7.013494491577148 -0.008771923370659351
8.856640815734863 7.011186599731445 -0.008746462874114513
8.824512481689453 7.0156660079956055 -0.008729049935936928
8.783967971801758 7.01323127746582 -0.008703521452844143
8.754339218139648 7.0202507972717285 -0.008688587695360184
8.7125883102417 7.016526222229004 -0.008661480620503426
8.692712783813477 7.030308723449707 -0.008655999787151814
8.62027359008789 7.031977653503418 -0.008613266050815582
8.586921691894531 7.035299777984619 -0.008594661019742489
8.515482902526855 7.0361127853393555 -0.008552025072276592
8.478090286254883 7.035672187805176 -0.010874105617403984
8.406049728393555 7.035879135131836 -0.010819768533110619
8.373336791992188 7.038100242614746 -0.01085358764976263
8.302048683166504 7.03805685043335 -0.010799615643918514
8.210099220275879 7.049291133880615 -0.01073724590241909
8.096895217895508 7.041001319885254 -0.010647108778357506
8.00234317779541 7.0476908683776855 -0.010580694302916527
7.948873996734619 7.060189247131348 -0.01054920069873333
7.910269260406494 7.055394172668457 -0.01051761768758297
7.846379280090332 7.057891845703125 -0.010471919551491737
7.824804306030273 7.067990303039551 -0.010462687350809574
7.763268947601318 7.071929454803467 -0.010420172475278378
7.709727764129639 7.0525617599487305 -0.010368242859840393
7.664280414581299 7.070431709289551 -0.011983375996351242
7.6366868019104 7.074440002441406 -0.01196302380412817
7.56948184967041 7.071576118469238 -0.011904197745025158
7.542661666870117 7.075965404510498 -0.011885278858244419
7.506446838378906 7.0721259117126465 -0.011852014809846878
7.4803056716918945 7.076930999755859 -0.01183383446186781
7.43829345703125 7.066493511199951 -0.011790309101343155
7.416828632354736 7.07623291015625 -0.011780302971601486
7.390757083892822 7.080788612365723 -0.011762436479330063
7.349592208862305 7.070659637451172 -0.011720070615410805
7.326598167419434 7.0786638259887695 -0.011707542464137077
7.300625801086426 7.082996368408203 -0.011689565144479275
7.269009113311768 7.082454204559326 -0.011663064360618591
7.240027904510498 7.083564758300781 -0.011640066280961037
7.200361728668213 7.074134349822998 -0.011599769815802574
7.176323890686035 7.080635070800781 -0.011585448868572712
7.159073352813721 7.092994213104248 -0.011581326834857464
7.117274284362793 7.0809831619262695 -0.01153730321675539
7.093575477600098 7.087547779083252 -0.011523419059813023
7.069962978363037 7.093409538269043 -0.011509100906550884
7.045848369598389 7.098616600036621 -0.011493897996842861
7.016058921813965 7.098795413970947 -0.011470100842416286
6.98109245300293 7.092870712280273 -0.012495582923293114
6.954949378967285 7.095702648162842 -0.012474968098104
6.9197235107421875 7.089923858642578 -0.012438641861081123
6.89876127243042 7.09792947769165 -0.012427644804120064
6.866937637329102 7.095376014709473 -0.012397204525768757
6.834844589233398 7.09168004989624 -0.012365619651973248
6.811614036560059 7.096992492675781 -0.012350091710686684
6.775517463684082 7.089563369750977 -0.012311824597418308
6.75553035736084 7.098155975341797 -0.012302722781896591
6.7378034591674805 7.10901403427124 -0.01229746825993061
6.70045280456543 7.099847316741943 -0.012256506830453873
6.658172607421875 7.114040851593018 -0.012233630754053593
6.629828453063965 7.114082336425781 -0.012209457345306873
6.565833568572998 7.105173110961914 -0.01214620191603899
6.55304479598999 7.120924949645996 -0.012150540947914124
6.497767448425293 7.120809555053711 -0.01210282277315855
6.470155715942383 7.1201701164245605 -0.012079236097633839
6.409207344055176 7.113056182861328 -0.012020804919302464
6.360853672027588 7.119455814361572 -0.011986431665718555
6.342951774597168 7.129140853881836 -0.011980426497757435
6.289193153381348 7.128951072692871 -0.01193553302437067
6.258047103881836 7.123388767242432 -0.011904412880539894
6.20557975769043 7.1239519119262695 -0.011861423961818218
6.195552349090576 7.142313003540039 -0.01187077909708023
6.1264448165893555 7.123027801513672 -0.011795525439083576
6.109396457672119 7.1330952644348145 -0.011791394092142582
6.055997848510742 7.131319522857666 -0.011746294796466827
6.042308330535889 7.145275115966797 -0.011748322285711765
6.008049488067627 7.135547637939453 -0.011711317114531994
5.9761199951171875 7.127593994140625 -0.011677347123622894
5.960105895996094 7.138606548309326 -0.011675558984279633
5.937773704528809 7.142742156982422 -0.011661501601338387
5.90317440032959 7.131174087524414 -0.011622315272688866
5.886817455291748 7.141611576080322 -0.01161925308406353
5.864400386810303 7.145384311676025 -0.011605672538280487
5.832341194152832 7.1365461349487305 -0.011570988222956657
5.818090915679932 7.149336814880371 -0.011572894640266895
5.790792465209961 7.146847724914551 -0.011548482812941074
5.767350196838379 7.148268699645996 -0.011531218886375427
5.743292808532715 7.1487555503845215 -0.011512907221913338
5.716917991638184 7.147067546844482 -0.011490473523736
5.695984840393066 7.151346683502197 -0.011478535830974579
5.66251277923584 7.140493392944336 -0.011441253125667572
5.654514789581299 7.160881519317627 -0.011455968022346497
5.620439052581787 7.148255348205566 -0.01141601987183094
5.596344470977783 7.148910999298096 -0.01139845885336399
5.565578460693359 7.140088081359863 -0.011365548707544804
5.563276767730713 7.168664932250977 -0.011393073946237564
5.532281398773193 7.159350395202637 -0.011359450407326221
5.509803295135498 7.160926342010498 -0.011343317106366158
5.485814094543457 7.161350250244141 -0.011325838044285774
5.465449810028076 7.1655192375183105 -0.011314816772937775
5.442191123962402 7.165893077850342 -0.011297469958662987
5.426235198974609 7.176583766937256 -0.011296040378510952
5.404404163360596 7.178628921508789 -0.011281934566795826
5.379232406616211 7.176215648651123 -0.011260178871452808
5.346996784210205 7.164975643157959 -0.01122436486184597
5.330507755279541 7.173890590667725 -0.011221254244446754
5.306315898895264 7.172454833984375 -0.01120135746896267
5.284654140472412 7.175103187561035 -0.011188153177499771
5.264685153961182 7.179142951965332 -0.011177264153957367
5.238622188568115 7.175696849822998 -0.011154821142554283
5.227917194366455 7.192327499389648 -0.01116397138684988
5.1943511962890625 7.1774187088012695 -0.010629271157085896
5.172884941101074 7.180002212524414 -0.010616810992360115
5.1548752784729 7.186401844024658 -0.010610475204885006
5.104383945465088 7.179661750793457 -0.010568401776254177
5.091866493225098 7.193619251251221 -0.010573700070381165
5.047305107116699 7.194726943969727 -0.010544016025960445
5.02125883102417 7.189287185668945 -0.010520230047404766
4.982195854187012 7.19774055480957 -0.010502343997359276
4.927539348602295 7.183236122131348 -0.010450317524373531
4.9061503410339355 7.1839704513549805 -0.01043655164539814
4.863544464111328 7.186382293701172 -0.010410531423985958
4.8467512130737305 7.193684101104736 -0.010406446643173695
4.805275917053223 7.197351932525635 -0.00989968329668045
4.7791523933410645 7.190491676330566 -0.009876531548798084
4.753301620483398 7.184844017028809 -0.009854553267359734
4.736997127532959 7.192590236663818 -0.009851645678281784
4.719792366027832 7.19894552230835 -0.009847155772149563
4.701964855194092 7.205275058746338 -0.009842390194535255
4.675475120544434 7.197272300720215 -0.009384023025631905
4.660403251647949 7.2067646980285645 -0.009383782744407654
4.644280433654785 7.215590000152588 -0.009382408112287521
4.615532875061035 7.203730583190918 -0.0093545475974679
4.600225925445557 7.212831020355225 -0.009353894740343094
4.569181442260742 7.197942733764648 -0.009321785531938076
4.558701038360596 7.2144775390625 -0.00933110062032938
4.532655239105225 7.206415176391602 -0.008833450265228748
4.518054485321045 7.217281341552734 -0.008834948763251305
4.495224952697754 7.214056491851807 -0.008775019086897373
4.472349643707275 7.211622714996338 -0.008760389871895313
4.454144477844238 7.215654373168945 -0.008753947913646698
4.427642345428467 7.206136226654053 -0.008731317706406116
4.4083757400512695 7.209261417388916 -0.008723638020455837
4.390035629272461 7.212857246398926 -0.008716966956853867
4.374479293823242 7.220997333526611 -0.008715810254216194
4.349542617797852 7.214565277099609 -0.008696761913597584
4.328261375427246 7.213075637817383 -0.008684150874614716
4.308444976806641 7.214027404785156 -0.008674422279000282
4.288270473480225 7.215130805969238 -0.008664705790579319
4.2686896324157715 7.2162394523620605 -0.008655448444187641
4.254238128662109 7.226073741912842 -0.008656738325953484
4.233695030212402 7.226358890533447 -0.008646123111248016
4.200559139251709 7.204034328460693 -0.008608902804553509
4.1857099533081055 7.2139387130737305 -0.007723400369286537
4.166829586029053 7.215854644775391 -0.0077162873931229115
5.516664505004883 -10.422566413879395 0.010982457548379898
5.533837795257568 -10.40121078491211 0.010972538031637669
5.556259632110596 -10.391294479370117 0.010974068194627762
5.580507278442383 -10.383235931396484 0.01104055531322956
5.604063510894775 -10.375374794006348 0.011044125072658062
5.626976013183594 -10.366291046142578 0.011047076433897018
5.66989278793335 -10.392343521118164 0.011087872087955475
5.696471691131592 -10.38971996307373 0.011097487062215805
5.747497081756592 -10.378857612609863 0.010325344279408455
5.778316020965576 -10.383606910705566 0.010404259897768497
5.805115222930908 -10.381006240844727 0.01041371189057827
5.832219123840332 -10.377372741699219 0.010422776453197002
5.86036491394043 -10.376976013183594 0.011099159717559814
5.894211769104004 -10.385163307189941 0.011121098883450031
5.9147629737854 -10.371048927307129 0.011119195260107517
5.944518089294434 -10.37314224243164 0.011134759522974491
5.971765995025635 -10.369278907775879 0.011144439689815044
6.003013610839844 -10.373700141906738 0.011162256821990013
6.026519775390625 -10.364645004272461 0.011165913194417953
6.0608320236206055 -10.372600555419922 0.011188729666173458
6.091536521911621 -10.37565803527832 0.011205366812646389
6.1198554039001465 -10.374523162841797 0.01121782697737217
6.148168087005615 -10.371824264526367 0.011229106225073338
6.174882888793945 -10.367781639099121 0.011238563805818558
6.2039618492126465 -10.367609024047852 0.011252447962760925
6.230497360229492 -10.361651420593262 0.011260279454290867
6.259014129638672 -10.360333442687988 0.01127304695546627
6.2927374839782715 -10.366056442260742 0.011293694376945496
6.320370674133301 -10.363035202026367 0.01130467839539051
6.348848819732666 -10.361299514770508 0.011316959746181965
6.371621608734131 -10.348773002624512 0.011318246833980083
6.459383010864258 -10.345074653625488 0.010614266619086266
6.48330020904541 -10.335573196411133 0.010618381202220917
6.522039413452148 -10.348158836364746 0.01064531784504652
6.548853397369385 -10.343057632446289 0.010653698816895485
6.571165084838867 -10.330799102783203 0.01065561082214117
6.612504959106445 -10.346916198730469 0.010686398483812809
6.631861686706543 -10.329898834228516 0.010683097876608372
6.66310453414917 -10.331342697143555 0.01069924421608448
6.695522785186768 -10.333077430725098 0.010715382173657417
6.722506046295166 -10.327693939208984 0.010724393650889397
6.74491548538208 -10.315238952636719 0.010725990869104862
6.806532859802246 -10.314374923706055 0.010754826478660107
6.835723876953125 -10.310630798339844 0.01076613087207079
6.870192527770996 -10.316075325012207 0.010786625556647778
6.897062301635742 -10.309981346130371 0.010795211419463158
6.930247783660889 -10.31185531616211 0.010812528431415558
6.953261375427246 -10.299863815307617 0.010815387591719627
6.99512243270874 -10.315646171569824 0.010846917517483234
7.020479679107666 -10.305577278137207 0.010852004401385784
7.057553768157959 -10.313935279846191 0.010876281186938286
7.083622455596924 -10.306077003479004 0.010883384384214878
7.112340450286865 -10.300651550292969 0.011591716669499874
7.147477626800537 -10.305733680725098 0.011614320799708366
7.176555633544922 -10.300601959228516 0.011625835672020912
7.239524841308594 -10.299577713012695 0.011658450588583946
7.267944812774658 -10.29320240020752 0.011668799445033073
7.297697067260742 -10.289953231811523 0.011682219803333282
7.331386566162109 -10.290796279907227 0.011700869537889957
7.366360187530518 -10.2946138381958 0.011722537688910961
7.388598442077637 -10.280545234680176 0.011723959818482399
7.4269185066223145 -10.287420272827148 0.01174980029463768
7.457302570343018 -10.284467697143555 0.01176413707435131
7.478709697723389 -10.269082069396973 0.011764390394091606
7.520124435424805 -10.279731750488281 0.011794891208410263
7.542422771453857 -10.265439987182617 0.011796394363045692
7.572546005249023 -10.261627197265625 0.011810298077762127
7.607550621032715 -10.263214111328125 0.011830740608274937
7.634184837341309 -10.254593849182129 0.01183886919170618
7.681523323059082 -10.272296905517578 0.011878008022904396
7.711312294006348 -10.267635345458984 0.011891284957528114
7.7983222007751465 -10.248675346374512 0.011925840750336647
7.838448524475098 -10.257169723510742 0.01195469032973051
7.875046253204346 -10.259556770324707 0.011908936314284801
7.897029399871826 -10.244112968444824 0.011910042725503445
7.968907833099365 -10.247808456420898 0.011953268200159073
8.0325927734375 -10.240416526794434 0.011984049342572689
8.063568115234375 -10.236092567443848 0.011998471803963184
8.124702453613281 -10.22481918334961 0.012025286443531513
8.155645370483398 -10.22014331817627 0.012039652094244957
8.219871520996094 -10.212114334106445 0.012070879340171814
8.254571914672852 -10.211769104003906 0.012090818025171757
8.29631233215332 -10.21867847442627 0.012119825929403305
8.334041595458984 -10.221728324890137 0.012143919244408607
8.356502532958984 -10.205958366394043 0.012145870365202427
8.382542610168457 -10.193260192871094 0.01215195283293724
8.434412956237793 -10.213059425354004 0.012196379713714123
8.470596313476562 -10.213520050048828 0.012217961251735687
8.528711318969727 -10.196008682250977 0.012239808216691017
8.567234992980957 -10.198872566223145 0.012264663353562355
8.596321105957031 -10.189332008361816 0.01227518729865551
8.636393547058105 -10.19383430480957 0.0123020950704813
8.666234970092773 -10.18486213684082 0.013059498742222786
8.695854187011719 -10.17680549621582 0.01307227835059166
8.738451957702637 -10.183793067932129 0.013104517944157124
8.775118827819824 -10.182430267333984 0.013126854784786701
8.817902565002441 -10.189241409301758 0.013159197755157948
8.841004371643066 -10.173083305358887 0.013162059709429741
8.87816047668457 -10.171977043151855 0.013185074552893639
8.920222282409668 -10.177460670471191 0.01321614719927311
8.94494342803955 -10.162932395935059 0.013221421279013157
8.987500190734863 -10.167515754699707 0.013252267614006996
9.011229515075684 -10.151719093322754 0.01325608603656292
9.061044692993164 -10.164127349853516 0.013297472149133682
9.096526145935059 -10.161397933959961 0.013318568468093872
9.134088516235352 -10.160741806030273 0.013342587277293205
9.155826568603516 -10.141372680664062 0.013342742808163166
9.207183837890625 -10.155806541442871 0.013386841863393784
9.236801147460938 -10.144838333129883 0.013398365117609501
9.277787208557129 -10.147473335266113 0.013427242636680603
9.354433059692383 -10.14517593383789 0.01347621250897646
9.389432907104492 -10.140828132629395 0.01349628996104002
9.426889419555664 -10.138885498046875 0.013519777916371822
9.457276344299316 -10.128203392028809 0.013532375916838646
9.498495101928711 -10.130121231079102 0.013561245054006577
9.539828300476074 -10.131875991821289 0.015215774066746235
9.582064628601074 -10.133378982543945 0.015248577110469341
9.620341300964355 -10.131659507751465 0.015276111662387848
9.657655715942383 -10.127540588378906 0.015300917439162731
9.686491012573242 -10.115665435791016 0.015313372947275639
9.76750373840332 -10.11464786529541 0.015373898670077324
9.79944133758545 -10.105667114257812 0.015391144901514053
9.882265090942383 -10.105570793151855 0.015454256907105446
9.994804382324219 -10.092934608459473 0.01553070917725563
10.072396278381348 -10.085975646972656 0.015585042536258698
10.196894645690918 -10.083061218261719 0.015604118816554546
10.303481101989746 -10.061138153076172 0.015669947490096092
10.35142993927002 -10.065974235534668 0.01571086421608925
10.379358291625977 -10.050189018249512 0.014914961531758308
10.440544128417969 -10.067538261413574 0.014972889795899391
10.479196548461914 -10.062820434570312 0.017582256346940994
10.510730743408203 -10.050138473510742 0.01759885810315609
10.553385734558105 -10.04908275604248 0.017635527998209
10.58436107635498 -10.036675453186035 0.017652250826358795
10.639304161071777 -10.045804977416992 0.01770813763141632
10.675863265991211 -10.038498878479004 0.01765754446387291
10.721994400024414 -10.039928436279297 0.01777629926800728
10.768874168395996 -10.040842056274414 0.017741093412041664
10.798664093017578 -10.026702880859375 0.017755810171365738
10.853628158569336 -10.03475284576416 0.017810920253396034
10.892736434936523 -10.029064178466797 0.01784099079668522
10.92245101928711 -10.014514923095703 0.017855113372206688
10.967386245727539 -10.012782096862793 0.017893854528665543
11.020620346069336 -10.019423484802246 0.01794717088341713
11.05300521850586 -10.007048606872559 0.017965514212846756
11.098822593688965 -10.005576133728027 0.017171792685985565
11.143815040588379 -10.004189491271973 0.017209405079483986
11.193744659423828 -10.006017684936523 0.017253344878554344
11.223254203796387 -9.990571975708008 0.017266834154725075
11.272906303405762 -9.992812156677246 0.01731136068701744
11.308019638061523 -9.980986595153809 0.017332399263978004
11.368157386779785 -9.992067337036133 0.017392870038747787
11.394752502441406 -9.973605155944824 0.017401691526174545
11.455323219299316 -9.983590126037598 0.017461862415075302
11.495915412902832 -9.976961135864258 0.01935003697872162
11.55016040802002 -9.980964660644531 0.01932542771100998
11.580156326293945 -9.964985847473145 0.019340800121426582
11.629215240478516 -9.965167045593262 0.019387947395443916
11.689674377441406 -9.973851203918457 0.01945398561656475
11.720909118652344 -9.958545684814453 0.01947088912129402
11.777843475341797 -9.964801788330078 0.019531050696969032
11.961058616638184 -9.948277473449707 0.019695164635777473
12.041945457458496 -9.930055618286133 0.01975933648645878
12.198555946350098 -9.931026458740234 0.0199139341711998
12.33155632019043 -9.911054611206055 0.0200286116451025
12.476933479309082 -9.89943790435791 0.020163100212812424
12.587972640991211 -9.901440620422363 0.020275425165891647
12.62743854522705 -9.890027046203613 0.021284813061356544
12.732586860656738 -9.886256217956543 0.02049245871603489
12.781167030334473 -9.881424903869629 0.02053751051425934
12.831168174743652 -9.876466751098633 0.020584048703312874
12.87651252746582 -9.868884086608887 0.02062385529279709
12.916229248046875 -9.856735229492188 0.020654169842600822
12.968941688537598 -9.853302001953125 0.020704831928014755
13.008872985839844 -9.8411283493042 0.020650243386626244
13.089442253112793 -9.859329223632812 0.020745767280459404
13.119608879089355 -9.838302612304688 0.02076026238501072
13.169597625732422 -9.833049774169922 0.020806577056646347
13.217617988586426 -9.826249122619629 0.02085038460791111
13.277515411376953 -9.826915740966797 0.02091188356280327
13.32646656036377 -9.820300102233887 0.020956626161932945
13.368032455444336 -9.807042121887207 0.020989079028367996
13.4180269241333 -9.8008451461792 0.021035628393292427
13.478543281555176 -9.80221939086914 0.02109849825501442
13.543732643127441 -9.805569648742676 0.021167777478694916
13.577570915222168 -9.787078857421875 0.021188588812947273
13.64523696899414 -9.792888641357422 0.0212627574801445
13.670638084411621 -9.767050743103027 0.02126936987042427
13.722763061523438 -9.76123332977295 0.021318703889846802
13.790271759033203 -9.766219139099121 0.021392488852143288
13.887251853942871 -9.747342109680176 0.021478522568941116
13.93439769744873 -9.736178398132324 0.021519266068935394
14.0064115524292 -9.743191719055176 0.02159956470131874
14.059494972229004 -9.736886978149414 0.021649938076734543
14.100934982299805 -9.721190452575684 0.021681470796465874
14.212287902832031 -9.711073875427246 0.021790631115436554
14.257080078125 -9.697178840637207 0.02182743139564991
14.37822437286377 -9.691262245178223 0.020983455702662468
14.539583206176758 -9.667651176452637 0.021129760891199112
15.011283874511719 -9.621915817260742 0.0214837696403265
15.17805004119873 -9.5947265625 0.019538043066859245
15.257233619689941 -9.600414276123047 0.019614554941654205
15.383532524108887 -9.589686393737793 0.019725017249584198
15.419963836669922 -9.568017959594727 0.01974574103951454
15.544356346130371 -9.55477237701416 0.01985333114862442
15.60503101348877 -9.547504425048828 0.01990557834506035
15.667632102966309 -9.5399808883667 0.019959403201937675
15.783388137817383 -9.520781517028809 0.02005624771118164
15.84493350982666 -9.511914253234863 0.02010856568813324
15.915616989135742 -9.509358406066895 0.02017325535416603
15.970520973205566 -9.496039390563965 0.020217090845108032
16.038049697875977 -9.49108600616455 0.02027749828994274
16.09108543395996 -9.477437973022461 0.02031959593296051
16.16869354248047 -9.476800918579102 0.020392252132296562
16.234691619873047 -9.470158576965332 0.020450497046113014
16.30259132385254 -9.4644775390625 0.020511444658041
16.366491317749023 -9.454887390136719 0.020566333085298538
16.420692443847656 -9.440804481506348 0.020609604194760323
16.488618850708008 -9.434385299682617 0.019611017778515816
16.55735969543457 -9.426824569702148 0.019568273797631264
16.638795852661133 -9.427522659301758 0.019641533493995667
16.69330406188965 -9.411471366882324 0.017443707212805748
16.755123138427734 -9.400436401367188 0.017487846314907074
16.921688079833984 -9.400412559509277 0.017620431259274483
17.04912567138672 -9.378823280334473 0.017712324857711792
17.40052032470703 -9.335533142089844 0.01687336526811123
17.482421875 -9.331552505493164 0.016933465376496315
17.603994369506836 -9.302651405334473 0.017013628035783768
18.30138397216797 -9.232537269592285 0.01740776002407074
18.54322052001953 -9.208756446838379 0.014009279198944569
18.696378707885742 -9.186984062194824 0.014095614664256573
18.791345596313477 -9.185165405273438 0.014152748510241508
18.946735382080078 -9.16246509552002 0.014240629971027374
19.034372329711914 -9.156156539916992 0.014292119070887566
19.195953369140625 -9.134535789489746 0.014384458772838116
19.461109161376953 -9.11110782623291 0.013228372670710087
19.535097122192383 -9.096370697021484 0.013265903107821941
19.613536834716797 -9.082086563110352 0.013305965811014175
19.71042823791504 -9.077201843261719 0.013358516618609428
19.78838348388672 -9.063375473022461 0.01339830830693245
19.874305725097656 -9.001667976379395 0.01343012135475874
19.876920700073242 -8.90216064453125 0.01340649463236332
19.880775451660156 -8.854400634765625 0.013396759517490864
19.91887092590332 -8.771029472351074 0.01339741237461567
19.93727684020996 -8.729782104492188 0.010854043997824192
19.954662322998047 -8.686641693115234 0.010853370651602745
19.945051193237305 -8.633269309997559 0.00962559413164854
19.9597110748291 -8.59047794342041 0.009623744525015354
19.97622299194336 -8.547051429748535 0.009622675366699696
19.993602752685547 -8.505446434020996 0.009622344747185707
19.998489379882812 -8.40823745727539 0.009607579559087753
20.003204345703125 -8.361413955688477 0.009601674973964691
20.03929901123047 -8.277535438537598 0.009602006524801254
20.035655975341797 -8.227399826049805 0.009592055343091488
20.159740447998047 -7.59334659576416 0.006911255419254303
20.179182052612305 -7.073546886444092 0.005554070696234703
20.196182250976562 -7.032479286193848 0.005554528441280127
20.198122024536133 -6.9861907958984375 0.005551278591156006
20.221065521240234 -6.945798397064209 0.005553410854190588
20.221508026123047 -6.899069786071777 0.005549043882638216
20.211345672607422 -6.84881067276001 0.005542636848986149
20.213903427124023 -6.801571846008301 0.005539665464311838
20.202342987060547 -6.751043319702148 0.005533225834369659
20.211185455322266 -6.7072882652282715 0.005531802773475647
20.239826202392578 -6.6689453125 0.005535213276743889
19.760679244995117 -6.465636253356934 0.005408229306340218
20.263160705566406 -6.582163333892822 0.005533732008188963
20.26646614074707 -6.53677225112915 0.006609252188354731
20.25947380065918 -6.440447807312012 0.006598099134862423
20.285367965698242 -6.402359962463379 0.006602123845368624
20.279373168945312 -6.354106426239014 0.005409254226833582
20.306127548217773 -6.314999103546143 0.0054128956981003284
20.30550765991211 -6.268622875213623 0.005409122444689274
20.31023597717285 -6.222591876983643 0.005407184828072786
20.31229019165039 -6.1771416664123535 0.005404188297688961
20.362905502319336 -5.959728240966797 0.005290213041007519
20.277578353881836 -4.976372718811035 0.0074303289875388145
20.218904495239258 -4.827414512634277 0.0062360744923353195
20.21034812927246 -4.781062602996826 0.006122784689068794
20.19692611694336 -4.68815803527832 0.0061125620268285275
20.177610397338867 -4.6395673751831055 0.006103490944951773
20.196346282958984 -4.554409503936768 0.0061035375110805035
20.18414878845215 -4.507663249969482 0.006096815224736929
20.1907901763916 -4.4638848304748535 0.006096345372498035
20.177452087402344 -4.417037010192871 0.006089339032769203
20.16437530517578 -4.37023401260376 0.006082478910684586
20.143234252929688 -4.320730686187744 0.009417771361768246
20.172590255737305 -4.28325891494751 0.009428001008927822
20.138153076171875 -4.232182025909424 0.009407158009707928
20.134113311767578 -4.186551570892334 0.009401777759194374
20.131418228149414 -4.142317771911621 0.009396112523972988
20.128904342651367 -4.098278999328613 0.009391384199261665
20.11312484741211 -4.0504469871521 0.009379513561725616
20.098979949951172 -4.004107475280762 0.009369028732180595
20.108848571777344 -3.961538791656494 0.009369609877467155
20.097116470336914 -3.9159207344055176 0.00935953576117754
20.09208106994629 -3.8715710639953613 0.00935438834130764
20.076534271240234 -3.824221134185791 0.009343022480607033
20.071395874023438 -3.7800962924957275 0.009336910210549831
20.069477081298828 -3.735358953475952 0.009332570247352123
20.06505584716797 -3.6914710998535156 0.008187559433281422
20.046932220458984 -3.5579922199249268 0.00806540809571743
19.989336013793945 -3.418288469314575 0.008032375015318394
19.885644912719727 -2.7592031955718994 0.01120983436703682
19.884305953979492 -2.6317155361175537 0.011096706613898277
19.857036590576172 -2.501189947128296 0.01107256580144167
19.851242065429688 -2.4155759811401367 0.01106502115726471
19.83736801147461 -2.3721225261688232 0.011053296737372875
19.825347900390625 -2.2860403060913086 0.009926820173859596
19.828739166259766 -2.2447454929351807 0.009926083497703075
19.817399978637695 -2.1589725017547607 0.01325569860637188
19.81032371520996 -2.116508722305298 0.013247909024357796
19.822826385498047 -2.0762481689453125 0.013254666700959206
19.8074893951416 -2.0319769382476807 0.013239412568509579
19.810380935668945 -1.990635871887207 0.013239314779639244
19.814495086669922 -1.9484065771102905 0.013239320367574692
19.795303344726562 -1.9049475193023682 0.013223748654127121
19.787227630615234 -1.8627359867095947 0.013215633109211922
19.791460037231445 -1.8205928802490234 0.013112057000398636
19.78346061706543 -1.778359293937683 0.01310510840266943
19.787731170654297 -1.7373555898666382 0.013104650191962719
19.768268585205078 -1.6932029724121094 0.013090134598314762
19.763126373291016 -1.610061764717102 0.011974925175309181
19.76570701599121 -1.567878246307373 0.011974315159022808
19.74959945678711 -1.4829306602478027 0.0119614964351058
19.73589324951172 -1.3571871519088745 0.011947094462811947
19.69562339782715 -1.230065941810608 0.011920089833438396
19.464853286743164 -0.35635101795196533 0.010470123030245304
19.47042465209961 -0.23402139544487 0.010473218746483326
19.440555572509766 -0.19321376085281372 0.009370136074721813
19.421300888061523 -0.1113264411687851 0.009359592571854591
19.398075103759766 -0.07083676755428314 0.009346544742584229
19.402992248535156 -0.029506130144000053 0.009351742453873158
23.132307052612305 0.06083107739686966 0.20163817703723907
23.084835052490234 0.20583726465702057 0.20123039186000824
23.05804443359375 0.5927450656890869 0.1996474266052246
23.019933700561523 0.6396900415420532 0.19932760298252106
22.994422912597656 0.6867385506629944 0.19911997020244598
22.99081802368164 0.735672116279602 0.1991027295589447
22.972637176513672 0.7829343676567078 0.19767507910728455
22.973060607910156 0.8306810855865479 0.19769392907619476
22.93918800354004 0.8785276412963867 0.19741788506507874
22.945167541503906 0.9264459609985352 0.1974857747554779
22.931777954101562 0.9735748171806335 0.19738781452178955
22.930057525634766 1.022578477859497 0.19739213585853577
22.927928924560547 1.0701625347137451 0.19739246368408203
22.915624618530273 1.1185342073440552 0.19730517268180847
22.897239685058594 1.2130341529846191 0.19719012081623077
22.9062557220459 1.262468934059143 0.1971728652715683
22.866792678833008 1.3569111824035645 0.19688032567501068
22.82128143310547 1.4982402324676514 0.1952863186597824
22.548978805541992 2.8167386054992676 0.1838853508234024
22.51881217956543 2.9093377590179443 0.18362008035182953
22.50377655029297 2.955005645751953 0.18227910995483398
22.467761993408203 3.0464649200439453 0.18208909034729004
22.46931266784668 3.094292163848877 0.1821536272764206
22.450899124145508 3.1880383491516113 0.1821109652519226
22.428882598876953 3.232527017593384 0.18198733031749725
22.399389266967773 3.3246283531188965 0.18185989558696747
22.38704490661621 3.3702917098999023 0.18181593716144562
22.356904983520508 3.4144937992095947 0.1816294938325882
22.326215744018555 3.4573514461517334 0.18143852055072784
22.255294799804688 3.4936764240264893 0.18080338835716248
22.23208236694336 3.5385942459106445 0.1806759387254715
22.195566177368164 3.5801429748535156 0.18043915927410126
22.18439483642578 3.625591278076172 0.17915377020835876
22.145889282226562 3.667769432067871 0.17890535295009613
22.122413635253906 3.7111828327178955 0.17877759039402008
22.116661071777344 3.757422924041748 0.1789097934961319
22.086463928222656 3.800736665725708 0.17372235655784607
22.024810791015625 3.837320566177368 0.17329981923103333
21.972259521484375 3.875162363052368 0.17294922471046448
21.94683837890625 3.918921947479248 0.1728144735097885
21.910167694091797 3.9594264030456543 0.1725902259349823
21.897960662841797 4.005428314208984 0.172560915350914
21.8182373046875 4.132762908935547 0.17213399708271027
21.74492645263672 4.260654449462891 0.17041102051734924
21.678577423095703 4.389347553253174 0.17010396718978882
21.590200424194336 4.5129289627075195 0.1696297526359558
20.92923927307129 5.487337589263916 0.16145120561122894
20.88672637939453 5.52254056930542 0.16121146082878113
20.84193992614746 5.604714870452881 0.16104674339294434
20.810455322265625 5.642698764801025 0.1608937680721283
20.78316307067871 5.6828718185424805 0.15957222878932953
20.742916107177734 5.718157768249512 0.1592431217432022
20.727930068969727 5.7604522705078125 0.1580173671245575
20.682086944580078 5.795217514038086 0.15776188671588898
20.68111801147461 5.84126091003418 0.1578463613986969
20.646163940429688 5.87779426574707 0.15767285227775574
20.622543334960938 5.918607711791992 0.1575884073972702
20.58961296081543 5.9554314613342285 0.1574310064315796
20.572004318237305 5.996743679046631 0.15739084780216217
20.523441314697266 6.030070781707764 0.15700730681419373
20.508502960205078 6.0719428062438965 0.15698887407779694
20.474149703979492 6.108128547668457 0.1568230390548706
20.468931198120117 6.154104709625244 0.15688303112983704
20.4273681640625 6.187975883483887 0.1566629260778427
20.42335319519043 6.234306335449219 0.15673330426216125
20.386905670166016 6.269458293914795 0.15655310451984406
20.354726791381836 6.305943965911865 0.1564069241285324
20.319032669067383 6.342372894287109 0.1562359631061554
20.306127548217773 6.384620666503906 0.15504926443099976
20.30061912536621 6.42932653427124 0.15510833263397217
20.245203018188477 6.4592790603637695 0.15479041635990143
20.197202682495117 6.536561965942383 0.15462972223758698
20.161359786987305 6.572460174560547 0.15446239709854126
20.084674835205078 6.68743371963501 0.15526646375656128
19.97081184387207 6.789283752441406 0.15460403263568878
19.887292861938477 6.900663375854492 0.15429013967514038
19.748945236206055 6.992067337036133 0.1523856520652771
18.140350341796875 7.072944641113281 0.1435936689376831
17.846540451049805 7.087958812713623 0.14161773025989532
17.58449363708496 7.112189292907715 0.13989083468914032
17.291465759277344 7.120484352111816 0.1379130780696869
17.182039260864258 7.11726713180542 0.13715754449367523
17.087125778198242 7.120649337768555 0.13652096688747406
17.00326156616211 7.127148628234863 0.13587237894535065
16.914011001586914 7.131144046783447 0.13527753949165344
16.81527328491211 7.131757736206055 0.1346089392900467
16.734867095947266 7.138666152954102 0.1340835839509964
16.627765655517578 7.133903980255127 0.13334421813488007
16.551565170288086 7.1430134773254395 0.13184861838817596
16.46657943725586 7.146908760070801 0.13128946721553802
16.376712799072266 7.149518013000488 0.13069455325603485
16.309694290161133 7.160592555999756 0.1302781105041504
16.194555282592773 7.1501641273498535 0.12947633862495422
16.127201080322266 7.161632061004639 0.12906011939048767
16.033397674560547 7.159847736358643 0.12833604216575623
15.963891983032227 7.168580532073975 0.13180604577064514
15.86115837097168 7.163201808929443 0.1301116794347763
15.78200912475586 7.166924476623535 0.12958383560180664
15.717140197753906 7.176944732666016 0.12917408347129822
15.637080192565918 7.180697441101074 0.12855149805545807
15.55046272277832 7.1800336837768555 0.1279618740081787
15.501911163330078 7.196780204772949 0.12768667936325073
15.393720626831055 7.186466217041016 0.12692023813724518
15.329486846923828 7.1952619552612305 0.126512810587883
15.244836807250977 7.195310592651367 0.1259409338235855
15.1779146194458 7.202276229858398 0.1255112737417221
15.088550567626953 7.198270320892334 0.12489485740661621
15.028009414672852 7.208838939666748 0.12452170252799988
14.9376802444458 7.203677654266357 0.12389594316482544
14.885448455810547 7.216601371765137 0.12358808517456055
14.72238540649414 7.214280128479004 0.12248444557189941
14.515647888183594 7.226491451263428 0.12113990634679794
14.30570125579834 7.234549522399902 0.1188696101307869
13.702136039733887 7.258065223693848 0.11740944534540176
13.50259780883789 7.261436939239502 0.11608808487653732
13.324407577514648 7.27396821975708 0.11494719982147217
13.135703086853027 7.278512001037598 0.11371172964572906
13.02975082397461 7.291694164276123 0.11298240721225739
12.976516723632812 7.297306060791016 0.11273012310266495
12.84243106842041 7.293261528015137 0.1117539182305336
12.784696578979492 7.295602321624756 0.11138153076171875
12.66124153137207 7.296009063720703 0.11220349371433258
12.606602668762207 7.299414157867432 0.11185518652200699
12.557904243469238 7.306056022644043 0.11155660450458527
12.491929054260254 7.303435802459717 0.11110849678516388
12.444560050964355 7.310434818267822 0.11082375794649124
12.378867149353027 7.306439399719238 0.11037168651819229
12.332267761230469 7.314501762390137 0.11009746789932251
12.270206451416016 7.3121562004089355 0.10967724025249481
12.230818748474121 7.324134826660156 0.10946580022573471
12.155879974365234 7.313574314117432 0.10892853140830994
12.109437942504883 7.319901466369629 0.10857435315847397
12.052434921264648 7.320644855499268 0.10741516202688217
12.00492000579834 7.325930595397949 0.10712829977273941
11.966651916503906 7.336701393127441 0.10692410171031952
11.903450965881348 7.332985877990723 0.10649639368057251
11.838310241699219 7.326790809631348 0.10605005919933319
11.79035472869873 7.331991672515869 0.10576067864894867
11.753667831420898 7.343044281005859 0.1055695116519928
11.693480491638184 7.339223861694336 0.10516460239887238
11.63870906829834 7.33955192565918 0.1048128604888916
11.600014686584473 7.34883975982666 0.1046024039387703
11.543238639831543 7.34648323059082 0.1042272299528122
11.491673469543457 7.348205089569092 0.10390281677246094
11.420598030090332 7.336191654205322 0.1041545420885086
11.389654159545898 7.349747180938721 0.10401131957769394
11.324020385742188 7.341705799102783 0.10355367511510849
11.298223495483398 7.358326435089111 0.10345932096242905
11.22079086303711 7.3411030769348145 0.10288695991039276
11.19794750213623 7.360365867614746 0.10282286256551743
11.130843162536621 7.349383354187012 0.10234621167182922
10.993330001831055 7.358242511749268 0.10076846182346344
10.84131145477295 7.355598449707031 0.09979609400033951
10.706399917602539 7.3627777099609375 0.09897682815790176
10.56724739074707 7.365357398986816 0.09811725467443466
10.431083679199219 7.3691887855529785 0.09728380292654037
10.297420501708984 7.372321605682373 0.09582972526550293
10.20689868927002 7.372647285461426 0.09527348726987839
10.171964645385742 7.379666328430176 0.09509117901325226
10.08698844909668 7.382974147796631 0.09458666294813156
10.049566268920898 7.387740135192871 0.09438034892082214
9.947405815124512 7.377372741699219 0.0937112346291542
9.926775932312012 7.394052028656006 0.09366238862276077
9.82373046875 7.381826400756836 0.09298086911439896
9.7717924118042 7.374576091766357 0.09263259172439575
9.712950706481934 7.394578456878662 0.09237045049667358
9.684224128723145 7.404502868652344 0.09224431216716766
9.617929458618164 7.386345863342285 0.09176108986139297
9.585478782653809 7.3931779861450195 0.09159938246011734
9.542760848999023 7.391864776611328 0.09133623540401459
9.524694442749023 7.410399913787842 0.09064275026321411
9.468695640563965 7.398504734039307 0.09025507420301437
9.429227828979492 7.399231910705566 0.09002557396888733
9.382041931152344 7.394563674926758 0.08972453325986862
9.343790054321289 7.3959808349609375 0.08950542658567429
9.312217712402344 7.402475357055664 0.08808500319719315
9.269129753112793 7.400591850280762 0.08782600611448288
9.226306915283203 7.397803783416748 0.08756640553474426
9.181666374206543 7.393366813659668 0.08728653192520142
9.158424377441406 7.406956672668457 0.08721787482500076
9.112582206726074 7.4012131690979 0.08692638576030731
9.083044052124023 7.4094038009643555 0.08679556101560593
9.040678024291992 7.406221866607666 0.08653784543275833
9.005256652832031 7.4084858894348145 0.0863463431596756
8.972674369812012 7.413798809051514 0.08618456870317459
8.92093276977539 7.402331829071045 0.08583515882492065
8.893698692321777 7.41094970703125 0.08572103083133698
8.854567527770996 7.410370349884033 0.08549550920724869
8.808736801147461 7.403231620788574 0.08520085364580154
8.768670082092285 7.401499271392822 0.08496655523777008
8.747920036315918 7.415205001831055 0.08491496741771698
8.699774742126465 7.405474662780762 0.08459532260894775
8.672001838684082 7.41376256942749 0.0844803974032402
8.63111400604248 7.409943103790283 0.08423082530498505
8.60943603515625 7.422421455383301 0.08417016267776489
8.563737869262695 7.4148969650268555 0.0838775634765625
8.529682159423828 7.416513919830322 0.08369418978691101
8.49964427947998 7.421426296234131 0.08355166018009186
8.396681785583496 7.425069808959961 0.08061123639345169
8.284795761108398 7.42029333114624 0.07998727262020111
8.186573028564453 7.425597667694092 0.07943026721477509
8.087319374084473 7.428774833679199 0.07891915738582611
7.925516128540039 7.435052871704102 0.07809711247682571
7.879387378692627 7.422658443450928 0.07779470086097717
7.806107521057129 7.415844440460205 0.07737825810909271
7.795974254608154 7.437135696411133 0.07743112742900848
7.737550735473633 7.443816184997559 0.07716111093759537
7.688465118408203 7.427455902099609 0.076825350522995
7.670048713684082 7.441328525543213 0.07679992914199829
7.635056495666504 7.438199520111084 0.07493085414171219
7.6042046546936035 7.439040184020996 0.07477998733520508
7.565088272094727 7.432388782501221 0.07455091923475266
7.546811580657959 7.445273399353027 0.07452283054590225
7.497200965881348 7.42717170715332 0.07418572157621384
7.479357719421387 7.441142559051514 0.07416559010744095
7.448948860168457 7.441788196563721 0.07401726394891739
7.416696548461914 7.440384387969971 0.07385018467903137
7.376935958862305 7.43210506439209 0.0736120194196701
7.343413352966309 7.429181098937988 0.0734313428401947
7.31022834777832 7.426369667053223 0.07325372099876404
7.294388771057129 7.441934585571289 0.0732535719871521
7.261408805847168 7.439183235168457 0.07307761162519455
7.225876331329346 7.4344096183776855 0.07287966459989548
7.196284294128418 7.434849739074707 0.07273682206869125
7.176353454589844 7.445112228393555 0.07269139587879181
7.141383647918701 7.440500259399414 0.07249747961759567
7.113242149353027 7.442111015319824 0.07236898690462112
7.079933166503906 7.438102722167969 0.07218686491250992
7.056917190551758 7.445630073547363 0.07211396098136902
7.030312538146973 7.448534965515137 0.07199995219707489
7.002026081085205 7.4494757652282715 0.07186851650476456
6.963710784912109 7.440420150756836 0.07163817435503006
6.930263519287109 7.435629844665527 0.07145277410745621
6.907167911529541 7.441752910614014 0.07086081802845001
6.89321231842041 7.458530902862549 0.07087969779968262
6.852572917938232 7.44557523727417 0.07062144577503204
6.821686744689941 7.443788528442383 0.0704667791724205
6.796855449676514 7.447662353515625 0.07036961615085602
6.761305809020996 7.4397358894348145 0.07016197592020035
6.736000061035156 7.443699359893799 0.0700635313987732
6.7039618492126465 7.439345836639404 0.06989121437072754
6.68360710144043 7.448614597320557 0.06984429806470871
6.6577935218811035 7.450895309448242 0.06973627954721451
6.631613254547119 7.452744483947754 0.0696236714720726
6.603908538818359 7.4535322189331055 0.06949979066848755
6.5852885246276855 7.463663578033447 0.06946638971567154
6.519203186035156 7.451787948608398 0.06910017132759094
6.506626129150391 7.468629837036133 0.06913045793771744
6.442584991455078 7.458307266235352 0.0687837079167366
6.418735980987549 7.461945056915283 0.0686938539147377
6.356138706207275 7.452428817749023 0.06835979223251343
6.299947261810303 7.449863910675049 0.06809228658676147
6.287891387939453 7.466979503631592 0.06812858581542969
6.23505973815918 7.46784782409668 0.06735401600599289
6.209722518920898 7.468952178955078 0.06724698841571808
6.149609565734863 7.460338115692139 0.06693645566701889
6.076481819152832 7.466771125793457 0.06665027886629105
6.050169944763184 7.4661126136779785 0.06653150171041489
5.998476505279541 7.466306686401367 0.06630778312683105
5.976706504821777 7.470990180969238 0.06623901426792145
5.949486255645752 7.469539642333984 0.06611316651105881
5.920901298522949 7.465388774871826 0.06596807390451431
5.898205280303955 7.468634605407715 0.06588727235794067
5.875870227813721 7.473039150238037 0.06581629812717438
5.847686767578125 7.469042778015137 0.06567415595054626
5.820629119873047 7.466433525085449 0.06554461270570755
5.806238651275635 7.480795860290527 0.06556173413991928
5.771778583526611 7.468342304229736 0.06534762680530548
5.753290176391602 7.47737979888916 0.06531881541013718
5.727812767028809 7.476317405700684 0.06520557403564453
5.69626522064209 7.4672675132751465 0.06502361595630646
5.686808109283447 7.487906455993652 0.06509745121002197
5.655293941497803 7.47858190536499 0.06491370499134064
5.629685878753662 7.477001667022705 0.06479883939027786
5.604363918304443 7.4764723777771 0.06469020247459412
5.582685947418213 7.47984504699707 0.06461893022060394
5.56072998046875 7.482855796813965 0.06454452127218246
5.533007621765137 7.478786945343018 0.06440839171409607
5.513586521148682 7.484973907470703 0.06436225771903992
5.493138790130615 7.489795684814453 0.06430526822805405
5.469548225402832 7.491052150726318 0.06421583890914917
5.4482927322387695 7.494548797607422 0.06414904445409775
5.412034511566162 7.478208541870117 0.06390998512506485
5.401974678039551 7.497015476226807 0.06397458910942078
5.367589950561523 7.4820661544799805 0.06375241279602051
5.351062297821045 7.4926862716674805 0.06374484300613403
5.321659564971924 7.484306335449219 0.06357961148023605
5.302725791931152 7.490627765655518 0.06353926658630371
5.27214241027832 7.481180667877197 0.0633644312620163
5.260733127593994 7.497987270355225 0.06392446160316467
5.232408046722412 7.490713596343994 0.06376972049474716
5.206772804260254 7.487954139709473 0.0636519268155098
5.18825101852417 7.494534492492676 0.06361580640077591
5.165323257446289 7.495494365692139 0.06353015452623367
5.139665603637695 7.491487979888916 0.06340554356575012
5.11871337890625 7.494323253631592 0.0633397027850151
5.09474515914917 7.493466377258301 0.06374563276767731
5.075837135314941 7.499080657958984 0.06370370835065842
5.0488739013671875 7.4927778244018555 0.06356094777584076
5.030531883239746 7.499995708465576 0.0635310485959053
5.002586841583252 7.491893768310547 0.06337445229291916
4.9832282066345215 7.49753475189209 0.06333176791667938
4.957127094268799 7.491941928863525 0.06319790333509445
4.934136390686035 7.490928649902344 0.06310303509235382
4.91520357131958 7.496999740600586 0.0630653128027916
4.900640487670898 7.508723735809326 0.06307798624038696
4.878228664398193 7.508380889892578 0.06298999488353729
4.848302841186523 7.497329235076904 0.06281046569347382
4.8269548416137695 7.498395919799805 0.06273514777421951
4.775156497955322 7.487022399902344 0.06247156858444214
4.761190891265869 7.4994072914123535 0.062491923570632935
4.717389106750488 7.500033378601074 0.06233114004135132
4.7015180587768555 7.509332656860352 0.062327150255441666
4.674070358276367 7.501071929931641 0.06217575818300247
4.652878761291504 7.501701354980469 0.06210074573755264
4.635972499847412 7.509188652038574 0.06208281219005585
4.606778621673584 7.497686386108398 0.06190641596913338
4.590979099273682 7.506852626800537 0.06190323457121849
4.574345588684082 7.514646530151367 0.06287062168121338
4.548482894897461 7.508224964141846 0.06273551285266876
4.525678634643555 7.505684852600098 0.06263554841279984
4.501735687255859 7.501224040985107 0.06252021342515945
