VERSION .7
FIELDS x y z
SIZE 4 4 4
TYPE F F F
COUNT 1 1 1
WIDTH 831
HEIGHT 1
VIEWPOINT 0 0 0 1 0 0 0
POINTS 831
DATA ascii
5.566246509552002 4.622677326202393 -0.23614856600761414
5.559464931488037 4.63657283782959 -0.2361627221107483
5.534646987915039 4.635958671569824 -0.235088512301445
5.510025978088379 4.634825706481934 -0.23400971293449402
5.488201141357422 4.6560750007629395 -0.23314180970191956
5.46433162689209 4.655360221862793 -0.23209871351718903
5.427243232727051 4.663351058959961 -0.23048095405101776
5.406069755554199 4.664693832397461 -0.2295541614294052
5.374177932739258 4.6768035888671875 -0.22936531901359558
5.337939262390137 4.684918403625488 -0.22789590060710907
5.325413703918457 4.69352388381958 -0.22734346985816956
5.302577972412109 4.693562984466553 -0.22636251151561737
5.290379524230957 4.702381134033203 -0.22582581639289856
5.279849052429199 4.712670803070068 -0.22536131739616394
5.253840446472168 4.709659576416016 -0.22424864768981934
5.251965045928955 4.727672100067139 -0.22448205947875977
5.227412700653076 4.725386142730713 -0.22342362999916077
5.203578472137451 4.723938941955566 -0.22240489721298218
5.194472312927246 4.735373497009277 -0.22200509905815125
5.184272289276123 4.745952129364014 -0.22156327962875366
5.157444477081299 4.741541862487793 -0.2204170525074005
5.147497177124023 4.752145290374756 -0.2199861705303192
5.122012138366699 4.74892520904541 -0.21890348196029663
5.110262870788574 4.757790565490723 -0.21839603781700134
5.090825080871582 4.759594917297363 -0.21756280958652496
5.077094078063965 4.766982555389404 -0.21698467433452606
5.059637546539307 4.770386695861816 -0.2162371575832367
5.040937900543213 4.772696495056152 -0.21543779969215393
5.01897668838501 4.772136211395264 -0.21450845897197723
5.0028510093688965 4.776610374450684 -0.21381892263889313
4.988842487335205 4.783649921417236 -0.21323545277118683
4.979947090148926 4.79499626159668 -0.21380415558815002
4.9661664962768555 4.801627159118652 -0.2132193148136139
4.939980506896973 4.796769142150879 -0.2121126502752304
4.92336368560791 4.8005242347717285 -0.21140575408935547
4.915108680725098 4.813000679016113 -0.2110724002122879
4.899908065795898 4.818074703216553 -0.2104295790195465
4.882580757141113 4.8210062980651855 -0.2096959799528122
4.857264518737793 4.816545009613037 -0.20863033831119537
4.842204570770264 4.821582317352295 -0.2079957127571106
4.813313007354736 4.833353519439697 -0.20679377019405365
4.795604228973389 4.835598945617676 -0.2060476690530777
4.776963233947754 4.857548713684082 -0.2052934467792511
4.751816272735596 4.852077484130859 -0.20422737300395966
4.728849411010742 4.849306106567383 -0.20327171683311462
4.720043182373047 4.860413551330566 -0.20291264355182648
4.706897735595703 4.867044925689697 -0.20236921310424805
4.69271993637085 4.87317419052124 -0.20169217884540558
4.678141117095947 4.878255844116211 -0.20108839869499207
4.6333723068237305 4.872483253479004 -0.19921967387199402
4.624059677124023 4.882941246032715 -0.19853374361991882
4.616132736206055 4.895474910736084 -0.19823211431503296
4.6016845703125 4.900487422943115 -0.19855844974517822
4.588424205780029 4.906730651855469 -0.19801342487335205
4.567103385925293 4.904892921447754 -0.19713541865348816
4.554309368133545 4.9115495681762695 -0.19661419093608856
4.536892890930176 4.913634777069092 -0.19580653309822083
4.514113426208496 4.90950870513916 -0.19485674798488617
4.507931709289551 4.923253059387207 -0.19462329149246216
4.497905731201172 4.933422565460205 -0.1942375898361206
4.478340148925781 4.93248176574707 -0.19311729073524475
4.456789970397949 4.929261684417725 -0.1922229379415512
4.443443298339844 4.9356536865234375 -0.19169627130031586
4.432724952697754 4.944343566894531 -0.19127126038074493
4.4173502922058105 4.94781494140625 -0.19064441323280334
4.402422904968262 4.952349662780762 -0.1900530755519867
4.393062591552734 4.962521076202393 -0.18968820571899414
4.373532772064209 4.961775302886963 -0.18889838457107544
4.3498616218566895 4.9556145668029785 -0.18781620264053345
4.342482089996338 4.967963695526123 -0.18723531067371368
4.337295055389404 4.9834747314453125 -0.18706689774990082
4.325303077697754 4.990571022033691 -0.18659313023090363
4.307733058929443 4.991189002990723 -0.18587952852249146
4.283909797668457 4.985076427459717 -0.18490852415561676
4.274768829345703 4.995373249053955 -0.18455955386161804
4.260448932647705 4.999605178833008 -0.18398696184158325
4.2396955490112305 4.996833801269531 -0.1836477667093277
4.232168674468994 5.008997440338135 -0.18337243795394897
4.22190523147583 5.018557548522949 -0.18299102783203125
4.198706150054932 5.012057304382324 -0.18203619122505188
4.187727451324463 5.020078659057617 -0.18161195516586304
4.168862819671631 5.019222259521484 -0.18086019158363342
4.156057357788086 5.024985313415527 -0.18005499243736267
4.142813682556152 5.030190467834473 -0.17943958938121796
4.124086856842041 5.0293073654174805 -0.17869606614112854
4.11229133605957 5.0362019538879395 -0.1782410442829132
4.101116180419922 5.044322967529297 -0.1778223216533661
4.079319953918457 5.038991928100586 -0.17693769931793213
4.072476387023926 5.051939964294434 -0.17669925093650818
4.0600385665893555 5.058588981628418 -0.17593155801296234
4.034160614013672 5.047769546508789 -0.1747724413871765
4.031453609466553 5.0659027099609375 -0.17471547424793243
4.017232894897461 5.070225715637207 -0.17417293787002563
3.999943256378174 5.06998348236084 -0.17348463833332062
3.9945051670074463 5.084754467010498 -0.17331162095069885
3.9740114212036133 5.0809736251831055 -0.17220038175582886
3.964721202850342 5.090829849243164 -0.1717662662267685
3.9550023078918457 5.100790977478027 -0.17142215371131897
3.94307541847229 5.107260227203369 -0.17097118496894836
3.925304651260376 5.106113433837891 -0.17026615142822266
3.91048526763916 5.10938835144043 -0.17018990218639374
3.8829636573791504 5.095302104949951 -0.16906097531318665
3.878932476043701 5.111982345581055 -0.16895514726638794
3.870481014251709 5.123536586761475 -0.16867122054100037
3.853870391845703 5.123620986938477 -0.16772131621837616
3.829385280609131 5.11312198638916 -0.16672727465629578
3.826857805252075 5.132562160491943 -0.16660857200622559
3.808208703994751 5.129730701446533 -0.1658695787191391
3.7706828117370605 5.124131202697754 -0.16410182416439056
3.761765480041504 5.134298324584961 -0.16378816962242126
3.746396780014038 5.136301040649414 -0.16311489045619965
3.7460148334503174 5.15822696685791 -0.1631743609905243
3.724701166152954 5.151328086853027 -0.1623222529888153
3.7169911861419678 5.163861274719238 -0.1617838591337204
3.6970133781433105 5.158651351928711 -0.16099193692207336
3.6905829906463623 5.172314643859863 -0.16069728136062622
3.6769208908081055 5.176519870758057 -0.16019637882709503
3.668757677078247 5.1877970695495605 -0.15992121398448944
3.6488142013549805 5.182886123657227 -0.1588505506515503
3.631871461868286 5.181792259216309 -0.15819725394248962
3.621117115020752 5.189327716827393 -0.15771804749965668
3.609886407852173 5.196691513061523 -0.15732184052467346
3.586428165435791 5.186019420623779 -0.15609419345855713
3.582813024520874 5.2038421630859375 -0.1567927747964859
3.5705485343933105 5.209820747375488 -0.156063973903656
3.5558297634124756 5.211503505706787 -0.15550783276557922
3.540465831756592 5.212185859680176 -0.15483111143112183
3.530104637145996 5.220893859863281 -0.1544804871082306
3.509812831878662 5.214169502258301 -0.15339034795761108
3.4962704181671143 5.2179131507873535 -0.15289835631847382
3.479994773864746 5.217168807983398 -0.15218761563301086
3.470372438430786 5.226203441619873 -0.1518581211566925
3.457134485244751 5.2304792404174805 -0.1510935127735138
3.442328929901123 5.231648921966553 -0.15053822100162506
3.4388060569763184 5.2499895095825195 -0.15038499236106873
3.4279398918151855 5.257870674133301 -0.15001727640628815
3.409414529800415 5.2532525062561035 -0.1490105390548706
3.3939099311828613 5.25320291519165 -0.1484268307685852
3.3842508792877197 5.262882709503174 -0.1480218470096588
3.373885154724121 5.270774841308594 -0.14766451716423035
3.351085662841797 5.259160995483398 -0.14647376537322998
3.3475468158721924 5.278453826904297 -0.1464301347732544
3.3358144760131836 5.284167766571045 -0.1459229439496994
3.32157826423645 5.285886287689209 -0.14539825916290283
3.3034443855285645 5.282042503356934 -0.14442884922027588
3.2864532470703125 5.279211044311523 -0.143784761428833
3.270236015319824 5.278084754943848 -0.1430937796831131
3.26304030418396 5.291138172149658 -0.14306609332561493
3.244298219680786 5.28526496887207 -0.14234623312950134
3.2426161766052246 5.307924747467041 -0.14238977432250977
3.2219865322113037 5.298840522766113 -0.14149650931358337
3.211311101913452 5.306056976318359 -0.1408446729183197
3.1982855796813965 5.310111045837402 -0.14039206504821777
3.1814870834350586 5.307106971740723 -0.13966907560825348
3.1573455333709717 5.317490100860596 -0.13854902982711792
3.143815040588379 5.319819450378418 -0.13806207478046417
3.1192591190338135 5.32938289642334 -0.13683685660362244
3.1086297035217285 5.3365936279296875 -0.1364789456129074
3.078944683074951 5.337187767028809 -0.1350325345993042
7.680172920227051 -11.704217910766602 -0.2664107084274292
7.778091907501221 -11.692522048950195 -0.2698245346546173
7.8739013671875 -11.6766939163208 -0.2731758654117584
7.911034107208252 -11.679403305053711 -0.2744840383529663
7.980241775512695 -11.675376892089844 -0.27690380811691284
8.007001876831055 -11.66250228881836 -0.27785563468933105
8.084256172180176 -11.66939926147461 -0.28056228160858154
8.114934921264648 -11.661908149719238 -0.28165382146835327
8.154773712158203 -11.665925979614258 -0.28304025530815125
8.190025329589844 -11.664731979370117 -0.28429341316223145
8.294637680053711 -11.657203674316406 -0.28799596428871155
8.397207260131836 -11.645669937133789 -0.2916392982006073
9.523214340209961 -11.543684959411621 -0.3311389088630676
9.650047302246094 -11.54875373840332 -0.3357747197151184
9.74367904663086 -11.512933731079102 -0.3392708897590637
9.87050724029541 -11.515201568603516 -0.3437154293060303
9.95620346069336 -11.516664505004883 -0.3468666076660156
9.990110397338867 -11.507530212402344 -0.3481457531452179
10.073230743408203 -11.505038261413574 -0.35121846199035645
10.112489700317383 -11.501630783081055 -0.352689653635025
10.185440063476562 -11.486687660217285 -0.3547064960002899
10.220629692077637 -11.478300094604492 -0.35675331950187683
10.30456256866455 -11.47489070892334 -0.36010271310806274
10.34854507446289 -11.475873947143555 -0.36175087094306946
10.433831214904785 -11.472929000854492 -0.3647060692310333
10.472382545471191 -11.46742057800293 -0.36616942286491394
10.549283027648926 -11.454374313354492 -0.3690703511238098
10.5902099609375 -11.451034545898438 -0.37062251567840576
12.02832317352295 -11.322005271911621 -0.42378902435302734
12.166783332824707 -11.308924674987793 -0.4289536774158478
12.215124130249023 -11.306699752807617 -0.4300740361213684
12.293643951416016 -11.28361988067627 -0.4355223774909973
12.344686508178711 -11.28335952758789 -0.43752211332321167
12.43395709991455 -11.269208908081055 -0.4402710199356079
12.483872413635254 -11.267353057861328 -0.44223690032958984
12.54481029510498 -11.273816108703613 -0.4445717930793762
12.593416213989258 -11.270345687866211 -0.4464968144893646
12.63960075378418 -11.264528274536133 -0.4480898976325989
12.734906196594238 -11.253593444824219 -0.4510720670223236
12.862893104553223 -11.22347640991211 -0.45622482895851135
12.88796329498291 -11.103414535522461 -0.4567045569419861
12.922538757324219 -10.992419242858887 -0.45857828855514526
12.890630722045898 -9.762203216552734 -0.4600462317466736
12.878576278686523 -9.711087226867676 -0.4598798453807831
12.844758987426758 -9.601001739501953 -0.4606555104255676
12.843229293823242 -9.558381080627441 -0.4606240689754486
12.813682556152344 -9.45279598236084 -0.45934274792671204
12.819058418273926 -9.415746688842773 -0.45956674218177795
12.798421859741211 -9.317864418029785 -0.45934703946113586
12.777887344360352 -9.262404441833496 -0.45816075801849365
12.772414207458496 -9.17663288116455 -0.458258718252182
12.758463859558105 -9.12652587890625 -0.458033949136734
12.747232437133789 -9.037581443786621 -0.4572155177593231
12.709900856018066 -8.773090362548828 -0.4566008448600769
12.401266098022461 -7.63174295425415 -0.44696950912475586
12.360137939453125 -7.534849643707275 -0.4454418420791626
12.360962867736816 -7.500213146209717 -0.44557473063468933
12.338462829589844 -7.415646553039551 -0.4453850984573364
12.352029800415039 -7.388952255249023 -0.4459835886955261
12.326558113098145 -7.303405284881592 -0.44504883885383606
12.328605651855469 -7.270095348358154 -0.44523513317108154
12.311710357666016 -7.190423011779785 -0.444610059261322
12.309070587158203 -7.154665946960449 -0.44463205337524414
12.285737037658691 -7.072052478790283 -0.44379398226737976
12.252969741821289 -6.951004981994629 -0.4427427649497986
12.262514114379883 -6.854881286621094 -0.44323933124542236
12.121856689453125 -6.090874671936035 -0.4387972354888916
12.076842308044434 -5.9732346534729 -0.4372360110282898
12.05683708190918 -5.932229995727539 -0.43626928329467773
12.082612991333008 -5.881839752197266 -0.4371245801448822
12.059915542602539 -5.839864730834961 -0.4366803765296936
12.038288116455078 -5.766931533813477 -0.4358288049697876
12.050821304321289 -5.742218971252441 -0.43646231293678284
12.043730735778809 -5.707303047180176 -0.43596750497817993
12.040546417236328 -5.675227165222168 -0.43624091148376465
12.031932830810547 -5.5789947509765625 -0.4356638193130493
12.00162410736084 -5.47353458404541 -0.43492138385772705
11.97984790802002 -5.372224807739258 -0.4342934489250183
11.88451099395752 -4.7989091873168945 -0.43159329891204834
11.817066192626953 -4.5995283126831055 -0.42933419346809387
11.803836822509766 -4.537230014801025 -0.42892715334892273
11.80656623840332 -4.510180950164795 -0.4286864995956421
11.790642738342285 -4.476080894470215 -0.42853933572769165
11.789338111877441 -4.4467949867248535 -0.4281456470489502
11.798880577087402 -4.42244815826416 -0.4289277195930481
11.791848182678223 -4.39130973815918 -0.42833420634269714
11.791330337524414 -4.363072872161865 -0.4285629987716675
11.790172576904297 -4.250290393829346 -0.42815956473350525
11.75820255279541 -4.155427932739258 -0.427945077419281
11.632183074951172 -3.6228151321411133 -0.4240339696407318
11.617024421691895 -3.5379419326782227 -0.42340341210365295
11.605669021606445 -3.4813334941864014 -0.42319315671920776
11.61700439453125 -3.4582831859588623 -0.4251921772956848
11.58872127532959 -3.3967976570129395 -0.4243657886981964
11.595980644226074 -3.3728106021881104 -0.42437466979026794
11.58232307434082 -3.31599760055542 -0.42409637570381165
11.582513809204102 -3.2900617122650146 -0.4238525331020355
11.580389022827148 -3.2629292011260986 -0.4242561459541321
11.579289436340332 -3.236508369445801 -0.42396700382232666
11.567599296569824 -3.206803560256958 -0.42384073138237
11.551172256469727 -3.15049409866333 -0.4229353070259094
11.537009239196777 -3.1203553676605225 -0.4227229356765747
11.543916702270508 -3.0706787109375 -0.422685444355011
11.54399299621582 -3.04449462890625 -0.42318078875541687
11.529241561889648 -2.9887290000915527 -0.42217376828193665
11.454394340515137 -2.5117530822753906 -0.4226487874984741
11.44488525390625 -2.434180974960327 -0.42243918776512146
11.432035446166992 -2.4066615104675293 -0.42195576429367065
11.441370010375977 -2.3832943439483643 -0.4221133291721344
11.430492401123047 -2.356109619140625 -0.4220668077468872
11.421442985534668 -2.329545736312866 -0.42172878980636597
11.407105445861816 -2.301429271697998 -0.4210173487663269
11.407445907592773 -2.276693105697632 -0.4213889539241791
11.415719032287598 -2.253176212310791 -0.42151764035224915
11.396688461303711 -2.224680185317993 -0.42081767320632935
11.395903587341309 -2.199986696243286 -0.4206189513206482
11.390348434448242 -2.173863410949707 -0.42414391040802
11.39150333404541 -2.099949598312378 -0.4238630533218384
11.373058319091797 -2.0470633506774902 -0.4235585331916809
11.294647216796875 -1.6676599979400635 -0.4210911989212036
11.267990112304688 -1.5914084911346436 -0.4198887050151825
11.257247924804688 -1.51759934425354 -0.42294520139694214
11.264883995056152 -1.470525860786438 -0.4229974150657654
11.250359535217285 -1.4447190761566162 -0.4225093424320221
11.247182846069336 -1.4200676679611206 -0.42279765009880066
11.25121021270752 -1.3968615531921387 -0.4228392541408539
11.238052368164062 -1.3713810443878174 -0.4222353398799896
11.227691650390625 -1.3459528684616089 -0.42173826694488525
11.226054191589355 -1.2983454465866089 -0.4216395318508148
11.222901344299316 -1.2738633155822754 -0.42193859815597534
11.225557327270508 -1.2504031658172607 -0.42193907499313354
11.205143928527832 -1.224072813987732 -0.42107322812080383
11.201889991760254 -1.176520586013794 -0.42076441645622253
11.209739685058594 -1.1533105373382568 -0.4216545522212982
11.184820175170898 -1.1031644344329834 -0.4205389618873596
11.170005798339844 -1.0308418273925781 -0.4199002981185913
11.083268165588379 -0.6717108488082886 -0.4203976094722748
11.060323715209961 -0.6235808730125427 -0.419422447681427
11.05678653717041 -0.6003658771514893 -0.41923803091049194
11.064067840576172 -0.5775688886642456 -0.41963714361190796
11.04941177368164 -0.5533052682876587 -0.4190365970134735
11.033185005187988 -0.5293750762939453 -0.4183787703514099
11.020233154296875 -0.5058342218399048 -0.417847216129303
11.013816833496094 -0.48213034868240356 -0.41756218671798706
11.013720512390137 -0.45906221866607666 -0.4180286228656769
11.007547378540039 -0.43541762232780457 -0.41775625944137573
11.017845153808594 -0.41292721033096313 -0.42064616084098816
10.99956226348877 -0.3892185091972351 -0.41991209983825684
11.011312484741211 -0.3662508726119995 -0.42083996534347534
10.988924026489258 -0.31918197870254517 -0.4199271500110626
10.951330184936523 -0.2491968870162964 -0.4184236526489258
10.921972274780273 -0.17983974516391754 -0.4172486662864685
12.460291862487793 0.02984892576932907 -0.37410956621170044
12.340179443359375 0.3407130539417267 -0.37064266204833984
12.320948600769043 0.4177125096321106 -0.37013882398605347
12.280652046203613 0.4936566948890686 -0.36901095509529114
12.271638870239258 0.5450679063796997 -0.37143710255622864
12.275015830993652 0.570930004119873 -0.371574342250824
12.254411697387695 0.5960233211517334 -0.37098589539527893
12.244241714477539 0.621000349521637 -0.3707190155982971
12.243230819702148 0.646609902381897 -0.37073010206222534
12.234108924865723 0.6721534132957458 -0.3704933822154999
12.220223426818848 0.6970150470733643 -0.3701165020465851
12.224018096923828 0.7226835489273071 -0.37028011679649353
12.217879295349121 0.7483299374580383 -0.37014198303222656
12.205005645751953 0.7731530666351318 -0.36979836225509644
12.196599960327148 0.7985979914665222 -0.36959582567214966
12.176573753356934 0.8226675987243652 -0.36903661489486694
12.171162605285645 0.8738092184066772 -0.3687933087348938
12.042997360229492 1.2468369007110596 -0.36666175723075867
12.033626556396484 1.297110915184021 -0.3665425181388855
12.026185989379883 1.3215618133544922 -0.36639314889907837
12.00002670288086 1.3698582649230957 -0.36577337980270386
11.987960815429688 1.3938722610473633 -0.3649376630783081
11.973161697387695 1.4178980588912964 -0.36439111828804016
11.969099998474121 1.4426096677780151 -0.36435937881469727
11.963830947875977 1.4673526287078857 -0.3642916679382324
11.96191120147705 1.4928780794143677 -0.36432814598083496
11.949670791625977 1.5165406465530396 -0.3640546500682831
11.930931091308594 1.540067434310913 -0.36358171701431274
11.941280364990234 1.5666030645370483 -0.3634450435638428
11.912915229797363 1.5882196426391602 -0.36267781257629395
11.918743133544922 1.614734172821045 -0.3627760410308838
11.91405200958252 1.6392834186553955 -0.36273786425590515
11.894096374511719 1.6618783473968506 -0.3622342646121979
11.890975952148438 1.6871639490127563 -0.36225149035453796
11.874165534973145 1.7358237504959106 -0.36342328786849976
11.855154037475586 1.758179783821106 -0.36294981837272644
11.846466064453125 1.8079115152359009 -0.3629133403301239
11.816763877868652 1.8794704675674438 -0.3616264760494232
11.745866775512695 2.096773386001587 -0.3593331575393677
11.721418380737305 2.1433849334716797 -0.3586765229701996
11.71080207824707 2.166567802429199 -0.3584872782230377
11.700824737548828 2.2157256603240967 -0.3579188883304596
11.688959121704102 2.2386152744293213 -0.3575170934200287
11.678495407104492 2.28764009475708 -0.3591214418411255
11.669015884399414 2.3109378814697266 -0.358978271484375
11.666434288024902 2.3363373279571533 -0.35905149579048157
11.658818244934082 2.359987735748291 -0.358418345451355
11.646627426147461 2.382873296737671 -0.35801637172698975
11.641947746276855 2.4076547622680664 -0.35802850127220154
11.653230667114258 2.435215473175049 -0.3585331439971924
11.617340087890625 2.4536280632019043 -0.3570421636104584
11.61449909210205 2.4782166481018066 -0.3569309115409851
11.614433288574219 2.503596305847168 -0.3570934534072876
11.60887622833252 2.5281786918640137 -0.3570862114429474
11.60087776184082 2.5516645908355713 -0.35645222663879395
11.588329315185547 2.5748696327209473 -0.3560580015182495
11.58141040802002 2.5985636711120605 -0.35601022839546204
11.56062126159668 2.670344591140747 -0.35515284538269043
11.53819751739502 2.741683006286621 -0.3542645275592804
11.490348815917969 2.9356465339660645 -0.3546229600906372
11.442214965820312 3.0001020431518555 -0.35298770666122437
11.441329956054688 3.0252585411071777 -0.35315632820129395
11.434675216674805 3.0496490001678467 -0.3529716730117798
11.413894653320312 3.0694916248321533 -0.35198208689689636
11.421700477600098 3.0970213413238525 -0.3524215817451477
11.393196105957031 3.1154348850250244 -0.35157087445259094
11.394811630249023 3.141306161880493 -0.35127538442611694
11.375816345214844 3.161670207977295 -0.35089394450187683
11.356522560119629 3.182272434234619 -0.35032814741134644
11.32614517211914 3.199125289916992 -0.34904783964157104
11.315059661865234 3.2221100330352783 -0.34891819953918457
11.30598258972168 3.2449047565460205 -0.3486679196357727
11.30662727355957 3.271063804626465 -0.3483594059944153
11.292293548583984 3.292513132095337 -0.34812748432159424
11.281599998474121 3.314812421798706 -0.3478289842605591
11.264429092407227 3.3359243869781494 -0.3469802141189575
11.301671028137207 3.372478485107422 -0.34834957122802734
11.29295825958252 3.3954153060913086 -0.3475828766822815
11.270339012145996 3.414884567260742 -0.34962090849876404
11.239216804504395 3.4309351444244385 -0.34833651781082153
11.203527450561523 3.471686363220215 -0.3475095331668854
11.156150817871094 3.4823954105377197 -0.34554997086524963
11.076253890991211 3.508715867996216 -0.3435288667678833
10.933483123779297 3.5392723083496094 -0.338554322719574
10.821771621704102 3.5789794921875 -0.33492690324783325
10.68232536315918 3.607696533203125 -0.3306168019771576
10.59567642211914 3.6282172203063965 -0.32771995663642883
10.557220458984375 3.639542818069458 -0.32676437497138977
10.482732772827148 3.663329839706421 -0.3242550194263458
10.436148643493652 3.671369791030884 -0.3230494558811188
10.369978904724121 3.697242021560669 -0.3208081126213074
10.330516815185547 3.7073540687561035 -0.32267051935195923
10.28143310546875 3.7145497798919678 -0.3208809494972229
10.25796890258789 3.7301573753356934 -0.320224404335022
10.221372604370117 3.74141788482666 -0.3188297152519226
10.182699203491211 3.751415252685547 -0.31770357489585876
10.122598648071289 3.7531490325927734 -0.31557193398475647
10.109163284301758 3.7727513313293457 -0.3154038190841675
10.057581901550293 3.7772982120513916 -0.3133814334869385
10.016815185546875 3.785724639892578 -0.3123556673526764
9.980027198791504 3.796205759048462 -0.31130218505859375
9.955821990966797 3.810666799545288 -0.31030064821243286
9.905587196350098 3.8157200813293457 -0.3088291883468628
9.876596450805664 3.8281078338623047 -0.3076862096786499
9.825732231140137 3.8318662643432617 -0.3061891198158264
9.801827430725098 3.8466873168945312 -0.3052141070365906
9.766221046447754 3.8561205863952637 -0.3041984438896179
9.727632522583008 3.8647565841674805 -0.30276772379875183
9.666536331176758 3.887181043624878 -0.3007310628890991
9.547510147094727 3.9097366333007812 -0.29700854420661926
9.379337310791016 3.9563465118408203 -0.29506924748420715
9.266372680664062 3.977661609649658 -0.29121726751327515
9.190305709838867 4.013617515563965 -0.28838855028152466
9.151391983032227 4.019257068634033 -0.2872786521911621
9.107809066772461 4.023345947265625 -0.28572171926498413
9.079315185546875 4.033298015594482 -0.28494077920913696
9.045564651489258 4.041302680969238 -0.28369277715682983
9.009613037109375 4.047850608825684 -0.28268200159072876
8.979704856872559 4.056830406188965 -0.2815523147583008
8.944040298461914 4.0635857582092285 -0.2805578112602234
8.929962158203125 4.079728603363037 -0.27992963790893555
8.878098487854004 4.078324317932129 -0.2779717445373535
8.859933853149414 4.092924118041992 -0.2776755690574646
8.83007526397705 4.101386070251465 -0.27641168236732483
8.802775382995605 4.1114301681518555 -0.27568382024765015
8.760669708251953 4.114091873168945 -0.27418774366378784
8.751006126403809 4.131739616394043 -0.27400898933410645
8.699180603027344 4.130019664764404 -0.27221691608428955
8.689987182617188 4.147775173187256 -0.2751387655735016
8.63391399383545 4.143522262573242 -0.27305567264556885
8.623600959777832 4.160769462585449 -0.272563636302948
8.580561637878418 4.161977767944336 -0.27133235335350037
8.525710105895996 4.179816722869873 -0.269571453332901
8.502853393554688 4.191006660461426 -0.26855218410491943
8.434867858886719 4.20125675201416 -0.26637694239616394
8.403252601623535 4.2077813148498535 -0.2650870084762573
8.343351364135742 4.221827507019043 -0.2631853222846985
8.273749351501465 4.25214958190918 -0.26069164276123047
8.174970626831055 4.266716957092285 -0.257432222366333
8.12169075012207 4.28237247467041 -0.2556200921535492
8.107680320739746 4.296665668487549 -0.25503775477409363
8.049240112304688 4.309057235717773 -0.25307220220565796
8.016508102416992 4.313116073608398 -0.254428893327713
7.985235214233398 4.31815767288208 -0.253847599029541
7.964376449584961 4.328416347503662 -0.25305336713790894
7.935227394104004 4.333930492401123 -0.2522772550582886
7.90734338760376 4.340503692626953 -0.251132607460022
7.883449554443359 4.3488545417785645 -0.25024542212486267
7.856115341186523 4.355538368225098 -0.24953582882881165
7.83120059967041 4.363149166107178 -0.24848690629005432
7.802762031555176 4.368547439575195 -0.24787220358848572
7.781893730163574 4.378572463989258 -0.24695804715156555
7.755257606506348 4.384951591491699 -0.2458585798740387
7.724252700805664 4.388599872589111 -0.2451641857624054
7.701894760131836 4.3976874351501465 -0.24421072006225586
7.662036895751953 4.396038055419922 -0.2426958680152893
7.648688316345215 4.409972190856934 -0.24216137826442719
7.639679431915283 4.426078796386719 -0.2420378029346466
7.601138114929199 4.425313949584961 -0.24057641625404358
7.584455490112305 4.436700820922852 -0.23993262648582458
7.5446929931640625 4.434631824493408 -0.2388366311788559
7.5350141525268555 4.45047664642334 -0.2382948398590088
7.476208209991455 4.457851409912109 -0.23648765683174133
7.451759338378906 4.464728355407715 -0.23548315465450287
7.401516914367676 4.477093696594238 -0.23555901646614075
7.3398308753967285 4.503047466278076 -0.23395337164402008
7.198163032531738 4.520820617675781 -0.22885994613170624
7.154308795928955 4.535404205322266 -0.22755493223667145
7.140915870666504 4.547715663909912 -0.22691145539283752
7.115500450134277 4.552461624145508 -0.22601550817489624
7.101214408874512 4.564580917358398 -0.22574301064014435
7.071288585662842 4.566258907318115 -0.22457975149154663
7.059109687805176 4.579179286956787 -0.22398117184638977
7.027135848999023 4.579647064208984 -0.22288736701011658
7.006223678588867 4.586909770965576 -0.22240331768989563
6.980940818786621 4.591544151306152 -0.22139856219291687
6.9667792320251465 4.602969169616699 -0.22074320912361145
6.92964506149292 4.599269390106201 -0.21936240792274475
6.920845985412598 4.614608287811279 -0.2193927764892578
6.881585597991943 4.609236717224121 -0.21794772148132324
6.858975410461426 4.61474084854126 -0.2170293629169464
6.844933032989502 4.62641716003418 -0.2182997465133667
6.824490547180176 4.633409023284912 -0.21794229745864868
6.784030914306641 4.62699556350708 -0.21658341586589813
6.76857328414917 4.637209415435791 -0.21589723229408264
6.765990734100342 4.656561374664307 -0.21562978625297546
6.730390548706055 4.652671813964844 -0.21467971801757812
6.708836555480957 4.658524036407471 -0.21380411088466644
6.697834014892578 4.671975135803223 -0.21339115500450134
6.673370361328125 4.675527095794678 -0.2124236673116684
6.647919654846191 4.678441047668457 -0.21142670512199402
6.619029521942139 4.679137229919434 -0.21070098876953125
6.611812114715576 4.694789886474609 -0.21028904616832733
6.585521221160889 4.69716739654541 -0.20939551293849945
6.576741695404053 4.7115278244018555 -0.20893420279026031
6.542387962341309 4.707639217376709 -0.2076621800661087
6.519771575927734 4.7123894691467285 -0.20714247226715088
6.506600379943848 4.7234578132629395 -0.20654511451721191
6.454523086547852 4.727287292480469 -0.20466172695159912
6.417601585388184 4.741900444030762 -0.203147754073143
6.402294158935547 4.751161098480225 -0.2028569132089615
6.358532905578613 4.760341644287109 -0.20125052332878113
6.328910827636719 4.779889106750488 -0.20180068910121918
6.287172794342041 4.768888473510742 -0.20066678524017334
6.249604225158691 4.78198766708374 -0.19914944469928741
6.237244606018066 4.793085098266602 -0.1985912322998047
6.203311443328857 4.8086957931518555 -0.19731184840202332
6.167287349700928 4.80143928527832 -0.19600623846054077
6.1619110107421875 4.818283557891846 -0.19568213820457458
6.1315016746521 4.815042018890381 -0.19491814076900482
6.121764659881592 4.828114986419678 -0.19445359706878662
6.097596168518066 4.830070972442627 -0.1935350000858307
6.071470260620117 4.829914093017578 -0.1925487518310547
6.054666519165039 4.837244033813477 -0.19197849929332733
6.039132118225098 4.845857620239258 -0.19133901596069336
6.0245161056518555 4.854862689971924 -0.19072501361370087
5.999661922454834 4.855863571166992 -0.1897912323474884
5.978273868560791 4.8591203689575195 -0.1889640986919403
5.964391231536865 4.868572235107422 -0.18873122334480286
5.948037147521973 4.876285076141357 -0.18807266652584076
5.925183296203613 4.878291130065918 -0.1872013956308365
5.901072025299072 4.879481315612793 -0.1863003820180893
5.892614364624023 4.893112659454346 -0.18599849939346313
5.866475582122803 4.8921589851379395 -0.1864428073167801
5.845737457275391 4.895927429199219 -0.18598692119121552
5.822175979614258 4.896787643432617 -0.18509522080421448
5.811356067657471 4.908461093902588 -0.18461266160011292
5.787151336669922 4.909090518951416 -0.18371093273162842
5.763284206390381 4.909594535827637 -0.18281468749046326
5.747607707977295 4.917319297790527 -0.18218784034252167
5.738842964172363 4.930483818054199 -0.18177154660224915
5.71533727645874 4.931088447570801 -0.18089058995246887
5.693302154541016 4.9331841468811035 -0.18006356060504913
5.670523643493652 4.934086322784424 -0.17955785989761353
5.664417743682861 4.949613094329834 -0.1792312115430832
5.642539978027344 4.951645374298096 -0.17841294407844543
5.622382164001465 4.954646587371826 -0.1776399314403534
5.59536075592041 4.9521098136901855 -0.17677712440490723
5.594311237335205 4.971921920776367 -0.1766122579574585
5.5511932373046875 4.975602149963379 -0.1749999076128006
5.533920764923096 4.980869293212891 -0.17432694137096405
5.518503189086914 4.988372325897217 -0.17372208833694458
5.494043350219727 4.9870195388793945 -0.17282474040985107
5.457640647888184 4.996058940887451 -0.17143604159355164
5.428318500518799 4.98996114730835 -0.1703876554965973
5.410469055175781 5.015756607055664 -0.17083285748958588
5.387734889984131 5.015510559082031 -0.16999290883541107
5.365634918212891 5.016375541687012 -0.1691855490207672
5.347461700439453 5.020222187042236 -0.16849204897880554
5.34353494644165 5.0375871658325195 -0.16835981607437134
5.320725917816162 5.037446975708008 -0.16752947866916656
5.295230865478516 5.034188747406006 -0.1666082739830017
5.283468246459961 5.044070243835449 -0.16612662374973297
5.270293235778809 5.0529069900512695 -0.16560156643390656
5.242522239685059 5.0472025871276855 -0.1646132469177246
5.239459037780762 5.065395832061768 -0.1644039750099182
5.211113452911377 5.05942440032959 -0.16340826451778412
5.195798873901367 5.065544128417969 -0.16281336545944214
5.173853874206543 5.065751552581787 -0.1620226353406906
5.167389869689941 5.08046817779541 -0.16170752048492432
5.1554341316223145 5.0897979736328125 -0.1612226516008377
5.133942604064941 5.090282440185547 -0.16044875979423523
5.106352806091309 5.083984375 -0.15947480499744415
5.096859455108643 5.096260070800781 -0.15907694399356842
5.079176425933838 5.099700927734375 -0.15841549634933472
5.060521602630615 5.102102756500244 -0.15772680938243866
5.036170959472656 5.0992937088012695 -0.156762957572937
5.026290416717529 5.110457897186279 -0.15634770691394806
5.0037689208984375 5.1088738441467285 -0.1565195471048355
4.98737096786499 5.113788604736328 -0.15590965747833252
4.982431411743164 5.129977703094482 -0.15565280616283417
4.961372375488281 5.130178451538086 -0.1548999547958374
4.9414448738098145 5.130837440490723 -0.15417562425136566
4.931042194366455 5.141346454620361 -0.1537477672100067
4.911551475524902 5.142971992492676 -0.1530480831861496
4.8939971923828125 5.145927906036377 -0.15239880979061127
4.873075485229492 5.145421504974365 -0.15165065228939056
4.866083145141602 5.159919738769531 -0.15134179592132568
4.843384742736816 5.15725040435791 -0.15053477883338928
4.801845073699951 5.156364917755127 -0.14895099401474
4.800044059753418 5.1759257316589355 -0.14847172796726227
4.776848316192627 5.173034191131592 -0.14766612648963928
4.7634382247924805 5.1800384521484375 -0.1471536010503769
4.7520599365234375 5.189237117767334 -0.14670594036579132
4.728166580200195 5.185342311859131 -0.14588047564029694
4.709682941436768 5.186648845672607 -0.14521411061286926
4.684382915496826 5.202643871307373 -0.14425498247146606
4.671305179595947 5.209821701049805 -0.1437564641237259
4.650365352630615 5.2088117599487305 -0.1430276483297348
4.6382293701171875 5.2169694900512695 -0.14256137609481812
4.6140313148498535 5.211491584777832 -0.14225155115127563
4.602970123291016 5.221429824829102 -0.14182835817337036
4.581936359405518 5.219364643096924 -0.14109085500240326
4.558387756347656 5.236860752105713 -0.14019595086574554
4.547516345977783 5.246315956115723 -0.1397721767425537
4.517446994781494 5.234175682067871 -0.13866645097732544
4.50894021987915 5.246291160583496 -0.13799694180488586
4.491555690765381 5.248056411743164 -0.13737690448760986
4.488224506378174 5.266898155212402 -0.1371963769197464
4.4638848304748535 5.260409355163574 -0.13636432588100433
4.457502365112305 5.27503776550293 -0.13608217239379883
4.430107116699219 5.2653937339782715 -0.13516664505004883
4.412172794342041 5.2662224769592285 -0.13453319668769836
4.403672695159912 5.278447151184082 -0.13419143855571747
4.392139434814453 5.287386417388916 -0.1333429217338562
4.370636940002441 5.28377103805542 -0.13260282576084137
4.359133720397949 5.292844772338867 -0.13217774033546448
4.34454345703125 5.297493934631348 -0.13165104389190674
4.324674606323242 5.2956414222717285 -0.13096261024475098
4.302530765533447 5.291558742523193 -0.13021889328956604
4.295091152191162 5.3048624992370605 -0.12991032004356384
4.283538818359375 5.313100814819336 -0.12916195392608643
4.269432067871094 5.318817138671875 -0.128560870885849
4.2493510246276855 5.316362380981445 -0.12880398333072662
4.2451324462890625 5.334410667419434 -0.12860502302646637
4.215348243713379 5.319602966308594 -0.12730790674686432
4.216403007507324 5.343677997589111 -0.12715868651866913
4.184660911560059 5.326810836791992 -0.12613040208816528
4.1749773025512695 5.337246894836426 -0.12575986981391907
4.1528849601745605 5.3317670822143555 -0.125013530254364
4.148199081420898 5.349283218383789 -0.12480351328849792
4.130836486816406 5.349782943725586 -0.12388861179351807
4.124153137207031 5.364265441894531 -0.1235121339559555
4.10048246383667 5.356957912445068 -0.1227308064699173
4.081511974334717 5.355162620544434 -0.12208366394042969
4.062921047210693 5.354457378387451 -0.12145967781543732
4.053396701812744 5.364989757537842 -0.12078508734703064
4.040780544281006 5.37143087387085 -0.12033101171255112
4.02695894241333 5.37692928314209 -0.11975130438804626
4.011800289154053 5.379921913146973 -0.1192234456539154
4.002307415008545 5.390497207641602 -0.1188630759716034
3.9829933643341064 5.388497352600098 -0.11822253465652466
3.9713821411132812 5.39617919921875 -0.11749054491519928
3.945439338684082 5.384298801422119 -0.1166456863284111
3.9422714710235596 5.404151916503906 -0.11638613045215607
3.9250571727752686 5.404072284698486 -0.11580117046833038
3.912602186203003 5.410501956939697 -0.11535690724849701
3.895453929901123 5.41109561920166 -0.11528974026441574
3.8854033946990967 5.42082405090332 -0.11491784453392029
3.864380121231079 5.415889263153076 -0.11392383277416229
3.8575830459594727 5.430161476135254 -0.11364911496639252
3.83644962310791 5.424219131469727 -0.11285445094108582
3.820859909057617 5.426730632781982 -0.11233127862215042
3.801135540008545 5.422586441040039 -0.11167716979980469
3.800387144088745 5.445526599884033 -0.11127406358718872
3.7780420780181885 5.438225746154785 -0.110555499792099
3.772768974304199 5.454758644104004 -0.11022970825433731
3.73898983001709 5.454881191253662 -0.10879845917224884
3.7178988456726074 5.448321342468262 -0.10811134427785873
3.6933271884918213 5.461574077606201 -0.10716305673122406
3.683656930923462 5.471710205078125 -0.10680879652500153
3.6660847663879395 5.470800399780273 -0.10593065619468689
3.656764507293701 5.481455326080322 -0.10558755695819855
3.6418049335479736 5.483645915985107 -0.10498520731925964
3.636343240737915 5.500884056091309 -0.10476389527320862
3.6126976013183594 5.4898457527160645 -0.10370464622974396
3.6050217151641846 5.503015995025635 -0.10341068357229233
3.585249423980713 5.498422622680664 -0.10268241167068481
3.5739102363586426 5.505972385406494 -0.10228438675403595
3.562877655029297 5.514736175537109 -0.10240249335765839
3.5436294078826904 5.509994983673096 -0.10147369652986526
3.5260558128356934 5.507759094238281 -0.10089804977178574
3.5085930824279785 5.506350517272949 -0.10024004429578781
3.5011794567108154 5.519959449768066 -0.09995649755001068
3.4882876873016357 5.52495002746582 -0.09921359270811081
3.4683890342712402 5.519517421722412 -0.09858518838882446
3.4560749530792236 5.5253400802612305 -0.0980667993426323
3.4457974433898926 5.534421443939209 -0.09770312905311584
3.4316420555114746 5.538018226623535 -0.09693722426891327
3.4104111194610596 5.529350280761719 -0.09626481682062149
3.4104652404785156 5.555205821990967 -0.09609819948673248
3.3910951614379883 5.550211429595947 -0.09518735110759735
3.3749806880950928 5.549690246582031 -0.09466142952442169
3.3596136569976807 5.550914287567139 -0.09406912326812744
3.354170560836792 5.568157196044922 -0.09384546428918839
3.337782859802246 5.567057132720947 -0.09301282465457916
3.326730728149414 5.575595855712891 -0.09264011681079865
3.309971570968628 5.5737624168396 -0.09200422465801239
3.304555892944336 5.591037750244141 -0.09147889167070389
3.2811174392700195 5.578553676605225 -0.090764619410038
3.274001359939575 5.592983245849609 -0.09039802104234695
3.260180711746216 5.59597635269165 -0.08994189649820328
3.2521257400512695 5.6096673011779785 -0.08935312181711197
3.231388807296753 5.600651741027832 -0.0891973227262497
3.2147769927978516 5.599268913269043 -0.08857743442058563
3.2015624046325684 5.603339672088623 -0.08784271776676178
3.1852712631225586 5.60178279876709 -0.08732111752033234
3.1745169162750244 5.610537052154541 -0.08686394989490509
3.1650466918945312 5.621177673339844 -0.0862334743142128
3.151660442352295 5.624674320220947 -0.08579298853874207
3.1412346363067627 5.634063720703125 -0.08534584939479828
3.1162641048431396 5.616843223571777 -0.08429624885320663
3.109288454055786 5.631787300109863 -0.08403079956769943
3.0901005268096924 5.625401496887207 -0.08335080742835999
3.0840401649475098 5.642083168029785 -0.08281230926513672
3.0695760250091553 5.643416404724121 -0.08234603703022003
3.058992385864258 5.652694225311279 -0.08189913630485535
3.042407989501953 5.650028228759766 -0.0810796320438385
6.659435749053955 -11.74917984008789 -0.12057924270629883
8.21940803527832 -11.655075073242188 -0.1686701625585556
8.318497657775879 -11.6395263671875 -0.17181871831417084
8.431495666503906 -11.642219543457031 -0.17527002096176147
8.49864673614502 -11.631509780883789 -0.17740462720394135
8.532005310058594 -11.626440048217773 -0.17847761511802673
8.597391128540039 -11.612689018249512 -0.18058457970619202
8.64731216430664 -11.629575729370117 -0.18201065063476562
8.718096733093262 -11.622228622436523 -0.18424245715141296
8.742934226989746 -11.60509204864502 -0.18514488637447357
8.82087516784668 -11.606515884399414 -0.1875382959842682
8.850183486938477 -11.595054626464844 -0.18853987753391266
8.966951370239258 -11.596152305603027 -0.19147560000419617
10.269349098205566 -11.48493766784668 -0.23179411888122559
10.387833595275879 -11.471487045288086 -0.23567062616348267
10.513127326965332 -11.464168548583984 -0.2394939661026001
10.598430633544922 -11.459924697875977 -0.2422412484884262
10.645009994506836 -11.462479591369629 -0.24299131333827972
10.724952697753906 -11.451462745666504 -0.24562884867191315
10.752182006835938 -11.432890892028809 -0.2466667741537094
10.842535018920898 -11.432107925415039 -0.2505188286304474
10.893863677978516 -11.438592910766602 -0.25211966037750244
10.969244003295898 -11.421041488647461 -0.25445038080215454
11.015178680419922 -11.421330451965332 -0.2559341788291931
11.103361129760742 -11.416152954101562 -0.2580695152282715
11.237043380737305 -11.409210205078125 -0.26243719458580017
11.34960651397705 -11.379510879516602 -0.2660984992980957
12.496256828308105 -11.278529167175293 -0.3023429214954376
12.628013610839844 -11.25420093536377 -0.30691128969192505
12.789155006408691 -11.254354476928711 -0.3111818730831146
12.927024841308594 -11.232271194458008 -0.31594914197921753
13.092378616333008 -11.232281684875488 -0.32301822304725647
13.130638122558594 -11.21788501739502 -0.32444140315055847
13.182303428649902 -11.213397979736328 -0.32618191838264465
13.234697341918945 -11.210713386535645 -0.3277069330215454
13.282625198364258 -11.204051971435547 -0.3285721242427826
13.32477855682373 -11.190978050231934 -0.33008483052253723
13.379579544067383 -11.189736366271973 -0.33193156123161316
13.494966506958008 -11.189990997314453 -0.3357629179954529
13.529017448425293 -11.170928001403809 -0.33684611320495605
15.599210739135742 -10.962608337402344 -0.4042333662509918
15.720227241516113 -10.949045181274414 -0.40734153985977173
15.776124954223633 -10.939427375793457 -0.4093725383281708
15.81303596496582 -10.915071487426758 -0.4108942449092865
15.85776424407959 -10.897428512573242 -0.4114673435688019
15.847679138183594 -10.842144012451172 -0.41178208589553833
15.844295501708984 -10.790210723876953 -0.4122581481933594
15.837831497192383 -10.737761497497559 -0.4126662015914917
15.852864265441895 -10.603093147277832 -0.41362303495407104
15.42151165008545 -8.963774681091309 -0.4102347791194916
15.386199951171875 -8.814313888549805 -0.4099840819835663
15.353033065795898 -8.753046989440918 -0.409695029258728
15.320796012878418 -8.649378776550293 -0.4089328348636627
15.305419921875 -8.598861694335938 -0.4099220931529999
15.279275894165039 -8.541281700134277 -0.4087291955947876
15.271322250366211 -8.495288848876953 -0.40910857915878296
15.253205299377441 -8.44381046295166 -0.40842217206954956
15.246522903442383 -8.397611618041992 -0.40856075286865234
15.226224899291992 -8.345293998718262 -0.4086105525493622
15.17556381225586 -8.193889617919922 -0.40796613693237305
14.588077545166016 -6.951220512390137 -0.3960731625556946
14.528997421264648 -6.811326026916504 -0.3945268988609314
14.482015609741211 -6.678571701049805 -0.3940483033657074
14.467084884643555 -6.597945213317871 -0.3938576877117157
14.44542121887207 -6.551887035369873 -0.39362066984176636
14.436365127563477 -6.47461462020874 -0.3935977518558502
14.398717880249023 -6.421872138977051 -0.3924451172351837
14.383925437927246 -6.3427839279174805 -0.3929896652698517
14.35407829284668 -6.294075012207031 -0.391816109418869
14.321775436401367 -6.208130359649658 -0.39140668511390686
14.316445350646973 -6.170560359954834 -0.39115187525749207
14.29356575012207 -6.089447975158691 -0.3907690942287445
14.042490005493164 -5.330946445465088 -0.3867272734642029
14.013246536254883 -5.219291687011719 -0.38661280274391174
13.980179786682129 -5.1402788162231445 -0.38601064682006836
13.965068817138672 -5.1016082763671875 -0.38530057668685913
13.924617767333984 -5.020463943481445 -0.3844996988773346
13.916781425476074 -4.985029697418213 -0.38490211963653564
13.875099182128906 -4.936919212341309 -0.38345804810523987
13.878888130187988 -4.905605316162109 -0.38417813181877136
13.847331047058105 -4.862149238586426 -0.38302454352378845
13.832528114318848 -4.824019432067871 -0.3829992413520813
13.825469017028809 -4.7891645431518555 -0.3827512264251709
13.805907249450684 -4.7503252029418945 -0.3819383382797241
13.758880615234375 -4.669431686401367 -0.38097482919692993
13.772598266601562 -4.641534805297852 -0.3819688856601715
13.775230407714844 -4.578610420227051 -0.3821728229522705
13.735695838928223 -4.469778060913086 -0.3813912570476532
13.717447280883789 -4.367973327636719 -0.38164955377578735
13.532297134399414 -3.752349615097046 -0.3782897889614105
13.529013633728027 -3.6901535987854004 -0.3784043490886688
13.519807815551758 -3.657294988632202 -0.3787878155708313
13.509688377380371 -3.6244874000549316 -0.378292441368103
13.513389587402344 -3.5947728157043457 -0.38031643629074097
13.47368335723877 -3.554068088531494 -0.3796275556087494
13.499540328979492 -3.530942440032959 -0.3803630471229553
13.45283317565918 -3.4882569313049316 -0.37883734703063965
13.47588062286377 -3.4641849994659424 -0.37991979718208313
13.442172050476074 -3.425140619277954 -0.3789747655391693
13.43442440032959 -3.393275499343872 -0.3785557150840759
13.445148468017578 -3.366318941116333 -0.37950727343559265
13.404958724975586 -3.26619029045105 -0.3786237835884094
13.391796112060547 -3.1739320755004883 -0.3785228133201599
13.28628158569336 -2.7101104259490967 -0.3793618679046631
13.254613876342773 -2.61696720123291 -0.37880581617355347
13.236345291137695 -2.5554914474487305 -0.37817803025245667
13.242595672607422 -2.5279951095581055 -0.3788224458694458
13.232817649841309 -2.468623399734497 -0.3784496784210205
13.213176727294922 -2.4363884925842285 -0.3777407705783844
13.226099967956543 -2.409775495529175 -0.37857919931411743
13.208577156066895 -2.3782734870910645 -0.37793654203414917
13.223357200622559 -2.352407932281494 -0.3784223198890686
13.179960250854492 -2.315857410430908 -0.37703797221183777
13.185606002807617 -2.2884466648101807 -0.3776766061782837
13.172223091125488 -2.2579755783081055 -0.37736135721206665
13.163847923278809 -2.199512481689453 -0.3768520653247833
13.144853591918945 -2.1676902770996094 -0.37678781151771545
13.136528968811035 -2.1101465225219727 -0.38035744428634644
13.118691444396973 -2.0787477493286133 -0.3797121047973633
13.124801635742188 -2.0230915546417236 -0.3802501857280731
12.988227844238281 -1.585153341293335 -0.3772568106651306
12.979433059692383 -1.5013307332992554 -0.3773214519023895
