VERSION .7
FIELDS x y z
SIZE 4 4 4
TYPE F F F
COUNT 1 1 1
WIDTH 839
HEIGHT 1
VIEWPOINT 0 0 0 1 0 0 0
POINTS 839
DATA ascii
21.14095687866211 4.420258522033691 0.1510975956916809
21.015670776367188 4.8101420402526855 0.1489490121603012
20.972606658935547 4.939240455627441 0.1488649547100067
20.935678482055664 5.022983074188232 0.14812830090522766
20.928897857666016 5.068024635314941 0.1481577455997467
20.88100814819336 5.149618148803711 0.1472761631011963
20.876014709472656 5.1943678855896 0.14731478691101074
20.84698486328125 5.280472755432129 0.14727084338665009
20.835620880126953 5.323631286621094 0.1466486155986786
20.817445755004883 5.365673065185547 0.146601140499115
20.80270767211914 5.408652305603027 0.1465723216533661
20.79598617553711 5.453001976013184 0.14591369032859802
20.795494079589844 5.500377655029297 0.14599281549453735
20.778392791748047 5.542015552520752 0.14595472812652588
20.760643005371094 5.583454132080078 0.14591258764266968
20.724634170532227 5.621273517608643 0.14511221647262573
20.730188369750977 5.668990135192871 0.1453089416027069
20.70874786376953 5.709342002868652 0.14523905515670776
20.68860626220703 5.751370429992676 0.1444995105266571
20.673694610595703 5.793469429016113 0.14447945356369019
20.669574737548828 5.839247226715088 0.14453525841236115
20.65070343017578 5.880936622619629 0.14448513090610504
20.610149383544922 5.915655612945557 0.14365914463996887
20.547138214111328 5.944389343261719 0.14328807592391968
20.49020767211914 5.974748611450195 0.14297044277191162
20.396100997924805 5.99326229095459 0.1423887312412262
20.260456085205078 6.000450134277344 0.14085042476654053
20.149845123291016 6.013203144073486 0.14016209542751312
20.037960052490234 6.025127410888672 0.13947081565856934
19.915180206298828 6.0346293449401855 0.13810941576957703
19.803630828857422 6.0457258224487305 0.13742275536060333
19.692100524902344 6.056379318237305 0.13673603534698486
19.568939208984375 6.0642900466918945 0.13596808910369873
19.456344604492188 6.073678016662598 0.13461318612098694
19.350439071655273 6.085322380065918 0.13396745920181274
19.243974685668945 6.096442699432373 0.13332077860832214
19.129413604736328 6.103860378265381 0.13203871250152588
19.022254943847656 6.113788604736328 0.13138827681541443
18.912113189697266 6.122398376464844 0.1307135671377182
18.805578231811523 6.131647109985352 0.13006505370140076
18.484216690063477 6.155688762664795 0.12754815816879272
18.16387939453125 6.176130294799805 0.12498044967651367
17.363018035888672 6.230843544006348 0.11904574930667877
17.084331512451172 6.252344131469727 0.11688476800918579
16.80638885498047 6.270709037780762 0.11466670781373978
16.734872817993164 6.284241676330566 0.11375946551561356
16.545297622680664 6.2926836013793945 0.11264970153570175
16.456682205200195 6.298102855682373 0.1115567609667778
16.287229537963867 6.312017917633057 0.11058855801820755
16.204320907592773 6.318596839904785 0.10954564809799194
16.1243896484375 6.3265380859375 0.10860556364059448
16.041200637817383 6.33294677734375 0.10813426971435547
15.943130493164062 6.332502365112305 0.10755875706672668
15.873587608337402 6.343572616577148 0.10718131065368652
15.788864135742188 6.348342418670654 0.10669824481010437
15.702493667602539 6.352019309997559 0.10620167851448059
15.622383117675781 6.357369422912598 0.10520109534263611
15.553007125854492 6.367381572723389 0.10434658825397491
15.4638671875 6.368903160095215 0.10383673757314682
15.394680976867676 6.378395080566406 0.10346239805221558
15.299576759338379 6.376222610473633 0.1029137670993805
15.237617492675781 6.388054847717285 0.10258723795413971
15.154766082763672 6.390913009643555 0.10158099979162216
15.074498176574707 6.3939409255981445 0.10066737234592438
14.997291564941406 6.39845085144043 0.10023948550224304
14.937934875488281 6.410378456115723 0.09993201494216919
14.865458488464355 6.415838241577148 0.09953601658344269
14.784329414367676 6.4183244705200195 0.09908483177423477
14.711414337158203 6.422985076904297 0.09816169738769531
14.639684677124023 6.428367614746094 0.09731623530387878
14.556133270263672 6.428311824798584 0.0968533605337143
14.498489379882812 6.438843727111816 0.09797869622707367
14.416275024414062 6.438672065734863 0.09699457138776779
14.35537338256836 6.44780158996582 0.09622897952795029
14.279767036437988 6.44948673248291 0.09581442922353745
14.214700698852539 6.4561357498168945 0.09546587616205215
14.136848449707031 6.456755638122559 0.09503664821386337
14.076794624328613 6.464666366577148 0.09472227096557617
13.995192527770996 6.462874889373779 0.09332124888896942
13.945788383483887 6.475759506225586 0.09308655560016632
13.870599746704102 6.475870132446289 0.09267129004001617
13.737299919128418 6.484238624572754 0.09196402132511139
13.685235977172852 6.494900703430176 0.09170948714017868
13.542743682861328 6.496823310852051 0.09001235663890839
13.478269577026367 6.500805377960205 0.08967584371566772
13.35041618347168 6.5085859298706055 0.08900551497936249
13.287572860717773 6.512110710144043 0.08867690712213516
13.17170238494873 6.524261474609375 0.0871894359588623
13.098909378051758 6.522091865539551 0.08679494261741638
12.986051559448242 6.534292221069336 0.08670318126678467
12.805549621582031 6.544673919677734 0.08658735454082489
12.63159465789795 6.55624532699585 0.08481951802968979
12.500371932983398 6.55510950088501 0.08411954343318939
12.455392837524414 6.565034866333008 0.0839100107550621
12.392805099487305 6.564944267272949 0.08312232792377472
12.345367431640625 6.573108673095703 0.0828961580991745
12.280654907226562 6.5719146728515625 0.08215759694576263
12.231164932250977 6.578118324279785 0.08191543072462082
12.170448303222656 6.5785064697265625 0.08160150051116943
12.112955093383789 6.580461502075195 0.08130913972854614
12.058826446533203 6.583501815795898 0.0805901437997818
12.005308151245117 6.587100982666016 0.07993683218955994
11.954394340515137 6.591988563537598 0.07969127595424652
11.899337768554688 6.594308376312256 0.07941687852144241
11.846136093139648 6.596994400024414 0.07915081083774567
11.80008316040039 6.603974342346191 0.07893529534339905
11.746542930603027 6.606497287750244 0.07785147428512573
11.679505348205566 6.601239204406738 0.07749621570110321
11.633737564086914 6.607263088226318 0.07815990597009659
11.581840515136719 6.610047340393066 0.0786597728729248
11.525655746459961 6.610229015350342 0.07837308943271637
11.470560073852539 6.610733985900879 0.0780925303697586
11.421501159667969 6.614072799682617 0.0778510719537735
11.378820419311523 6.621426582336426 0.07722407579421997
11.317174911499023 6.617460250854492 0.07653100788593292
11.275599479675293 6.624587059020996 0.0763380378484726
11.236495971679688 6.633513927459717 0.07616876065731049
11.181039810180664 6.632530212402344 0.07588493824005127
11.14015007019043 6.6395673751831055 0.0757044106721878
11.084516525268555 6.638113975524902 0.07462857663631439
11.046087265014648 6.646708011627197 0.07446464896202087
10.989721298217773 6.644384384155273 0.07417909801006317
10.932140350341797 6.640588760375977 0.07388554513454437
10.891953468322754 6.6475830078125 0.07370465248823166
10.84225082397461 6.648656845092773 0.07310532033443451
10.803507804870605 6.656209945678711 0.07252401113510132
10.743364334106445 6.649952411651611 0.07221482694149017
10.71104621887207 6.661217212677002 0.07208766043186188
10.674300193786621 6.669543266296387 0.07193434238433838
10.574655532836914 6.668949127197266 0.07069012522697449
10.52782917022705 6.670412540435791 0.07047121226787567
10.444086074829102 6.678743362426758 0.07201430201530457
10.386531829833984 6.672762870788574 0.07171257585287094
10.295534133911133 6.675723075866699 0.07052986323833466
10.262712478637695 6.684732437133789 0.0704008936882019
10.174083709716797 6.688197612762451 0.06998473405838013
10.124832153320312 6.685953140258789 0.0690029188990593
10.045232772827148 6.69431209564209 0.06865141540765762
9.960491180419922 6.698586463928223 0.06825995445251465
9.925610542297363 6.705083847045898 0.06738470494747162
9.847427368164062 6.712838649749756 0.06704457849264145
9.797155380249023 6.708390235900879 0.06680071353912354
9.714818954467773 6.712281703948975 0.0660952553153038
9.67729377746582 6.716067314147949 0.06554803252220154
9.596038818359375 6.719728469848633 0.06519051641225815
9.554515838623047 6.720245361328125 0.06500306725502014
9.473337173461914 6.722957611083984 0.06507499516010284
9.44305419921875 6.731442928314209 0.06528972089290619
9.393860816955566 6.726221084594727 0.06504721939563751
9.3654146194458 6.735295295715332 0.06494689732789993
9.325151443481445 6.736207962036133 0.06444241106510162
9.28747844696045 6.738770008087158 0.06390296667814255
9.24415111541748 6.736660003662109 0.06369999796152115
9.208047866821289 6.740113735198975 0.0635480284690857
9.174104690551758 6.744950294494629 0.06341283768415451
9.142887115478516 6.751735687255859 0.0629737600684166
9.096635818481445 6.746798515319824 0.06275083124637604
9.050529479980469 6.742156982421875 0.062160734087228775
9.029560089111328 6.7561798095703125 0.062113016843795776
8.984807968139648 6.75222110748291 0.06190470606088638
8.946643829345703 6.7526373863220215 0.061418719589710236
8.906322479248047 6.751720428466797 0.060874082148075104
8.875783920288086 6.758015155792236 0.060762397944927216
8.827486038208008 6.750226974487305 0.060522906482219696
8.788829803466797 6.7500739097595215 0.06004536151885986
8.74673080444336 6.747037887573242 0.059852682054042816
8.7052583694458 6.743908882141113 0.05966351926326752
8.67414665222168 6.749505996704102 0.05919085443019867
8.643207550048828 6.754274368286133 0.059074193239212036
8.60909652709961 6.756897926330566 0.05863048881292343
8.56965446472168 6.755118370056152 0.05953225493431091
8.52998161315918 6.752593994140625 0.05935370922088623
8.505775451660156 6.762648105621338 0.05928422510623932
8.463476181030273 6.758120536804199 0.05842715501785278
8.42588996887207 6.756789207458496 0.05826365947723389
8.391532897949219 6.758352279663086 0.05812596529722214
8.358738899230957 6.7609758377075195 0.05799597501754761
8.333757400512695 6.769426345825195 0.05791975557804108
8.290178298950195 6.76308536529541 0.05706276744604111
8.254364013671875 6.762834072113037 0.05691496282815933
8.22392463684082 6.766465187072754 0.056801170110702515
8.19207763671875 6.769661903381348 0.056680917739868164
8.150482177734375 6.763801574707031 0.05649011954665184
8.089380264282227 6.770826816558838 0.055619120597839355
8.044750213623047 6.761910438537598 0.05540949106216431
7.97804069519043 6.7633795738220215 0.05485145002603531
7.944428443908691 6.763269424438477 0.05437421798706055
7.867587089538574 6.755206108093262 0.05404258519411087
7.80381965637207 6.757755279541016 0.05350840464234352
7.780370712280273 6.765754222869873 0.053105149418115616
7.711992263793945 6.763541221618652 0.0529281422495842
7.678391456604004 6.7623138427734375 0.05279400572180748
7.612399101257324 6.7613325119018555 0.05220085754990578
7.597162246704102 6.776054382324219 0.05190559849143028
7.549560070037842 6.762609481811523 0.05167875066399574
7.523669719696045 6.767611026763916 0.05159757286310196
7.49030876159668 6.76577615737915 0.05113370716571808
7.4624714851379395 6.76963472366333 0.05104227364063263
7.431609630584717 6.769805908203125 0.05064348876476288
7.408052444458008 6.776976108551025 0.05058020353317261
7.375497817993164 6.7757463455200195 0.050455302000045776
7.345908164978027 6.776726722717285 0.05002080649137497
7.307704925537109 6.770053863525391 0.049576662480831146
7.286834716796875 6.779256820678711 0.049531709402799606
7.251151084899902 6.7741851806640625 0.04938463866710663
7.227392196655273 6.780578136444092 0.0489947646856308
7.194838523864746 6.778547286987305 0.04887063056230545
7.175041198730469 6.78805685043335 0.048552870750427246
7.1307902336120605 6.775117874145508 0.04835125058889389
7.109052658081055 6.782590389251709 0.04829881712794304
7.087409973144531 6.790092468261719 0.047925807535648346
7.050640106201172 6.783811092376709 0.04777505248785019
7.023487091064453 6.785809516906738 0.04773060604929924
6.989870071411133 6.781877040863037 0.04672880098223686
6.969550132751465 6.790679931640625 0.0464140959084034
6.937280654907227 6.787359237670898 0.046293243765830994
6.912441730499268 6.791635513305664 0.04622296243906021
6.889679431915283 6.797812461853027 0.04584855958819389
6.852958679199219 6.789704322814941 0.045698195695877075
6.83234977722168 6.797884941101074 0.04538173973560333
6.790122985839844 6.784353256225586 0.04519703984260559
6.782010078430176 6.804876327514648 0.045239001512527466
6.742892742156982 6.794149875640869 0.04475821554660797
6.717702388763428 6.7969207763671875 0.044685814529657364
6.694046974182129 6.801603317260742 0.04435424506664276
6.672837734222412 6.8086419105529785 0.044307809323072433
6.640842437744141 6.804183483123779 0.04387776926159859
6.614574432373047 6.805912017822266 0.04379875212907791
6.588830471038818 6.808017730712891 0.04345447197556496
6.563662052154541 6.810235977172852 0.04338252171874046
6.53829288482666 6.812981605529785 0.043310776352882385
6.510854244232178 6.812633514404297 0.04291444644331932
6.488546848297119 6.817560195922852 0.04285956919193268
6.456917762756348 6.813413619995117 0.042481742799282074
6.425543785095215 6.80855131149292 0.0423680804669857
6.378746032714844 6.8162455558776855 0.041943032294511795
6.358303070068359 6.822724342346191 0.04111236333847046
6.3038554191589355 6.8216753005981445 0.040946945548057556
6.2769317626953125 6.8208842277526855 0.040600962936878204
6.225493431091309 6.8224287033081055 0.04014977067708969
6.211953163146973 6.836027145385742 0.04015491157770157
6.182103157043457 6.832446098327637 0.04005562514066696
6.149594306945801 6.824933052062988 0.0396781787276268
6.134904861450195 6.837107181549072 0.03937395662069321
6.105094909667969 6.833195686340332 0.03927686810493469
6.085683822631836 6.8399858474731445 0.03924370929598808
6.04005241394043 6.846543788909912 0.038578733801841736
6.015506744384766 6.847310543060303 0.03851345181465149
5.962278366088867 6.844644546508789 0.03835558146238327
5.940311431884766 6.848067283630371 0.03800615295767784
5.9159345626831055 6.8494720458984375 0.03768768161535263
5.887196063995361 6.844861030578613 0.03759606555104256
5.872925281524658 6.857456207275391 0.037596918642520905
5.840160369873047 6.848302841186523 0.03747975826263428
5.8293657302856445 6.86444616317749 0.03720535337924957
5.793770790100098 6.851752281188965 0.03711166977882385
5.770168304443359 6.853024005889893 0.03625044226646423
5.7506489753723145 6.858678817749023 0.036219313740730286
5.723443984985352 6.855926513671875 0.03588956966996193
5.707211971282959 6.865391731262207 0.03587421402335167
5.683467864990234 6.8657636642456055 0.03581493720412254
5.659423828125 6.866527557373047 0.035465262830257416
5.631626605987549 6.861765384674072 0.03538300469517708
5.608048439025879 6.862024784088135 0.03506937623023987
5.589832305908203 6.869633674621582 0.03504801541566849
5.558871269226074 6.8606157302856445 0.034656450152397156
5.538820266723633 6.865406513214111 0.0346178263425827
5.512393474578857 6.8621368408203125 0.034543704241514206
5.495197296142578 6.869880676269531 0.034277837723493576
5.460967063903809 6.856668472290039 0.03386463224887848
5.447629451751709 6.869523048400879 0.03387124836444855
5.424283504486084 6.869316577911377 0.03381656855344772
5.403444290161133 6.873063087463379 0.03377866744995117
5.373809814453125 6.864639759063721 0.03343498334288597
5.363132476806641 6.880369663238525 0.033169932663440704
5.33477783203125 6.874228477478027 0.033087875694036484
5.303931713104248 6.863842010498047 0.032982125878334045
5.28483247756958 6.868538856506348 0.03295188769698143
5.269587516784668 6.879081726074219 0.032423894852399826
5.244811534881592 6.876249313354492 0.0323592945933342
5.225957870483398 6.881566047668457 0.0315566249191761
5.210020542144775 6.890625 0.03155013918876648
5.184414386749268 6.886418342590332 0.03148290514945984
5.154635429382324 6.8769850730896 0.03138989210128784
5.138070106506348 6.885013103485107 0.031375568360090256
5.120882987976074 6.891773223876953 0.03083525225520134
5.0990777015686035 6.893138885498047 0.030794985592365265
5.064014911651611 6.87553596496582 0.030664728954434395
5.050230503082275 6.887178897857666 0.030673440545797348
5.028957366943359 6.888505458831787 0.030348066240549088
5.014575004577637 6.898820877075195 0.030108004808425903
4.985531806945801 6.889354705810547 0.03001968376338482
4.972128868103027 6.901350975036621 0.030023884028196335
4.953241348266602 6.905303955078125 0.030000194907188416
4.929553031921387 6.903369903564453 0.029666496440768242
4.898165225982666 6.889601707458496 0.029324844479560852
4.8853864669799805 6.901911735534668 0.02933606132864952
4.858344078063965 6.894893646240234 0.02925824746489525
4.8397216796875 6.898825645446777 0.028960127383470535
4.814749717712402 6.893613338470459 0.028892651200294495
4.797632694244385 6.900459289550781 0.028642110526561737
4.780544281005859 6.906415939331055 0.028627026826143265
4.760276794433594 6.907723903656006 0.028594231233000755
4.730966567993164 6.896677017211914 0.02823042869567871
4.713383674621582 6.901704788208008 0.027700647711753845
4.693107604980469 6.9036359786987305 0.027432456612586975
4.66549825668335 6.8937482833862305 0.02735246531665325
4.649418354034424 6.900796890258789 0.02734692208468914
4.627303123474121 6.899735450744629 0.027299443259835243
4.605404853820801 6.897983551025391 0.026982620358467102
4.594676971435547 6.912938117980957 0.027003463357686996
4.573143482208252 6.9125261306762695 0.026729103177785873
4.5499467849731445 6.908575534820557 0.026677817106246948
4.526921272277832 6.904765605926514 0.02635253593325615
4.512303352355957 6.914638042449951 0.026358433067798615
4.489412307739258 6.910853385925293 0.026307156309485435
4.47606086730957 6.921700477600098 0.026082176715135574
4.443111896514893 6.903043746948242 0.02597181126475334
4.432373046875 6.9178619384765625 0.025727663189172745
4.408224105834961 6.912636756896973 0.025673294439911842
4.390468597412109 6.916411399841309 0.025649569928646088
4.375513076782227 6.924569129943848 0.02542203664779663
4.35068416595459 6.917957782745361 0.02509201318025589
4.326871871948242 6.9118804931640625 0.02503855898976326
4.311863422393799 6.919792652130127 0.025035079568624496
4.28535270690918 6.910091400146484 0.024965208023786545
4.270827293395996 6.9186835289001465 0.02473287656903267
4.241389751434326 6.903948783874512 0.024384085088968277
4.230914115905762 6.91904878616333 0.02440466731786728
4.211175918579102 6.918989658355713 0.024375654757022858
4.1899261474609375 6.917304515838623 0.024337682873010635
4.174195289611816 6.923717975616455 0.023837920278310776
4.15002965927124 6.916051864624023 0.02378227189183235
4.128140926361084 6.913002967834473 0.02373850904405117
4.116251468658447 6.925703048706055 0.023755639791488647
4.09619140625 6.9246296882629395 0.02345775067806244
4.07839822769165 6.928283214569092 0.02321363054215908
4.059531211853027 6.929083824157715 0.023186644539237022
4.037962913513184 6.925178527832031 0.02314865216612816
4.010624885559082 6.912184715270996 0.02307591214776039
3.9892377853393555 6.90831184387207 0.022773921489715576
5.930042266845703 -11.081457138061523 0.0428323931992054
6.004117012023926 -11.052289962768555 0.04363840073347092
6.043889999389648 -11.069931983947754 0.04374934732913971
6.1055097579956055 -11.072412490844727 0.04387150704860687
6.143057823181152 -11.085301399230957 0.04397021234035492
6.171895503997803 -11.082171440124512 0.04437316209077835
6.1981353759765625 -11.075157165527344 0.04439334571361542
6.232122421264648 -11.081130981445312 0.04488677531480789
6.260688781738281 -11.0772066116333 0.04492511600255966
6.293406963348389 -11.080620765686035 0.04499053582549095
6.319067001342773 -11.072232246398926 0.04536495357751846
6.3535308837890625 -11.0783052444458 0.04544428735971451
6.383027076721191 -11.075689315795898 0.04549473524093628
6.409827709197998 -11.0690336227417 0.04551967233419418
6.440683841705322 -11.068448066711426 0.046357423067092896
6.47349739074707 -11.07120132446289 0.046426814049482346
6.504212379455566 -11.070110321044922 0.04647830128669739
6.566699504852295 -11.070293426513672 0.04701393470168114
6.598203659057617 -11.07015323638916 0.047437041997909546
6.660359859466553 -11.06900405883789 0.04754876345396042
6.6924333572387695 -11.069419860839844 0.04761311411857605
6.755476951599121 -11.068143844604492 0.04852256923913956
6.784075736999512 -11.06330680847168 0.04856257885694504
6.878900527954102 -11.061296463012695 0.04874248430132866
7.4443745613098145 -11.019426345825195 0.052948758006095886
7.640408992767334 -11.008637428283691 0.05416983738541603
7.746081352233887 -11.012444496154785 0.054424822330474854
7.813976287841797 -11.010140419006348 0.05496438965201378
7.919386863708496 -11.01133918762207 0.05566133186221123
7.9529619216918945 -11.00975227355957 0.056115083396434784
7.981063365936279 -10.999839782714844 0.05614066123962402
8.020805358886719 -11.005727767944336 0.05626755580306053
8.044034957885742 -10.989616394042969 0.057037100195884705
8.083389282226562 -10.994027137756348 0.057602331042289734
8.154197692871094 -10.994426727294922 0.05777039751410484
8.187381744384766 -10.990025520324707 0.05784303694963455
8.219722747802734 -10.985776901245117 0.05829830467700958
8.253366470336914 -10.983152389526367 0.05837276577949524
8.289446830749512 -10.98223876953125 0.05846095830202103
8.324812889099121 -10.9816255569458 0.058547575026750565
8.363785743713379 -10.984964370727539 0.05866135284304619
8.39519214630127 -10.978121757507324 0.05955658480525017
8.435504913330078 -10.983524322509766 0.05968961864709854
8.4622802734375 -10.970544815063477 0.05971065163612366
8.508563995361328 -10.982597351074219 0.05988040566444397
8.539386749267578 -10.975261688232422 0.05993647873401642
8.576515197753906 -10.974528312683105 0.06002762168645859
8.611989974975586 -10.972911834716797 0.060511767864227295
8.648518562316895 -10.972494125366211 0.060601018369197845
8.678325653076172 -10.96206283569336 0.060652248561382294
8.718877792358398 -10.966445922851562 0.06123191490769386
8.755208969116211 -10.965353965759277 0.061335496604442596
8.786943435668945 -10.957012176513672 0.06139250099658966
8.823196411132812 -10.955558776855469 0.061884500086307526
8.861135482788086 -10.956047058105469 0.0619906410574913
8.892033576965332 -10.946343421936035 0.0632263571023941
8.935577392578125 -10.953420639038086 0.06338312476873398
9.157764434814453 -10.94198226928711 0.06485269963741302
9.272991180419922 -10.939190864562988 0.06518477201461792
9.72934341430664 -10.907804489135742 0.06821028143167496
9.848350524902344 -10.902469635009766 0.07029296457767487
9.929683685302734 -10.900489807128906 0.07094598561525345
9.971009254455566 -10.899715423583984 0.07109098136425018
10.047677993774414 -10.891071319580078 0.07131029665470123
10.082956314086914 -10.883904457092285 0.07139577716588974
10.171792984008789 -10.88746452331543 0.07212498039007187
10.200545310974121 -10.872920989990234 0.07217169553041458
10.284059524536133 -10.869834899902344 0.07292425632476807
10.324419021606445 -10.867231369018555 0.0730547159910202
10.417383193969727 -10.87301254272461 0.07381214201450348
10.45501708984375 -10.867057800292969 0.07392285764217377
10.491941452026367 -10.859525680541992 0.07401363551616669
10.530973434448242 -10.854145050048828 0.07412514090538025
10.5789794921875 -10.858444213867188 0.07430519908666611
10.61859130859375 -10.853235244750977 0.07442981004714966
10.661821365356445 -10.851664543151855 0.07499554753303528
10.697507858276367 -10.842884063720703 0.07509300112724304
10.748455047607422 -10.848073959350586 0.0762961208820343
10.780738830566406 -10.835590362548828 0.07765676081180573
10.82840347290039 -10.837709426879883 0.07782423496246338
10.879589080810547 -10.843226432800293 0.07803340256214142
10.920007705688477 -10.838432312011719 0.078163281083107
10.961259841918945 -10.833602905273438 0.07923033088445663
11.004326820373535 -10.830506324768066 0.07937300950288773
11.052690505981445 -10.83304500579834 0.07956712692975998
11.099976539611816 -10.833606719970703 0.07974269986152649
11.133552551269531 -10.820745468139648 0.07981778681278229
11.178871154785156 -10.819770812988281 0.07999119162559509
11.225580215454102 -10.81863021850586 0.08013956993818283
11.267624855041504 -10.814140319824219 0.08071935176849365
11.311410903930664 -10.8111572265625 0.08088172972202301
11.361198425292969 -10.812397003173828 0.08107541501522064
11.399993896484375 -10.80432415008545 0.08117912709712982
11.446537017822266 -10.80272102355957 0.08134496957063675
11.493880271911621 -10.801783561706543 0.08205122500658035
11.533465385437012 -10.793999671936035 0.08217227458953857
11.582077026367188 -10.793783187866211 0.08280409872531891
11.670755386352539 -10.785658836364746 0.08310498297214508
11.720525741577148 -10.785932540893555 0.0833149403333664
11.8143310546875 -10.781432151794434 0.08469991385936737
11.855484008789062 -10.773270606994629 0.08619478344917297
11.9545259475708 -10.77241325378418 0.08657685667276382
12.089622497558594 -10.75649642944336 0.08751772344112396
12.243391036987305 -10.756174087524414 0.08868389576673508
12.381811141967773 -10.740617752075195 0.08918815851211548
12.49090576171875 -10.743398666381836 0.09012474864721298
12.530844688415527 -10.73259162902832 0.09024922549724579
12.633618354797363 -10.728710174560547 0.09064758569002151
12.681596755981445 -10.724237442016602 0.09083691239356995
12.78503131866455 -10.719686508178711 0.09125512838363647
12.828435897827148 -10.710208892822266 0.09243103861808777
12.936922073364258 -10.709260940551758 0.09288829565048218
13.086036682128906 -10.694772720336914 0.09608583897352219
13.134532928466797 -10.688407897949219 0.09629364311695099
13.193525314331055 -10.690261840820312 0.09702765196561813
13.240382194519043 -10.682787895202637 0.09720553457736969
13.29612922668457 -10.681672096252441 0.09745312482118607
13.33134651184082 -10.663803100585938 0.09755054116249084
13.39405632019043 -10.667842864990234 0.09784819185733795
13.457115173339844 -10.672500610351562 0.09814135730266571
13.509309768676758 -10.667581558227539 0.09835726022720337
13.55920696258545 -10.66075611114502 0.09854760020971298
13.61303424835205 -10.657438278198242 0.09877761453390121
13.663448333740234 -10.65052604675293 0.09948307275772095
13.713058471679688 -10.642903327941895 0.09967310726642609
13.770730972290039 -10.641946792602539 0.10050225257873535
13.832754135131836 -10.643380165100098 0.100795216858387
13.885910034179688 -10.637855529785156 0.10102128982543945
13.933928489685059 -10.628105163574219 0.10121259093284607
13.995061874389648 -10.628868103027344 0.10148699581623077
14.046670913696289 -10.621550559997559 0.10168901830911636
14.111879348754883 -10.624174118041992 0.1025114431977272
14.149927139282227 -10.606884002685547 0.10261319577693939
14.199703216552734 -10.597620010375977 0.1028193011879921
14.263067245483398 -10.59816837310791 0.10486986488103867
14.321150779724121 -10.594646453857422 0.10564298182725906
14.37614631652832 -10.588512420654297 0.1058894544839859
14.437627792358398 -10.587652206420898 0.10617737472057343
14.511161804199219 -10.594712257385254 0.10654842853546143
14.557127952575684 -10.581299781799316 0.10723824799060822
14.613452911376953 -10.57596206665039 0.10748976469039917
14.66796588897705 -10.568473815917969 0.10771630704402924
14.732925415039062 -10.568168640136719 0.10802321881055832
14.797065734863281 -10.567739486694336 0.10833729803562164
14.857521057128906 -10.563797950744629 0.10860729217529297
14.91153335571289 -10.55494499206543 0.10945689678192139
14.968618392944336 -10.54879379272461 0.10970838367938995
15.019523620605469 -10.537455558776855 0.10991928726434708
15.08701229095459 -10.5374174118042 0.11023899167776108
15.154420852661133 -10.537776947021484 0.11109514534473419
15.215131759643555 -10.531845092773438 0.11137862503528595
15.268777847290039 -10.522177696228027 0.11161886155605316
15.392280578613281 -10.511956214904785 0.11219892650842667
15.44658088684082 -10.502099990844727 0.11243189871311188
15.579511642456055 -10.496810913085938 0.11308960616588593
15.635774612426758 -10.487607955932617 0.1133354902267456
15.7561616897583 -10.472417831420898 0.1169140636920929
15.949102401733398 -10.456695556640625 0.11785362660884857
16.085330963134766 -10.449417114257812 0.11853078007698059
16.151451110839844 -10.444771766662598 0.1188550740480423
16.285093307495117 -10.434194564819336 0.11952246725559235
16.34540557861328 -10.425056457519531 0.12034951150417328
16.478179931640625 -10.412374496459961 0.12100043892860413
16.547473907470703 -10.408171653747559 0.12134571373462677
16.607555389404297 -10.396514892578125 0.12162452936172485
16.675474166870117 -10.390931129455566 0.12196587026119232
16.751121520996094 -10.389871597290039 0.12236492335796356
16.822479248046875 -10.384435653686523 0.12271778285503387
16.883241653442383 -10.373619079589844 0.12299653887748718
16.957077026367188 -10.369916915893555 0.12337714433670044
17.024635314941406 -10.361984252929688 0.12370355427265167
17.09450912475586 -10.35595703125 0.12462684512138367
17.16890525817871 -10.351723670959473 0.12566280364990234
17.233844757080078 -10.34140396118164 0.12597286701202393
17.305950164794922 -10.335887908935547 0.1283355951309204
17.37921905517578 -10.330114364624023 0.12815889716148376
17.44808578491211 -10.32133674621582 0.1284993290901184
17.518760681152344 -10.314126968383789 0.12885524332523346
17.604581832885742 -10.314074516296387 0.12932699918746948
17.67101287841797 -10.303796768188477 0.1296600103378296
17.74347686767578 -10.296768188476562 0.13003584742546082
17.82453155517578 -10.292966842651367 0.13046973943710327
17.88872528076172 -10.280593872070312 0.1307801604270935
17.968490600585938 -10.276890754699707 0.1317921280860901
18.032365798950195 -10.26236343383789 0.13210320472717285
18.12303924560547 -10.264236450195312 0.13260731101036072
18.193620681762695 -10.253726959228516 0.13296402990818024
18.26988410949707 -10.246021270751953 0.13405486941337585
18.35883331298828 -10.245882034301758 0.13453908264636993
18.427839279174805 -10.233621597290039 0.13488954305648804
18.507808685302734 -10.227041244506836 0.1353212296962738
18.58336067199707 -10.218509674072266 0.13572219014167786
18.668609619140625 -10.213506698608398 0.13618279993534088
18.746503829956055 -10.205633163452148 0.13660022616386414
18.81618881225586 -10.193008422851562 0.13695889711380005
18.90839385986328 -10.190770149230957 0.1374598741531372
18.988021850585938 -10.182893753051758 0.13788193464279175
19.083953857421875 -10.182713508605957 0.13904058933258057
19.14078140258789 -10.1612548828125 0.14143484830856323
19.235740661621094 -10.160554885864258 0.14137408137321472
19.31558609008789 -10.150014877319336 0.14178627729415894
19.399648666381836 -10.14286994934082 0.1422540247440338
19.485397338867188 -10.136268615722656 0.14273235201835632
19.56920051574707 -10.12680435180664 0.1431799978017807
19.64956283569336 -10.116750717163086 0.14362677931785583
19.736167907714844 -10.109582901000977 0.14409270882606506
19.823898315429688 -10.101119041442871 0.14458253979682922
19.899993896484375 -10.087928771972656 0.14497831463813782
19.969581604003906 -10.071168899536133 0.14535251259803772
20.018245697021484 -10.042129516601562 0.145578533411026
20.085739135742188 -10.023870468139648 0.14657947421073914
20.184612274169922 -9.96725845336914 0.1470629721879959
20.2474308013916 -9.946069717407227 0.14740344882011414
20.303123474121094 -9.919645309448242 0.14767222106456757
20.33816146850586 -9.884536743164062 0.14782866835594177
20.39080810546875 -9.857866287231445 0.14809322357177734
20.44853401184082 -9.831937789916992 0.1483972668647766
20.495174407958984 -9.80204963684082 0.14862024784088135
20.559499740600586 -9.780442237854004 0.14896893501281738
20.612010955810547 -9.751480102539062 0.14924077689647675
20.659902572631836 -9.721721649169922 0.14946919679641724
20.69707489013672 -9.68680191040039 0.151107519865036
20.75646209716797 -9.66059684753418 0.15074177086353302
20.808456420898438 -9.632312774658203 0.15102159976959229
20.85228729248047 -9.600107192993164 0.15121540427207947
20.87206268310547 -9.555227279663086 0.15121908485889435
20.891918182373047 -9.511923789978027 0.15121883153915405
20.909847259521484 -9.466212272644043 0.1512092649936676
20.93064308166504 -9.42333984375 0.15121817588806152
20.953868865966797 -9.381547927856445 0.15190830826759338
20.973243713378906 -9.336488723754883 0.15190327167510986
20.996231079101562 -9.294563293457031 0.1519261747598648
20.99409294128418 -9.241561889648438 0.1517801731824875
21.024314880371094 -9.201298713684082 0.1518469750881195
21.0489444732666 -9.160077095031738 0.15188351273536682
21.070472717285156 -9.116687774658203 0.1518944650888443
21.088279724121094 -9.071756362915039 0.151864692568779
21.09432029724121 -9.022525787353516 0.15180157124996185
21.09576416015625 -8.96988296508789 0.1516733169555664
21.10910987854004 -8.923877716064453 0.15164151787757874
21.120588302612305 -8.877113342285156 0.15159420669078827
21.15191078186035 -8.837156295776367 0.15167388319969177
21.22037124633789 -8.709477424621582 0.15175755321979523
21.251049041748047 -8.670583724975586 0.15331387519836426
21.264305114746094 -8.62456226348877 0.15262195467948914
21.29033660888672 -8.478865623474121 0.15242546796798706
21.32356834411621 -8.440155029296875 0.15254881978034973
21.36022186279297 -8.350785255432129 0.1525653600692749
21.369571685791016 -8.252357482910156 0.15236978232860565
21.409908294677734 -8.113639831542969 0.15295833349227905
21.436874389648438 -8.07153034210205 0.1530228555202484
21.491458892822266 -7.938181400299072 0.1530713587999344
21.528032302856445 -7.747743129730225 0.15284490585327148
21.58772087097168 -7.564458847045898 0.15354745090007782
21.599414825439453 -7.518266677856445 0.15351644158363342
21.644512176513672 -7.38173770904541 0.15350864827632904
21.686229705810547 -7.294158458709717 0.1535855531692505
21.690471649169922 -7.245515823364258 0.15350094437599182
21.711946487426758 -7.151190757751465 0.1534411609172821
21.739749908447266 -7.110373497009277 0.15353259444236755
21.755212783813477 -7.064021110534668 0.15353623032569885
21.76837921142578 -7.018393516540527 0.1535332202911377
21.787742614746094 -6.974755764007568 0.15355652570724487
21.787397384643555 -6.923367500305176 0.15345385670661926
21.800518035888672 -6.877760887145996 0.15344466269016266
21.832698822021484 -6.786949157714844 0.15346606075763702
21.84172821044922 -6.740081787109375 0.15343646705150604
21.8590145111084 -6.644722938537598 0.15337392687797546
21.849475860595703 -6.59232234954834 0.15322698652744293
21.853734970092773 -6.493321418762207 0.15308116376399994
21.876256942749023 -6.4506378173828125 0.1538715958595276
21.890865325927734 -6.354861736297607 0.15511554479599
21.897754669189453 -6.256990432739258 0.15499722957611084
21.921695709228516 -6.214654922485352 0.1550820767879486
21.919857025146484 -6.065519332885742 0.15476268529891968
21.930686950683594 -6.018797874450684 0.15475064516067505
21.930091857910156 -5.969038963317871 0.1546533852815628
21.931018829345703 -5.919685363769531 0.15457242727279663
21.925151824951172 -5.869316101074219 0.15444830060005188
21.942241668701172 -5.824434280395508 0.15445807576179504
21.972429275512695 -5.7829155921936035 0.15459421277046204
21.961158752441406 -5.731245040893555 0.1544206440448761
21.95960807800293 -5.681509494781494 0.15433001518249512
21.967567443847656 -5.634209632873535 0.15430518984794617
21.961626052856445 -5.583456993103027 0.15417180955410004
21.98316192626953 -5.5403900146484375 0.15423192083835602
21.99478530883789 -5.4940571784973145 0.15423192083835602
22.006546020507812 -5.399379730224609 0.15344204008579254
22.02324104309082 -5.354304313659668 0.153492271900177
22.001426696777344 -5.299988746643066 0.15395866334438324
22.01633071899414 -5.254523277282715 0.15599530935287476
21.969070434570312 -5.195080280303955 0.1555713713169098
21.86786651611328 -5.1225810050964355 0.15476173162460327
21.873268127441406 -5.07525110244751 0.15470057725906372
21.892290115356445 -4.983333587646484 0.15391136705875397
21.909774780273438 -4.938776016235352 0.15395782887935638
21.818092346191406 -4.869889259338379 0.15330496430397034
21.903610229492188 -4.841280937194824 0.15385165810585022
22.000993728637695 -4.814203262329102 0.1544380486011505
22.045732498168945 -4.77540397644043 0.1547241508960724
21.99446678161621 -4.716535568237305 0.15430131554603577
22.040084838867188 -4.677763938903809 0.1545329988002777
22.10231590270996 -4.545955657958984 0.15477418899536133
22.105098724365234 -4.498064994812012 0.15473303198814392
22.10316276550293 -4.401482582092285 0.1545800119638443
22.116748809814453 -4.259145736694336 0.1538456380367279
22.152755737304688 -4.12182092666626 0.15722358226776123
22.137657165527344 -3.975188732147217 0.15693379938602448
22.081762313842773 -3.8220160007476807 0.15629681944847107
21.921709060668945 -3.6525237560272217 0.15345317125320435
21.919296264648438 -3.509918451309204 0.15327531099319458
21.997352600097656 -3.428192615509033 0.15376026928424835
22.196331024169922 -3.411311626434326 0.15530842542648315
22.21605682373047 -3.3193588256835938 0.1553436517715454
22.213321685791016 -3.271113634109497 0.15526491403579712
22.235557556152344 -3.179497241973877 0.15533384680747986
22.233577728271484 -3.1314210891723633 0.1552642583847046
22.241046905517578 -3.0847580432891846 0.15527261793613434
22.254499435424805 -3.0395665168762207 0.15675222873687744
22.248306274414062 -2.9909791946411133 0.1592746078968048
22.255481719970703 -2.944279670715332 0.15928170084953308
22.259868621826172 -2.897146701812744 0.1592700481414795
22.282838821411133 -2.8531246185302734 0.15938740968704224
22.27789306640625 -2.804856777191162 0.15930670499801636
22.28386688232422 -2.7579212188720703 0.15930761396884918
22.29627799987793 -2.712491750717163 0.15870928764343262
22.301851272583008 -2.6179051399230957 0.15866418182849884
22.30579948425293 -2.571453094482422 0.15865227580070496
22.310718536376953 -2.523738145828247 0.15865202248096466
22.312530517578125 -2.477058172225952 0.1586219072341919
22.336692810058594 -2.3845558166503906 0.15870890021324158
22.35061264038086 -2.339141845703125 0.1587737649679184
22.365161895751953 -2.2454848289489746 0.15880195796489716
22.383834838867188 -2.2004499435424805 0.15818525850772858
22.369686126708984 -2.1515426635742188 0.1580536812543869
22.384170532226562 -2.1053414344787598 0.15812358260154724
22.389314651489258 -2.0589611530303955 0.15813127160072327
22.393936157226562 -2.0118746757507324 0.15813399851322174
22.387163162231445 -1.9637205600738525 0.15806332230567932
22.3846435546875 -1.9166985750198364 0.16090425848960876
22.35551643371582 -1.819399356842041 0.16187317669391632
22.359508514404297 -1.7730246782302856 0.16188716888427734
22.342710494995117 -1.677037000656128 0.1616993546485901
22.309226989746094 -1.627974033355713 0.1614336371421814
22.30666732788086 -1.5333726406097412 0.16136983036994934
22.311607360839844 -1.4865474700927734 0.16138334572315216
22.289121627807617 -1.391439437866211 0.16050179302692413
22.298019409179688 -1.344897747039795 0.16055035591125488
22.293846130371094 -1.251088261604309 0.1604677140712738
22.289966583251953 -1.110348105430603 0.15966421365737915
22.273399353027344 -0.9685456156730652 0.1594986915588379
22.27802276611328 -0.8277500867843628 0.15947827696800232
22.270641326904297 -0.6873061656951904 0.16217276453971863
22.272438049316406 -0.5472354292869568 0.16216498613357544
22.2730712890625 -0.40716421604156494 0.16215559840202332
22.25564956665039 -0.3138059079647064 0.16199961304664612
22.250350952148438 -0.2668370008468628 0.16198194026947021
22.24606704711914 -0.22061482071876526 0.161937415599823
22.25818634033203 -0.1731821745634079 0.16200804710388184
22.255659103393555 -0.1269751489162445 0.16197480261325836
22.26297950744629 -0.08081622421741486 0.16132405400276184
22.24728775024414 -0.0332334041595459 0.16120319068431854
26.66709327697754 0.07084101438522339 0.41228464245796204
26.662273406982422 0.23844987154006958 0.41222888231277466
26.664592742919922 0.3507804870605469 0.41143089532852173
26.70111083984375 0.4066812992095947 0.4112544655799866
26.638866424560547 0.7961583733558655 0.41037625074386597
26.616043090820312 0.8523893356323242 0.4100344777107239
26.59588623046875 0.9069950580596924 0.4097745716571808
26.5751953125 0.9631308317184448 0.40947583317756653
26.595861434936523 1.0191482305526733 0.4098235070705414
26.5653076171875 1.0731911659240723 0.40776073932647705
26.578807830810547 1.1306126117706299 0.40800511837005615
26.577674865722656 1.1858229637145996 0.4122052788734436
26.580425262451172 1.2412207126617432 0.41228142380714417
26.55479621887207 1.2968804836273193 0.41192251443862915
26.562267303466797 1.3525047302246094 0.41207191348075867
26.568721771240234 1.4081171751022339 0.412226140499115
26.556102752685547 1.4643445014953613 0.4112984538078308
26.54841423034668 1.5191874504089355 0.411232054233551
26.55450439453125 1.5756816864013672 0.4105350971221924
26.55644989013672 1.6318817138671875 0.4106059670448303
26.559001922607422 1.6873689889907837 0.4106982350349426
26.536182403564453 1.7420710325241089 0.4103934168815613
26.540233612060547 1.7984306812286377 0.41051894426345825
26.5369873046875 1.8535405397415161 0.4105384349822998
26.528528213500977 1.9099061489105225 0.41046005487442017
26.5255184173584 1.9650288820266724 0.41047006845474243
26.52984046936035 2.020714521408081 0.409826397895813
26.537235260009766 2.078306198120117 0.41000086069107056
26.518848419189453 2.132244110107422 0.4097910523414612
26.516998291015625 2.187488317489624 0.4089830815792084
26.52884292602539 2.2455334663391113 0.40921851992607117
26.523845672607422 2.3005566596984863 0.4092171788215637
26.52142333984375 2.4684250354766846 0.40941038727760315
26.490711212158203 2.6336469650268555 0.4118339419364929
26.111265182495117 3.2624406814575195 0.4046269655227661
26.07037353515625 3.423917770385742 0.40431052446365356
25.995386123657227 3.580451011657715 0.4027341604232788
25.96674346923828 3.6880033016204834 0.40252065658569336
25.94902992248535 3.7404394149780273 0.40151289105415344
25.923603057861328 3.8482866287231445 0.4031285345554352
25.888919830322266 3.8980627059936523 0.4027289152145386
25.85448455810547 4.004302978515625 0.401681512594223
25.843225479125977 4.057492733001709 0.40163570642471313
25.79910659790039 4.161969184875488 0.4012256860733032
25.772676467895508 4.212599754333496 0.4009450078010559
25.75394058227539 4.266043186187744 0.3999508023262024
25.72560691833496 4.316219329833984 0.3996533155441284
25.71154022216797 4.368736267089844 0.39957761764526367
25.67984390258789 4.41981315612793 0.3984760642051697
25.662992477416992 4.471766471862793 0.3983529806137085
25.629470825195312 4.520746231079102 0.39798223972320557
25.62676239013672 4.576737403869629 0.39808809757232666
25.590988159179688 4.625168800354004 0.39768823981285095
25.579158782958984 4.67948055267334 0.39682090282440186
25.554086685180664 4.729719161987305 0.39658498764038086
25.543811798095703 4.782662868499756 0.39657992124557495
25.51092529296875 4.8329362869262695 0.3954714238643646
25.501911163330078 4.886070728302002 0.3954889178276062
25.462810516357422 4.933381080627441 0.39503759145736694
25.456523895263672 4.988609313964844 0.39510098099708557
25.418716430664062 5.035996913909912 0.3955957293510437
25.411388397216797 5.0893707275390625 0.3948960304260254
25.382787704467773 5.140066623687744 0.39461320638656616
25.365467071533203 5.191378116607666 0.3945188522338867
25.333045959472656 5.239540100097656 0.39417681097984314
25.328357696533203 5.295017242431641 0.3942776024341583
25.30498695373535 5.344963073730469 0.39408451318740845
25.260120391845703 5.446712970733643 0.39215725660324097
25.26584243774414 5.502840995788574 0.39242494106292725
25.220409393310547 5.604301452636719 0.3920791745185852
25.18122673034668 5.650455474853516 0.391654372215271
25.138813018798828 5.80717134475708 0.3907207250595093
25.07988739013672 5.960649013519287 0.3896333575248718
24.913997650146484 6.364827632904053 0.3864338994026184
24.71550750732422 6.4807610511779785 0.38392311334609985
24.604576110839844 6.506275177001953 0.38165974617004395
24.25287628173828 6.522676467895508 0.376632958650589
24.105247497558594 6.536643981933594 0.3745468258857727
23.78539276123047 6.55756950378418 0.3691982328891754
23.61713409423828 6.563946723937988 0.3667939305305481
23.311473846435547 6.58487606048584 0.36178648471832275
23.15204620361328 6.591751575469971 0.3595244884490967
22.989471435546875 6.597780227661133 0.3572100102901459
22.848392486572266 6.6094465255737305 0.3544631600379944
22.701311111450195 6.617982864379883 0.35239043831825256
22.548900604248047 6.625847816467285 0.3502463698387146
22.387495040893555 6.628920555114746 0.3479471802711487
22.261022567749023 6.641748428344727 0.3455357551574707
22.102813720703125 6.645998954772949 0.34330007433891296
21.95692253112793 6.651846408843994 0.3412480354309082
21.822010040283203 6.660447120666504 0.33871400356292725
21.697296142578125 6.673083782196045 0.3369959592819214
21.54092788696289 6.673954010009766 0.33477914333343506
21.405675888061523 6.681436061859131 0.33225512504577637
21.28121566772461 6.691844940185547 0.33053892850875854
21.146198272705078 6.6976423263549805 0.32865720987319946
21.010360717773438 6.703284740447998 0.3267677426338196
20.876968383789062 6.709239959716797 0.3241971433162689
20.763399124145508 6.72031307220459 0.3226465880870819
20.63909339904785 6.728821754455566 0.3209410309791565
20.516386032104492 6.735949993133545 0.31863105297088623
20.38619613647461 6.740748405456543 0.316830039024353
20.258132934570312 6.7458038330078125 0.3150591552257538
20.15088653564453 6.756577491760254 0.31360748410224915
20.026153564453125 6.761652946472168 0.3112000823020935
19.919906616210938 6.772585868835449 0.3097686171531677
19.791759490966797 6.774868488311768 0.3073962330818176
19.55584716796875 6.7862548828125 0.30417388677597046
19.44710922241211 6.793770790100098 0.3026980459690094
19.218135833740234 6.804726600646973 0.29891836643218994
19.10199737548828 6.808249473571777 0.29732662439346313
18.883094787597656 6.8199896812438965 0.2937908172607422
18.77617645263672 6.826059341430664 0.29234904050827026
18.564746856689453 6.837247848510742 0.2894973158836365
18.449737548828125 6.83900260925293 0.2873682379722595
17.62814712524414 6.873130798339844 0.2751721441745758
17.34627342224121 6.889165878295898 0.2708309292793274
17.050106048583984 6.895948886871338 0.26635921001434326
16.88620376586914 6.912548065185547 0.26365602016448975
16.799049377441406 6.918249607086182 0.2625201344490051
16.69826889038086 6.917309284210205 0.26065438985824585
16.60922622680664 6.921393871307373 0.2589073181152344
16.520442962646484 6.925300598144531 0.25775042176246643
16.435197830200195 6.92970085144043 0.2566435933113098
16.339643478393555 6.929931640625 0.25537729263305664
16.26782989501953 6.939966678619385 0.2544843554496765
16.18307113647461 6.943538665771484 0.25338268280029297
16.099267959594727 6.948342323303223 0.2512279152870178
15.995138168334961 6.942812442779541 0.2498290091753006
15.926753997802734 6.952981472015381 0.24898947775363922
15.84015941619873 6.954966068267822 0.24786505103111267
15.763469696044922 6.960348606109619 0.2468857318162918
15.690423965454102 6.967574119567871 0.24597015976905823
15.605952262878418 6.969480514526367 0.2438354790210724
15.526634216308594 6.972740650177002 0.24282081425189972
15.44642162322998 6.975801467895508 0.2417985200881958
