VERSION .7
FIELDS x y z
SIZE 4 4 4
TYPE F F F
COUNT 1 1 1
WIDTH 821
HEIGHT 1
VIEWPOINT 0 0 0 1 0 0 0
POINTS 821
DATA ascii
20.579397201538086 -10.498738288879395 -0.20152294635772705
20.63671112060547 -10.473688125610352 -0.20220431685447693
20.72951316833496 -10.465535163879395 -0.20397673547267914
20.817007064819336 -10.455175399780273 -0.2042873203754425
20.89969253540039 -10.44123363494873 -0.20270387828350067
20.995574951171875 -10.434747695922852 -0.20341981947422028
21.07683753967285 -10.420268058776855 -0.20433831214904785
21.16262435913086 -10.406862258911133 -0.2049557864665985
21.266576766967773 -10.402851104736328 -0.20575128495693207
21.358840942382812 -10.393108367919922 -0.20754191279411316
21.44438934326172 -10.378522872924805 -0.20815865695476532
21.540815353393555 -10.369688034057617 -0.2092331349849701
21.62042236328125 -10.35156536102295 -0.20979014039039612
21.719823837280273 -10.343807220458984 -0.2105449140071869
21.797895431518555 -10.32516098022461 -0.21221156418323517
21.902257919311523 -10.317755699157715 -0.21302178502082825
22.000181198120117 -10.30815315246582 -0.21411408483982086
22.082237243652344 -10.289129257202148 -0.2146962732076645
22.170879364013672 -10.274486541748047 -0.2164887636899948
22.270858764648438 -10.2643404006958 -0.21725419163703918
22.360475540161133 -10.248178482055664 -0.21791277825832367
22.524459838867188 -10.15247917175293 -0.21922050416469574
22.498315811157227 -10.084573745727539 -0.21988388895988464
22.493925094604492 -10.026202201843262 -0.2196187973022461
22.468461990356445 -9.957770347595215 -0.21913856267929077
22.48094367980957 -9.907537460327148 -0.2194053828716278
22.434642791748047 -9.77450942993164 -0.21513214707374573
22.439332962036133 -9.66431713104248 -0.21513161063194275
22.418724060058594 -9.600337028503418 -0.21473084390163422
22.335031509399414 -9.453386306762695 -0.21465465426445007
22.25510025024414 -9.309234619140625 -0.21387207508087158
22.245227813720703 -9.250910758972168 -0.2135947197675705
22.14220428466797 -9.098880767822266 -0.21332749724388123
22.109420776367188 -8.976761817932129 -0.21265125274658203
22.095590591430664 -8.917779922485352 -0.2127019315958023
21.945331573486328 -8.749841690063477 -0.21197381615638733
21.892793655395508 -8.67628288269043 -0.21128948032855988
21.866180419921875 -8.612890243530273 -0.2108575850725174
21.79583168029785 -8.479704856872559 -0.210191547870636
21.746721267700195 -8.407155990600586 -0.2095482051372528
21.72005844116211 -8.34507942199707 -0.21018743515014648
21.707914352416992 -8.28875732421875 -0.21025821566581726
21.612478256225586 -8.148193359375 -0.20160029828548431
21.56637191772461 -8.079360008239746 -0.2010122537612915
21.508235931396484 -8.005600929260254 -0.20171251893043518
21.49886703491211 -7.951357841491699 -0.20146949589252472
21.47075653076172 -7.888861656188965 -0.20104767382144928
21.405963897705078 -7.8146748542785645 -0.20028868317604065
21.25320053100586 -7.557748317718506 -0.19963683187961578
21.19857406616211 -7.48771333694458 -0.19897407293319702
21.133211135864258 -7.415335655212402 -0.19821572303771973
21.067522048950195 -7.34177827835083 -0.19745205342769623
20.962141036987305 -7.25630521774292 -0.1973363310098648
20.905927658081055 -7.18829870223999 -0.19700564444065094
20.8708438873291 -7.126415252685547 -0.19653110206127167
20.850299835205078 -7.071122646331787 -0.19619907438755035
19.825450897216797 -6.6305928230285645 -0.1862909346818924
19.79377555847168 -6.5743608474731445 -0.18586470186710358
19.750574111938477 -6.5131988525390625 -0.18659740686416626
18.197113037109375 -5.95906925201416 -0.1718035787343979
18.193288803100586 -5.916040897369385 -0.17192482948303223
18.17751693725586 -5.868004322052002 -0.1654101312160492
18.164241790771484 -5.822124481201172 -0.16606923937797546
18.168941497802734 -5.782081127166748 -0.1662743091583252
18.141450881958008 -5.730681896209717 -0.16590945422649384
18.17433738708496 -5.699619293212891 -0.16610977053642273
18.143789291381836 -5.647495746612549 -0.16573281586170197
18.136863708496094 -5.6040825843811035 -0.16554059088230133
18.269752502441406 -5.6036376953125 -0.16753844916820526
18.362197875976562 -5.589104175567627 -0.16827742755413055
18.151264190673828 -5.483768939971924 -0.16654711961746216
19.563201904296875 -5.73097038269043 -0.1789390593767166
19.367874145507812 -5.630134582519531 -0.17793771624565125
19.33579444885254 -5.577319145202637 -0.1778097152709961
19.336318969726562 -5.532754421234131 -0.17770588397979736
19.296829223632812 -5.478157997131348 -0.17723515629768372
18.41739845275879 -5.187221050262451 -0.1691577285528183
18.37212371826172 -5.132135391235352 -0.1686541587114334
18.401569366455078 -5.099216938018799 -0.16883309185504913
18.400888442993164 -5.056726455688477 -0.16962817311286926
18.43855857849121 -5.025949478149414 -0.17015673220157623
18.442867279052734 -4.986030101776123 -0.17038123309612274
18.35641860961914 -4.920603275299072 -0.16678579151630402
18.406301498413086 -4.893056392669678 -0.16712087392807007
18.507986068725586 -4.878988265991211 -0.16795073449611664
18.125274658203125 -4.736712455749512 -0.16561244428157806
18.107751846313477 -4.692011833190918 -0.16532321274280548
18.403106689453125 -4.7266130447387695 -0.16789622604846954
18.966819763183594 -4.787572383880615 -0.17274591326713562
19.048152923583984 -4.764841556549072 -0.1733776330947876
18.05117416381836 -4.395056247711182 -0.16534902155399323
18.040464401245117 -4.35281229019165 -0.16516581177711487
18.03526496887207 -4.3108086585998535 -0.16503845155239105
18.023101806640625 -4.2683820724487305 -0.16484616696834564
18.029254913330078 -4.230345726013184 -0.16482692956924438
18.070541381835938 -4.1993255615234375 -0.16513755917549133
18.100791931152344 -4.166783332824707 -0.16561520099639893
19.233795166015625 -4.2573370933532715 -0.1766049563884735
19.360553741455078 -4.2432684898376465 -0.1777738332748413
19.337860107421875 -4.196256160736084 -0.17778441309928894
19.30426597595215 -4.145806312561035 -0.17738933861255646
19.295705795288086 -4.102097511291504 -0.17753133177757263
19.26604461669922 -4.054022312164307 -0.17717722058296204
19.26659393310547 -4.011176586151123 -0.17709773778915405
19.231815338134766 -3.9623146057128906 -0.1767040193080902
19.181148529052734 -3.867739200592041 -0.17608101665973663
19.160625457763672 -3.8222391605377197 -0.17581579089164734
19.149473190307617 -3.7774972915649414 -0.17654046416282654
19.11972427368164 -3.730424404144287 -0.17648394405841827
19.113445281982422 -3.6457080841064453 -0.1762693226337433
19.075923919677734 -3.597540855407715 -0.1758544147014618
19.057973861694336 -3.5520126819610596 -0.17561709880828857
19.020421981811523 -3.5041871070861816 -0.1752038151025772
18.995054244995117 -3.458772897720337 -0.17490583658218384
18.969505310058594 -3.4122700691223145 -0.17489029467105865
18.928504943847656 -3.364358425140381 -0.17532558739185333
18.87777328491211 -3.273388385772705 -0.17472174763679504
18.85512351989746 -3.229170799255371 -0.17444637417793274
18.842634201049805 -3.185901641845703 -0.17426306009292603
18.824325561523438 -3.142352342605591 -0.17403078079223633
18.800884246826172 -3.0983502864837646 -0.17375770211219788
18.787992477416992 -3.0550146102905273 -0.1762128621339798
18.770004272460938 -3.0121219158172607 -0.17598368227481842
18.725143432617188 -2.9650769233703613 -0.17550799250602722
18.72515869140625 -2.924089193344116 -0.17544659972190857
18.70660972595215 -2.881438970565796 -0.17521515488624573
18.696014404296875 -2.8392162322998047 -0.1759306937456131
18.67565155029297 -2.7962045669555664 -0.1759619563817978
18.634357452392578 -2.7098355293273926 -0.1754666566848755
18.60378646850586 -2.625713586807251 -0.17506958544254303
18.60080337524414 -2.5856542587280273 -0.17498630285263062
18.57741928100586 -2.543118476867676 -0.1747189462184906
18.57175064086914 -2.5019373893737793 -0.1746106743812561
18.538433074951172 -2.4582901000976562 -0.1753937304019928
18.536518096923828 -2.4189040660858154 -0.17532368004322052
18.528074264526367 -2.377559185028076 -0.1751938909292221
18.500507354736328 -2.335007667541504 -0.17488880455493927
18.499515533447266 -2.2950210571289062 -0.1748300939798355
18.468875885009766 -2.252037525177002 -0.17449592053890228
18.446121215820312 -2.2104241847991943 -0.17423996329307556
18.42770767211914 -2.168571949005127 -0.17402197420597076
18.418210983276367 -2.1284379959106445 -0.17388875782489777
18.394046783447266 -2.0869739055633545 -0.1733439862728119
18.364784240722656 -2.043926954269409 -0.17730557918548584
18.351543426513672 -2.0039074420928955 -0.17741069197654724
18.303829193115234 -1.8823341131210327 -0.17683088779449463
18.27168083190918 -1.801297664642334 -0.1772945076227188
18.251937866210938 -1.7611145973205566 -0.1770670861005783
18.219905853271484 -1.6806087493896484 -0.17668482661247253
18.17185401916504 -1.5990254878997803 -0.17642131447792053
18.148839950561523 -1.5590531826019287 -0.176165372133255
18.130359649658203 -1.4805747270584106 -0.17592312395572662
18.112403869628906 -1.4412773847579956 -0.17572039365768433
18.09885597229004 -1.4012978076934814 -0.1755579710006714
18.081722259521484 -1.3622291088104248 -0.17620491981506348
18.058435440063477 -1.321951985359192 -0.17594969272613525
18.035058975219727 -1.2823530435562134 -0.17569732666015625
18.01775550842285 -1.2435487508773804 -0.17550140619277954
17.99984359741211 -1.203949213027954 -0.17530235648155212
17.985416412353516 -1.1652334928512573 -0.17540127038955688
17.98761749267578 -1.1278965473175049 -0.17486989498138428
17.949024200439453 -1.0869877338409424 -0.17863857746124268
17.937469482421875 -1.048932433128357 -0.1785016655921936
17.931182861328125 -1.01039719581604 -0.17841772735118866
17.901809692382812 -0.9712152481079102 -0.17893576622009277
17.886615753173828 -0.9331676363945007 -0.17876465618610382
17.862049102783203 -0.8938919901847839 -0.1784990131855011
17.847192764282227 -0.8557603359222412 -0.17833277583122253
17.82851791381836 -0.8169577717781067 -0.1781282275915146
17.818084716796875 -0.7794293761253357 -0.17800737917423248
17.805688858032227 -0.7416075468063354 -0.17786793410778046
17.794635772705078 -0.7033328413963318 -0.17800366878509521
17.784069061279297 -0.6656936407089233 -0.17788366973400116
17.74427604675293 -0.5896428823471069 -0.17745918035507202
17.732532501220703 -0.5521553754806519 -0.1773298680782318
17.72063446044922 -0.5149778127670288 -0.1771998107433319
17.689634323120117 -0.4762580990791321 -0.17687909305095673
17.68173599243164 -0.43932780623435974 -0.17761102318763733
17.663297653198242 -0.4013749361038208 -0.17741665244102478
17.649919509887695 -0.3641674518585205 -0.1772744059562683
17.653776168823242 -0.3275979161262512 -0.17730608582496643
17.64056396484375 -0.2899159789085388 -0.17716637253761292
17.623767852783203 -0.2527996301651001 -0.17647473514080048
17.604965209960938 -0.21598972380161285 -0.17628253996372223
17.567180633544922 -0.17825180292129517 -0.18241477012634277
17.561553955078125 -0.141490176320076 -0.18261297047138214
17.529077529907227 -0.0674034059047699 -0.1830822378396988
17.48711585998535 -0.030952569097280502 -0.1826455295085907
21.258960723876953 0.006487721111625433 -0.03960103914141655
21.224166870117188 0.05052148923277855 -0.03953659534454346
21.18089485168457 0.09535600990056992 -0.03976631164550781
21.15191650390625 0.1394311487674713 -0.0397123247385025
21.111351013183594 0.18297646939754486 -0.039636675268411636
21.098712921142578 0.22763361036777496 -0.03961371257901192
21.065059661865234 0.27129966020584106 -0.03955131769180298
20.793811798095703 0.6169896125793457 -0.04713025689125061
20.690536499023438 0.7011500597000122 -0.046898458153009415
20.631933212280273 0.7420316934585571 -0.04677101969718933
20.544986724853516 0.8255537748336792 -0.046582624316215515
20.497386932373047 0.8662493824958801 -0.04647866263985634
20.43551254272461 0.949866771697998 -0.04664672538638115
20.408935546875 0.9920284152030945 -0.04659063369035721
20.355730056762695 1.0320876836776733 -0.04741615056991577
20.34510040283203 1.0738818645477295 -0.04740077257156372
20.295242309570312 1.1144328117370605 -0.04728987067937851
20.254302978515625 1.1546459197998047 -0.047197047621011734
20.230979919433594 1.1963826417922974 -0.047152601182460785
20.19772720336914 1.2364821434020996 -0.04708008095622063
20.151338577270508 1.275918960571289 -0.04697597399353981
20.12777328491211 1.3173061609268188 -0.04633403569459915
20.099775314331055 1.3573691844940186 -0.049080513417720795
20.068050384521484 1.397363543510437 -0.04901428520679474
20.04738426208496 1.438668966293335 -0.04896692559123039
20.007558822631836 1.477845549583435 -0.04887925833463669
19.99126625061035 1.5183607339859009 -0.048848956823349
19.954248428344727 1.55813467502594 -0.04876413941383362
19.922658920288086 1.5975642204284668 -0.04869898408651352
19.899566650390625 1.6382097005844116 -0.04864906519651413
19.843156814575195 1.6753233671188354 -0.048514869064092636
19.82310676574707 1.715067982673645 -0.0484786257147789
19.79150390625 1.7546448707580566 -0.04840592294931412
19.757205963134766 1.7932261228561401 -0.04832667112350464
19.72799301147461 1.8318591117858887 -0.0482669360935688
19.72277069091797 1.873586654663086 -0.04826441407203674
19.671894073486328 1.910244345664978 -0.048150740563869476
19.642536163330078 1.9494682550430298 -0.04809052497148514
19.61923599243164 1.988278865814209 -0.04803896322846413
19.598363876342773 2.0275509357452393 -0.04800243303179741
19.556442260742188 2.065157413482666 -0.04790358990430832
19.533321380615234 2.1040024757385254 -0.04786398261785507
19.507638931274414 2.1421971321105957 -0.047809552401304245
19.494884490966797 2.182664394378662 -0.047790590673685074
19.461219787597656 2.2200865745544434 -0.04772072285413742
19.374069213867188 2.2925500869750977 -0.04694545269012451
19.351654052734375 2.3309171199798584 -0.046907179057598114
19.285465240478516 2.405097007751465 -0.046770963817834854
19.26273536682129 2.4431562423706055 -0.04672282189130783
19.203340530395508 2.5178418159484863 -0.04660598933696747
19.132713317871094 2.6310319900512695 -0.04648085683584213
19.05357551574707 2.7019572257995605 -0.04658885672688484
19.025182723999023 2.73821759223938 -0.04653353989124298
18.966930389404297 2.811415672302246 -0.04641931131482124
18.939311981201172 2.847500801086426 -0.046365778893232346
18.895278930664062 2.9223074913024902 -0.04629410430788994
18.85186004638672 2.956557273864746 -0.04619627818465233
18.796573638916016 3.0281548500061035 -0.04608894884586334
18.77578353881836 3.0656867027282715 -0.04605567455291748
18.737693786621094 3.099684715270996 -0.04597567766904831
18.73158836364746 3.1386241912841797 -0.04541787505149841
18.701770782470703 3.1744329929351807 -0.043604008853435516
18.67172622680664 3.209493637084961 -0.043549809604883194
18.637290954589844 3.2442970275878906 -0.04348031431436539
18.624576568603516 3.281919002532959 -0.04347085952758789
18.585987091064453 3.31518292427063 -0.04339461028575897
18.57689666748047 3.3542420864105225 -0.04339202120900154
18.518508911132812 3.383678913116455 -0.04326742887496948
18.51668357849121 3.4230690002441406 -0.04328424111008644
18.461017608642578 3.4532976150512695 -0.04316381365060806
18.445457458496094 3.4903008937835693 -0.04314221441745758
18.43202781677246 3.5282797813415527 -0.04313267394900322
18.403038024902344 3.5626168251037598 -0.043082863092422485
18.38357162475586 3.5984435081481934 -0.04305383563041687
18.338350296020508 3.6300039291381836 -0.042958639562129974
18.333782196044922 3.668933868408203 -0.04297283664345741
18.313648223876953 3.7044475078582764 -0.04294905811548233
18.257789611816406 3.7334842681884766 -0.04282408207654953
18.257991790771484 3.77329683303833 -0.042846158146858215
18.22812271118164 3.8065834045410156 -0.042794179171323776
18.183807373046875 3.8376052379608154 -0.04270269349217415
18.132404327392578 3.8663580417633057 -0.04260048270225525
18.119775772094727 3.903872013092041 -0.041730400174856186
18.06972312927246 3.932624340057373 -0.04163224622607231
18.08048439025879 3.9742817878723145 -0.0416802242398262
18.02402687072754 4.001976013183594 -0.03815222904086113
18.02911376953125 4.042661666870117 -0.03818180412054062
17.941030502319336 4.102066516876221 -0.03806585446000099
17.80800437927246 4.110830307006836 -0.037796977907419205
17.62904167175293 4.147522449493408 -0.0374569371342659
17.50848388671875 4.157793998718262 -0.03722106292843819
17.309185028076172 4.187549591064453 -0.0368354469537735
17.186565399169922 4.195656776428223 -0.0365883894264698
16.974925994873047 4.219818115234375 -0.036174047738313675
16.778324127197266 4.24605131149292 -0.035792481154203415
16.682727813720703 4.2587151527404785 -0.03560524806380272
16.496925354003906 4.285367012023926 -0.03499193489551544
16.42125129699707 4.302105903625488 -0.03485714644193649
16.232912063598633 4.325901031494141 -0.0344926081597805
16.15354347229004 4.340672492980957 -0.034345079213380814
15.966917037963867 4.362704753875732 -0.033987950533628464
15.867717742919922 4.371798992156982 -0.02921351045370102
15.781187057495117 4.383462905883789 -0.02907184138894081
15.686399459838867 4.392218112945557 -0.02891364134848118
15.619200706481934 4.4091596603393555 -0.028808865696191788
15.519232749938965 4.415977478027344 -0.028637664392590523
15.43824577331543 4.428359031677246 -0.028506077826023102
15.34781265258789 4.4369096755981445 -0.02835662290453911
15.262622833251953 4.446865558624268 -0.0282154381275177
15.178498268127441 4.457313537597656 -0.028080344200134277
15.102682113647461 4.469113349914551 -0.027956347912549973
15.038690567016602 4.484378814697266 -0.02785785123705864
14.96321964263916 4.49646520614624 -0.02773408405482769
14.864344596862793 4.500643730163574 -0.027567192912101746
14.814464569091797 4.519123077392578 -0.027493532747030258
14.702178955078125 4.518988132476807 -0.027303963899612427
14.631020545959473 4.53060245513916 -0.027188092470169067
14.549957275390625 4.539351940155029 -0.02634856104850769
14.494647026062012 4.555356979370117 -0.026266036555171013
14.402935028076172 4.559396266937256 -0.02611643448472023
14.331912994384766 4.570390701293945 -0.026005610823631287
14.26711654663086 4.582596778869629 -0.025906909257173538
14.190218925476074 4.590404033660889 -0.025783780962228775
14.12229061126709 4.601550579071045 -0.025462843477725983
14.051380157470703 4.610949516296387 -0.025567559525370598
13.965240478515625 4.614806175231934 -0.0220129806548357
13.917814254760742 4.631910800933838 -0.02195468172430992
13.836772918701172 4.637080669403076 -0.021841038018465042
13.776530265808105 4.649426460266113 -0.021761829033493996
13.71063232421875 4.659124851226807 -0.02167365700006485
13.641077995300293 4.667088031768799 -0.020908735692501068
13.50600814819336 4.684505462646484 -0.020731814205646515
13.445341110229492 4.69474458694458 -0.020654240623116493
13.302385330200195 4.707773685455322 -0.020258797332644463
13.184713363647461 4.728703498840332 -0.020110279321670532
13.126970291137695 4.738761901855469 -0.020036820322275162
13.001188278198242 4.755338191986084 -0.019875843077898026
12.922959327697754 4.75715446472168 -0.019770989194512367
12.817380905151367 4.779679298400879 -0.01964036375284195
12.684152603149414 4.7909393310546875 -0.019466940313577652
12.630115509033203 4.800501823425293 -0.018771294504404068
12.518303871154785 4.818437099456787 -0.01883017085492611
12.443622589111328 4.819364070892334 -0.017492147162556648
12.391453742980957 4.829418659210205 -0.017433002591133118
12.336463928222656 4.83770751953125 -0.01717713102698326
12.279397964477539 4.844753742218018 -0.017111584544181824
12.221212387084961 4.851993560791016 -0.017044756561517715
12.176482200622559 4.863511085510254 -0.016996225342154503
12.103792190551758 4.8642802238464355 -0.016909226775169373
12.04836654663086 4.871274471282959 -0.016846101731061935
11.984461784362793 4.874396800994873 -0.0167708657681942
11.947770118713379 4.889041900634766 -0.01673390343785286
11.882953643798828 4.891534805297852 -0.016657745465636253
11.830522537231445 4.898686408996582 -0.016002953052520752
11.789071083068848 4.9108500480651855 -0.015960250049829483
11.727738380432129 4.91408634185791 -0.015891170129179955
11.654080390930176 4.91231632232666 -0.01580582931637764
11.616596221923828 4.925130367279053 -0.01576862670481205
11.560620307922363 4.9297261238098145 -0.015706654638051987
11.525498390197754 4.943675994873047 -0.015491068363189697
11.457741737365723 4.942986965179443 -0.015414061024785042
11.410486221313477 4.950712203979492 -0.015364008024334908
11.371358871459961 4.962626934051514 -0.015325321815907955
11.327800750732422 4.971627235412598 -0.01528042834252119
11.26888370513916 4.974310874938965 -0.015215246938169003
11.21841812133789 4.980071067810059 -0.014767516404390335
11.173933029174805 4.988106727600098 -0.01586161181330681
11.132402420043945 4.997921466827393 -0.01581764593720436
11.066954612731934 4.996351718902588 -0.015739377588033676
11.027830123901367 5.006263732910156 -0.015134941786527634
10.961915969848633 5.004419803619385 -0.015059259720146656
10.945169448852539 5.024440288543701 -0.015050641261041164
10.878900527954102 5.021378040313721 -0.014973461627960205
10.845590591430664 5.034135818481445 -0.014769228175282478
10.786151885986328 5.033778190612793 -0.014702502638101578
10.691876411437988 5.04472541809082 -0.014602839946746826
10.646398544311523 5.050304889678955 -0.014555130153894424
10.553351402282715 5.060722351074219 -0.014457013458013535
10.517699241638184 5.070497512817383 -0.013878796249628067
10.407123565673828 5.071315288543701 -0.013761389069259167
10.326623916625977 5.086015701293945 -0.01351606659591198
10.279073715209961 5.089129447937012 -0.013467867858707905
10.20969009399414 5.108426570892334 -0.0134045435115695
10.162591934204102 5.111257553100586 -0.013356410898268223
10.124015808105469 5.118983268737793 -0.013484469614923
10.076150894165039 5.121064186096191 -0.013961214572191238
10.04997444152832 5.134621620178223 -0.013939733617007732
9.998041152954102 5.134462356567383 -0.01388262677937746
9.958080291748047 5.1400837898254395 -0.013679715804755688
9.912598609924316 5.143272399902344 -0.013632197864353657
9.87539291381836 5.150187969207764 -0.013595801778137684
9.832230567932129 5.153659820556641 -0.013551073148846626
9.79391860961914 5.160277843475342 -0.013513431884348392
9.764591217041016 5.170742988586426 -0.013487744145095348
9.723440170288086 5.174816131591797 -0.01293280627578497
9.673876762390137 5.174988269805908 -0.01288151927292347
9.646561622619629 5.186152458190918 -0.012859689071774483
9.593191146850586 5.1837263107299805 -0.012645190581679344
9.558073043823242 5.190584659576416 -0.012613169848918915
9.520645141601562 5.195871829986572 -0.012577980756759644
9.49409294128418 5.207555294036865 -0.012557471171021461
9.446020126342773 5.2068939208984375 -0.012508250772953033
9.41446304321289 5.215575218200684 -0.011979948729276657
9.35671615600586 5.209166049957275 -0.011920493096113205
9.340044975280762 5.225303649902344 -0.011912833899259567
9.294851303100586 5.225944995880127 -0.01171499490737915
9.268665313720703 5.236743927001953 -0.011695757508277893
9.206889152526855 5.22707462310791 -0.011631466448307037
9.18516731262207 5.240543365478516 -0.011618044227361679
9.143795013427734 5.242297649383545 -0.011579547077417374
9.12031364440918 5.254012107849121 -0.011563591659069061
9.069918632507324 5.250818252563477 -0.011513892561197281
9.047392845153809 5.262875556945801 -0.011499137617647648
8.996856689453125 5.259057998657227 -0.011449061334133148
8.96048355102539 5.262948989868164 -0.011416744440793991
8.92819881439209 5.268937110900879 -0.011389516294002533
8.887777328491211 5.270540237426758 -0.01072151493281126
8.85422420501709 5.2756829261779785 -0.01069431472569704
8.812769889831543 5.27579402923584 -0.010657445527613163
8.780370712280273 5.281909942626953 -0.010631885379552841
8.746427536010742 5.286240577697754 -0.01060404535382986
8.701554298400879 5.283804893493652 -0.010562911629676819
8.690643310546875 5.302622318267822 -0.010563394986093044
8.647576332092285 5.3010029792785645 -0.009905312210321426
8.577817916870117 5.308069229125977 -0.009850926697254181
8.546643257141113 5.3133368492126465 -0.009827766567468643
8.469806671142578 5.315154552459717 -0.00976506620645523
8.44305419921875 5.322819232940674 -0.009746936149895191
8.411989212036133 5.328380584716797 -0.009116429835557938
8.391890525817871 5.340084075927734 -0.009106638841331005
8.326571464538574 5.347918510437012 -0.010905003175139427
8.288840293884277 5.348013877868652 -0.010726328939199448
8.256839752197266 5.352381706237793 -0.010699588805437088
8.226744651794434 5.357152462005615 -0.010675237514078617
8.192869186401367 5.359337329864502 -0.010645871050655842
8.156952857971191 5.360759258270264 -0.010158704593777657
8.124372482299805 5.363521575927734 -0.010131791234016418
8.102334976196289 5.373691082000732 -0.010118468664586544
8.064407348632812 5.372834205627441 -0.009945262223482132
8.04538345336914 5.384300231933594 -0.009935825131833553
8.000375747680664 5.378792762756348 -0.009893659502267838
7.985097885131836 5.392782688140869 -0.009889524430036545
7.933084011077881 5.381659984588623 -0.00939201284199953
7.924239158630371 5.40041446685791 -0.009395169094204903
7.873910427093506 5.390077590942383 -0.009210590273141861
7.862199306488037 5.4060564041137695 -0.009210935793817043
7.8163862228393555 5.39918327331543 -0.009170034900307655
7.802272796630859 5.41338586807251 -0.0091667165979743
7.753985404968262 5.404291152954102 -0.008683310821652412
7.741069316864014 5.419358730316162 -0.00868187565356493
7.708136081695557 5.420172214508057 -0.008658099919557571
7.688392639160156 5.430704593658447 -0.008512243628501892
7.64719820022583 5.425595760345459 -0.008478866890072823
7.6292219161987305 5.437213897705078 -0.008336636237800121
7.595438003540039 5.437105178833008 -0.009618655778467655
7.558545112609863 5.434454917907715 -0.009584253653883934
7.535597801208496 5.4422478675842285 -0.00957352016121149
7.505664825439453 5.444530963897705 -0.009410773403942585
7.476630210876465 5.4471845626831055 -0.008960752747952938
7.44757604598999 5.450409412384033 -0.008937126025557518
7.420159339904785 5.454026222229004 -0.008918575942516327
7.389764308929443 5.455341815948486 -0.008895112201571465
7.358660697937012 5.456705093383789 -0.008872807025909424
7.344995975494385 5.470232963562012 -0.00873930286616087
7.307437896728516 5.466403484344482 -0.008281982503831387
7.284808158874512 5.4732537269592285 -0.00827043503522873
7.248968124389648 5.469897747039795 -0.008241228759288788
7.236278533935547 5.484457015991211 -0.0082404725253582
7.189011573791504 5.472322463989258 -0.008197917602956295
7.1690897941589355 5.4806928634643555 -0.008056438528001308
7.136994361877441 5.480352401733398 -0.007617277558892965
7.11715841293335 5.4886369705200195 -0.007607904262840748
7.094606399536133 5.4947614669799805 -0.007597270887345076
7.057220458984375 5.489964485168457 -0.007568438537418842
7.037277698516846 5.497929573059082 -0.007559508550912142
6.986403942108154 5.505722522735596 -0.006986797787249088
6.9643707275390625 5.5118255615234375 -0.006720898672938347
6.924267768859863 5.527671813964844 -0.007941306568682194
6.864842414855957 5.5277276039123535 -0.0074891503900289536
6.825153350830078 5.5191545486450195 -0.0074600218795239925
6.776704788208008 5.527340888977051 -0.007304405327886343
6.75277042388916 5.531194686889648 -0.0068832882679998875
6.724714756011963 5.532259941101074 -0.006869083270430565
6.706206321716309 5.540408611297607 -0.006860610097646713
6.690567970275879 5.550890922546387 -0.0068596284836530685
6.662725925445557 5.551864147186279 -0.006716402247548103
6.6332292556762695 5.550648212432861 -0.0062947701662778854
6.6065673828125 5.552213668823242 -0.006279229186475277
6.578927516937256 5.552483081817627 -0.00626675458624959
6.547397613525391 5.5491790771484375 -0.0062449099496006966
6.527111053466797 5.555825233459473 -0.00571372639387846
6.512938499450684 5.56727409362793 -0.0057127820327878
6.4770002365112305 5.559857368469238 -0.005689956247806549
6.459959030151367 5.569242000579834 -0.00568391801789403
6.425836086273193 5.563111782073975 -0.005666707176715136
6.413454055786133 5.575718402862549 -0.005149870179593563
6.38554573059082 5.575451850891113 -0.0051328521221876144
6.365087509155273 5.580909729003906 -0.004883528221398592
6.330386161804199 5.574285507202148 -0.0036835132632404566
6.321521282196045 5.589975357055664 -0.0036898874677717686
6.2824835777282715 5.578729629516602 -0.0035495811607688665
6.277751922607422 5.598396301269531 -0.0035556775983422995
6.251560211181641 5.598535537719727 -0.0031572759617120028
6.229623317718506 5.60275411605835 -0.003153739497065544
6.197790145874023 5.59759521484375 -0.0031388949137181044
6.17529296875 5.600587844848633 -0.003134888131171465
6.158627510070801 5.609335899353027 -0.0030148946680128574
6.128367900848389 5.60524845123291 -0.002614361932501197
6.106126308441162 5.608221530914307 -0.002609405666589737
6.0891571044921875 5.616664409637451 -0.002610238268971443
6.048827171325684 5.602741241455078 -0.002474486827850342
6.037664413452148 5.615725040435791 -0.002092305338010192
6.017271041870117 5.620779991149902 -0.002091161673888564
6.002802848815918 5.630635738372803 -0.0020915104541927576
5.947212219238281 5.625761985778809 -0.001579125295393169
5.931763648986816 5.634519100189209 -0.0015810250770300627
5.876294136047363 5.629095554351807 -0.001571414526551962
5.867009162902832 5.643595218658447 -0.001570190186612308
5.830117702484131 5.632137298583984 -0.0010667538736015558
5.819427490234375 5.645203590393066 -0.0008378421189263463
5.791179656982422 5.64117431640625 0.0006720484816469252
5.769290924072266 5.643922328948975 0.0006729224696755409
5.751705646514893 5.650125026702881 0.0006701169768348336
5.734536647796631 5.656691551208496 0.0006689995061606169
5.706042289733887 5.652684211730957 0.0011588435154408216
5.68186092376709 5.652139663696289 0.0011589491041377187
5.647246837615967 5.665224552154541 0.0011541997082531452
5.620812892913818 5.662158012390137 0.001523932907730341
5.598146915435791 5.663471221923828 0.0016346473712474108
5.584805011749268 5.673473834991455 0.0016331381630152464
5.56400728225708 5.676388263702393 0.0016323755262419581
5.529933452606201 5.665258407592773 0.001994671067222953
5.525293827056885 5.684055328369141 0.002109925262629986
5.49686861038208 5.6790361404418945 0.0021038330160081387
5.487200736999512 5.69264030456543 0.0021059666760265827
5.4490227699279785 5.6765618324279785 0.0024610450491309166
5.4417805671691895 5.693312644958496 0.0024623428471386433
5.4170098304748535 5.690993785858154 0.002570824231952429
5.393631458282471 5.690030097961426 0.0025678540114313364
5.369533538818359 5.688899517059326 0.0029243784956634045
5.363131999969482 5.705792427062988 0.002926657209172845
5.33442497253418 5.699435234069824 0.002920508850365877
5.308627605438232 5.695681571960449 0.00313749723136425
5.296895503997803 5.70679235458374 0.004586291965097189
5.279937267303467 5.712949752807617 0.00469597615301609
5.255484104156494 5.710218906402588 0.0046861134469509125
5.236901760101318 5.713779449462891 0.005037494003772736
5.216372489929199 5.715846538543701 0.005030155181884766
5.207396030426025 5.729846477508545 0.005034121219068766
5.172776699066162 5.71553897857666 0.005125768948346376
5.153212547302246 5.718428134918213 0.005474606063216925
5.138213634490967 5.7256317138671875 0.005470793694257736
5.120182991027832 5.729952335357666 0.005465318448841572
5.0994553565979 5.730812072753906 0.005566708743572235
5.090407848358154 5.7446064949035645 0.005924772471189499
5.051284313201904 5.725046157836914 0.005896377377212048
5.042004585266113 5.738489151000977 0.005900166928768158
5.019658088684082 5.737563133239746 0.005886484868824482
5.006000995635986 5.746138095855713 0.006348776631057262
4.9832353591918945 5.7440290451049805 0.006336622405797243
4.962616443634033 5.745010852813721 0.006325976923108101
4.943024158477783 5.746392726898193 0.00631633959710598
4.924936294555664 5.749454975128174 0.006771178916096687
4.906157970428467 5.752359390258789 0.006761132273823023
4.887932777404785 5.755136966705322 0.0067534372210502625
4.870077610015869 5.7582902908325195 0.0067434776574373245
4.850594520568848 5.760165691375732 0.007192937657237053
4.826364517211914 5.755590438842773 0.007875234819948673
4.812225341796875 5.762977600097656 0.008330595679581165
4.7928056716918945 5.764708042144775 0.008318250067532063
4.785999298095703 5.780881881713867 0.008326338604092598
4.752618312835693 5.765592575073242 0.008289533667266369
4.750804424285889 5.787821292877197 0.008763512596487999
4.7261481285095215 5.782208442687988 0.008740891702473164
4.710195541381836 5.7878804206848145 0.008735241368412971
4.681377410888672 5.776915550231934 0.008703310042619705
4.669981956481934 5.787364482879639 0.009157183580100536
4.649100303649902 5.786737442016602 0.00914155412465334
4.629779815673828 5.787245273590088 0.00912824459373951
4.610805511474609 5.78810977935791 0.009114227257668972
4.60379695892334 5.804713249206543 0.009575488045811653
4.577252388000488 5.7959089279174805 0.009546476416289806
4.563307285308838 5.8036980628967285 0.009543268010020256
4.538812637329102 5.797264099121094 0.009516855701804161
4.527895450592041 5.808111667633057 0.009968000464141369
4.496102809906006 5.792808532714844 0.009925879538059235
4.4889655113220215 5.808457851409912 0.009935961104929447
4.4703826904296875 5.810023307800293 0.009922425262629986
4.452043056488037 5.811098575592041 0.01035599410533905
4.427976608276367 5.804596900939941 0.010326582007110119
4.422292709350586 5.82289981842041 0.010341780260205269
4.3971734046936035 5.814838886260986 0.010993012227118015
4.3907623291015625 5.831475257873535 0.011347933672368526
4.364288330078125 5.822155952453613 0.011416004970669746
4.347381591796875 5.824748992919922 0.011403648182749748
4.327526569366455 5.8233184814453125 0.011382819153368473
4.31781530380249 5.836250305175781 0.011729268357157707
4.29823112487793 5.835067272186279 0.011812888085842133
4.281822204589844 5.838871002197266 0.01180247776210308
4.257382869720459 5.830880165100098 0.011767874471843243
4.23491907119751 5.825459003448486 0.012075752951204777
4.227639675140381 5.8416428565979 0.012193374335765839
4.21211051940918 5.8456878662109375 0.01218430232256651
4.1967267990112305 5.849895000457764 0.012174625881016254
4.168393611907959 5.836685657501221 0.01246405765414238
4.15320348739624 5.841006278991699 0.012557047419250011
4.141127586364746 5.8496904373168945 0.01255698874592781
4.126238822937012 5.855141639709473 0.012884154915809631
4.109206676483154 5.856746673583984 0.012971663847565651
4.082884788513184 5.845751762390137 0.012927799485623837
4.07905387878418 5.8661603927612305 0.012954413890838623
4.051652908325195 5.852629661560059 0.013237938284873962
4.043270111083984 5.867262840270996 0.013353430666029453
4.019401550292969 5.858609676361084 0.013314631767570972
4.00514030456543 5.864052772521973 0.013309022411704063
3.9923458099365234 5.87203311920166 0.01363825798034668
3.9712328910827637 5.867129802703857 0.013939008116722107
3.9465720653533936 5.857612609863281 0.013896496966481209
3.9458184242248535 5.8828020095825195 0.014038251712918282
3.9207372665405273 5.871711730957031 0.013992293737828732
3.9074466228485107 5.878963470458984 0.014319341629743576
3.8841185569763184 5.870253562927246 0.014379720203578472
3.8682446479797363 5.872708320617676 0.014365528710186481
3.8555245399475098 5.880706310272217 0.014364906586706638
3.844911813735962 5.891144752502441 0.014699424616992474
3.8078761100769043 5.888431549072266 0.014753203839063644
3.78802227973938 5.884474754333496 0.015050148591399193
3.774385452270508 5.890902519226074 0.015046227723360062
3.7525088787078857 5.883602142333984 0.015107513405382633
3.746757984161377 5.901561737060547 0.01513366587460041
3.724827766418457 5.894812107086182 0.015421554446220398
3.7119202613830566 5.9014692306518555 0.0155190359801054
3.691925048828125 5.896796226501465 0.015486273914575577
3.6873080730438232 5.917490005493164 0.015845298767089844
3.659022331237793 5.899335861206055 0.01577642746269703
3.627408504486084 5.903728485107422 0.01584676466882229
3.61860990524292 5.916901588439941 0.016086269170045853
3.5975213050842285 5.910750389099121 0.01572541333734989
3.5849761962890625 5.917756080627441 0.015823597088456154
3.5667104721069336 5.915460109710693 0.01579720340669155
3.5551376342773438 5.924659729003906 0.01612427644431591
3.527519941329956 5.9063825607299805 0.016153940930962563
3.5166709423065186 5.916893005371094 0.01616133563220501
3.504624366760254 5.9245829582214355 0.016483956947922707
3.4897360801696777 5.927450180053711 0.016471968963742256
3.471275806427002 5.925009727478027 0.0165424607694149
3.458754539489746 5.931825637817383 0.01654094271361828
3.445439338684082 5.9372711181640625 0.01685730367898941
3.426173448562622 5.933232307434082 0.01692352443933487
3.4020843505859375 5.9198503494262695 0.01686527207493782
3.3960518836975098 5.938039779663086 0.01721625030040741
3.3767471313476562 5.933465003967285 0.017279744148254395
3.3656535148620605 5.942625045776367 0.017286160960793495
3.3472940921783447 5.939763069152832 0.017575230449438095
3.3387556076049805 5.953463554382324 0.017692826688289642
3.316667079925537 5.9429497718811035 0.017641572281718254
3.299994468688965 5.942873477935791 0.017938021570444107
3.285698413848877 5.946168899536133 0.01792721636593342
3.273338794708252 5.952950477600098 0.01802453026175499
3.251688003540039 5.943612575531006 0.017975155264139175
3.2361299991607666 5.944438934326172 0.018176432698965073
3.2189221382141113 5.942363262176514 0.01783357560634613
3.211496591567993 5.958812236785889 0.017959551885724068
6.766643047332764 -11.876140594482422 0.05124318599700928
6.805345058441162 -11.886649131774902 0.050513070076704025
6.833576202392578 -11.878324508666992 0.05053798854351044
6.866541862487793 -11.877252578735352 0.05059541016817093
6.898629188537598 -11.875811576843262 0.04981211572885513
6.939197540283203 -11.888381958007812 0.049925416707992554
6.962889194488525 -11.871045112609863 0.04991486668586731
6.99424409866333 -11.867605209350586 0.04996180534362793
7.020263671875 -11.854183197021484 0.049768347293138504
7.0632147789001465 -11.870455741882324 0.04925595223903656
7.087834358215332 -11.855384826660156 0.049254607409238815
7.12675142288208 -11.863256454467773 0.04934786632657051
7.1540141105651855 -11.852848052978516 0.048522576689720154
7.187097549438477 -11.851608276367188 0.048579681664705276
7.2117719650268555 -11.835586547851562 0.0485767126083374
7.2567572593688965 -11.853981971740723 0.047865189611911774
7.2777323722839355 -11.831413269042969 0.047835979610681534
7.3135504722595215 -11.834539413452148 0.0479126013815403
7.383101940155029 -11.835335731506348 0.04718690738081932
7.4114155769348145 -11.82600212097168 0.047213442623615265
7.477128505706787 -11.819937705993652 0.04645923897624016
7.509536266326904 -11.816818237304688 0.046509239822626114
7.576327800750732 -11.811737060546875 0.045960355550050735
7.676656723022461 -11.804197311401367 0.04591421037912369
8.198263168334961 -11.777432441711426 0.0437488853931427
8.290714263916016 -11.751989364624023 0.0438467338681221
8.341200828552246 -11.771615028381348 0.04310326278209686
8.404961585998535 -11.756328582763672 0.04317675903439522
8.43684196472168 -11.749306678771973 0.042542167007923126
8.477399826049805 -11.752717018127441 0.042408742010593414
8.505841255187988 -11.740717887878418 0.042429886758327484
8.545084953308105 -11.743156433105469 0.04250388219952583
8.581869125366211 -11.741262435913086 0.041674789041280746
8.620133399963379 -11.742387771606445 0.045132510364055634
8.641596794128418 -11.719060897827148 0.044902339577674866
8.691733360290527 -11.735989570617676 0.044356636703014374
8.722085952758789 -11.726015090942383 0.04438726603984833
8.759976387023926 -11.724570274353027 0.04445267841219902
8.792989730834961 -11.717962265014648 0.043602459132671356
8.831247329711914 -11.718212127685547 0.043671492487192154
8.877872467041016 -11.727869033813477 0.04377799853682518
8.903692245483398 -11.711397171020508 0.04357186332345009
8.939976692199707 -11.708258628845215 0.042944274842739105
8.97225570678711 -11.69898796081543 0.04297994449734688
9.008100509643555 -11.695387840270996 0.04303545132279396
9.049612045288086 -11.69750690460205 0.04289967566728592
9.088083267211914 -11.696998596191406 0.04227767884731293
9.130219459533691 -11.701032638549805 0.0423608124256134
9.155389785766602 -11.68174934387207 0.04236171767115593
9.196328163146973 -11.683963775634766 0.041531164199113846
9.227537155151367 -11.673688888549805 0.04156259447336197
9.276861190795898 -11.6846923828125 0.04167238622903824
9.30626106262207 -11.671900749206543 0.0414792001247406
9.43234634399414 -11.678655624389648 0.04101457819342613
9.963692665100098 -11.619955062866211 0.041423581540584564
10.080533981323242 -11.607742309570312 0.04066786915063858
10.120013236999512 -11.604471206665039 0.04072998836636543
10.203056335449219 -11.600702285766602 0.040641650557518005
10.241003036499023 -11.595237731933594 0.03997746855020523
10.2861328125 -11.596651077270508 0.039833903312683105
10.322036743164062 -11.588260650634766 0.03987717628479004
10.363530158996582 -11.586342811584473 0.03994385153055191
10.4102144241333 -11.58862018585205 0.038855697959661484
10.44796085357666 -11.58220100402832 0.04180765151977539
10.486797332763672 -11.575775146484375 0.04113918915390968
10.534958839416504 -11.580211639404297 0.04123326390981674
10.569446563720703 -11.569795608520508 0.04105011001229286
10.614487648010254 -11.56937026977539 0.04112657159566879
10.650848388671875 -11.560751914978027 0.04044333100318909
10.698923110961914 -11.564682006835938 0.04053504765033722
10.733053207397461 -11.551971435546875 0.04034092649817467
10.782563209533691 -11.557069778442383 0.040436748415231705
10.807297706604004 -11.535494804382324 0.03970232233405113
10.861492156982422 -11.543816566467285 0.03958246856927872
10.895026206970215 -11.531414031982422 0.0396161749958992
10.942008018493652 -11.532028198242188 0.03969959542155266
10.969900131225586 -11.513143539428711 0.038969989866018295
11.030292510986328 -11.528526306152344 0.03887169808149338
11.072047233581543 -11.522788047790527 0.03892990201711655
11.107804298400879 -11.51208782196045 0.03896845132112503
11.150519371032715 -11.508466720581055 0.03829336538910866
11.243121147155762 -11.506674766540527 0.03820855915546417
11.287883758544922 -11.503559112548828 0.03828120976686478
11.368557929992676 -11.489657402038574 0.037405334413051605
11.416729927062988 -11.489481925964355 0.037248801440000534
11.507587432861328 -11.483781814575195 0.037387438118457794
11.645508766174316 -11.476208686828613 0.03660059720277786
12.01102066040039 -11.445453643798828 0.035117268562316895
12.040889739990234 -11.426002502441406 0.0348886214196682
12.14905834197998 -11.432127952575684 0.03507079929113388
12.190377235412598 -11.423073768615723 0.03434111177921295
12.280829429626465 -11.411078453063965 0.03421717882156372
12.323725700378418 -11.403374671936035 0.03426894545555115
12.367988586425781 -11.395715713500977 0.03432595729827881
12.420164108276367 -11.395895004272461 0.03337670490145683
12.469602584838867 -11.393684387207031 0.033445943146944046
12.513692855834961 -11.385347366333008 0.033497750759124756
12.568954467773438 -11.387710571289062 0.03279399871826172
12.612171173095703 -11.378233909606934 0.032595712691545486
12.662482261657715 -11.376047134399414 0.03187069669365883
12.70107650756836 -11.362846374511719 0.03190968185663223
12.764644622802734 -11.371049880981445 0.032013121992349625
12.801546096801758 -11.35603141784668 0.0317937396466732
12.86092472076416 -11.361102104187012 0.03108416125178337
12.902957916259766 -11.349584579467773 0.0311267152428627
12.966361045837402 -11.357381820678711 0.030975554138422012
13.00055980682373 -11.33974552154541 0.030998604372143745
13.049606323242188 -11.333531379699707 0.030250675976276398
13.100992202758789 -11.330550193786621 0.03031812235713005
13.153846740722656 -11.327568054199219 0.030131692066788673
13.201139450073242 -11.320337295532227 0.030187582597136497
13.254044532775879 -11.318058967590332 0.03025217168033123
13.30097484588623 -11.309422492980957 0.02949422039091587
13.367053985595703 -11.31756591796875 0.02933669649064541
13.402889251708984 -11.300237655639648 0.02935967966914177
13.45511531829834 -11.295514106750488 0.029421519488096237
13.509342193603516 -11.292999267578125 0.028672004118561745
13.564244270324707 -11.290088653564453 0.02848232351243496
13.663881301879883 -11.277017593383789 0.028589997440576553
13.704304695129395 -11.26158332824707 0.0280548557639122
13.819832801818848 -11.260421752929688 0.02462124451994896
13.88800048828125 -11.267020225524902 0.024700457230210304
13.982867240905762 -11.246667861938477 0.024782607331871986
14.148430824279785 -11.234081268310547 0.023850351572036743
14.306995391845703 -11.214062690734863 0.02288670837879181
14.425924301147461 -11.209525108337402 0.02300100401043892
14.468555450439453 -11.194239616394043 0.021913893520832062
14.582972526550293 -11.185239791870117 0.02201792038977146
14.650940895080566 -11.188821792602539 0.022085227072238922
14.750060081481934 -11.166820526123047 0.021033458411693573
14.799437522888184 -11.15562915802002 0.021069156005978584
14.86263656616211 -11.15389347076416 0.02112467773258686
14.9238920211792 -11.151189804077148 0.020910091698169708
14.98744010925293 -11.15028190612793 0.02009800262749195
15.036201477050781 -11.137075424194336 0.020671850070357323
15.096399307250977 -11.13288402557373 0.014339888468384743
15.16092300415039 -11.131969451904297 0.014379652217030525
15.213190078735352 -11.120742797851562 0.014406442642211914
15.27648639678955 -11.118106842041016 0.014444490894675255
15.339622497558594 -11.114346504211426 0.014207301661372185
15.389699935913086 -11.10200023651123 0.013349355198442936
15.450730323791504 -11.09701156616211 0.0133816571906209
15.502323150634766 -11.084283828735352 0.013406006619334221
15.56375789642334 -11.079133033752441 0.013439031317830086
15.620555877685547 -11.070795059204102 0.012299600057303905
15.689410209655762 -11.069659233093262 0.012335335835814476
15.741159439086914 -11.056974411010742 0.01235780119895935
15.81334400177002 -11.057647705078125 0.012396017089486122
15.868701934814453 -11.047054290771484 0.01124150026589632
15.93381118774414 -11.043359756469727 0.011271045543253422
15.992366790771484 -11.03378677368164 0.011296069249510765
16.066570281982422 -11.03549861907959 0.011332396417856216
16.125181198120117 -11.026576042175293 0.010164741426706314
16.182188034057617 -11.015241622924805 0.010185432620346546
16.246667861938477 -11.009520530700684 0.010212221182882786
16.323501586914062 -11.012228012084961 0.010246210731565952
16.382583618164062 -11.001578330993652 0.009982391260564327
16.439010620117188 -10.989694595336914 0.009082591161131859
16.49696922302246 -10.977869033813477 0.009675654582679272
16.698118209838867 -10.960891723632812 0.004173291381448507
16.828609466552734 -10.945417404174805 0.0029704465996474028
16.893043518066406 -10.937507629394531 0.0029777679592370987
17.033428192138672 -10.926870346069336 0.0029934837948530912
17.230430603027344 -10.900961875915527 0.0017728829989209771
17.372127532958984 -10.888435363769531 0.000530676101334393
17.444835662841797 -10.883647918701172 0.0005320498603396118
17.568143844604492 -10.858061790466309 0.0005349022103473544
17.639345169067383 -10.851192474365234 0.0005375445471145213
17.799474716186523 -10.846990585327148 -0.0007343125762417912
17.85198402404785 -10.827896118164062 -0.0007337027927860618
