VERSION .7
FIELDS x y z
SIZE 4 4 4
TYPE F F F
COUNT 1 1 1
WIDTH 837
HEIGHT 1
VIEWPOINT 0 0 0 1 0 0 0
POINTS 837
DATA ascii
18.964187622070312 -2.064143657684326 -0.08884574472904205
18.96084213256836 -2.023974657058716 -0.0888049304485321
18.954811096191406 -1.4609495401382446 -0.09105931222438812
18.943735122680664 -1.3403525352478027 -0.09096020460128784
18.915142059326172 -1.2188736200332642 -0.09078814089298248
18.88298797607422 -1.0976449251174927 -0.09059471637010574
18.861440658569336 -1.016709327697754 -0.09046637266874313
18.839092254638672 -0.9763007164001465 -0.09150112420320511
18.790630340576172 -0.8944582939147949 -0.09124980866909027
18.784639358520508 -0.8551065921783447 -0.09120476990938187
18.774181365966797 -0.8148024082183838 -0.09114585816860199
18.759765625 -0.7748201489448547 -0.09107467532157898
18.773757934570312 -0.7363756895065308 -0.09113523364067078
18.747488021850586 -0.6955944299697876 -0.09020771086215973
18.741193771362305 -0.6560620069503784 -0.09123192727565765
18.73177146911621 -0.5767592191696167 -0.09117448329925537
18.721206665039062 -0.5375494956970215 -0.09147592633962631
18.718257904052734 -0.4978034496307373 -0.09145718812942505
18.705793380737305 -0.41943320631980896 -0.09216761589050293
18.710670471191406 -0.3799091577529907 -0.09218533337116241
18.721424102783203 -0.3409069776535034 -0.09223058819770813
18.7239933013916 -0.3020864427089691 -0.09224221110343933
18.716894149780273 -0.2619791626930237 -0.09220379590988159
18.709598541259766 -0.22304412722587585 -0.09215676784515381
18.682449340820312 -0.14403271675109863 -0.09201101958751678
18.685348510742188 -0.10527822375297546 -0.0920414924621582
18.664562225341797 -0.026555731892585754 -0.09194163978099823
22.208776473999023 0.014068925753235817 0.07225774973630905
22.188499450683594 0.0605219304561615 0.07218482345342636
22.174030303955078 0.1064985916018486 0.07213879376649857
22.161821365356445 0.15336346626281738 0.07209077477455139
22.18206024169922 0.19996003806591034 0.07217201590538025
22.152376174926758 0.24566727876663208 0.07206715643405914
22.18439292907715 0.29342037439346313 0.0721738412976265
21.999656677246094 0.7061132192611694 0.07027041912078857
21.97585678100586 0.8436756134033203 0.07021734118461609
21.914169311523438 0.9793113470077515 0.0700341984629631
21.75641441345215 1.6600251197814941 0.06926220655441284
21.72837257385254 1.7953472137451172 0.06830227375030518
21.69873046875 1.9303138256072998 0.06824012845754623
21.670692443847656 1.9740760326385498 0.06817487627267838
21.635618209838867 2.0618693828582764 0.06840147078037262
21.64157485961914 2.108684778213501 0.06843308359384537
21.61412811279297 2.1970198154449463 0.06797616928815842
21.60031509399414 2.241832971572876 0.06794305145740509
21.592073440551758 2.2866907119750977 0.06793549656867981
21.585033416748047 2.3312509059906006 0.06792747229337692
21.57005500793457 2.375847816467285 0.06789661198854446
21.560989379882812 2.420557975769043 0.06787893921136856
21.560956954956055 2.4658725261688232 0.06791253387928009
21.54735565185547 2.5105485916137695 0.06788128614425659
21.54669952392578 2.556215763092041 0.06789278984069824
21.527912139892578 2.599301815032959 0.06785137951374054
21.511489868164062 2.643953800201416 0.06780491024255753
21.499370574951172 2.68776535987854 0.06779216229915619
21.52092170715332 2.7367517948150635 0.06788565218448639
21.47541046142578 2.77667498588562 0.0677638053894043
21.47441291809082 2.821866989135742 0.06686398386955261
21.444942474365234 2.8641979694366455 0.06678905338048935
21.43506622314453 2.908578872680664 0.06678127497434616
21.40822982788086 2.9501943588256836 0.06671614199876785
21.399545669555664 2.995182514190674 0.06670793890953064
21.38263702392578 3.038482904434204 0.06667564809322357
21.37760353088379 3.083040237426758 0.06577739119529724
21.358081817626953 3.126401901245117 0.06776534765958786
21.325551986694336 3.1672682762145996 0.06768650561571121
21.3061466217041 3.209589719772339 0.06764870882034302
21.253860473632812 3.2933125495910645 0.06752920150756836
21.170528411865234 3.4168219566345215 0.06733398884534836
21.072036743164062 3.5369882583618164 0.06709098070859909
21.006492614746094 3.661911964416504 0.06695171445608139
20.706878662109375 4.150002956390381 0.06692233681678772
20.637893676757812 4.271303176879883 0.06678338348865509
20.563467025756836 4.390888214111328 0.06662784516811371
20.457000732421875 4.502806663513184 0.06637386977672577
20.40781021118164 4.626679420471191 0.066310353577137
20.38788604736328 4.6666669845581055 0.0662766695022583
20.362070083618164 4.706557273864746 0.06622269749641418
20.334081649780273 4.744560718536377 0.06616589426994324
20.314929962158203 4.784567356109619 0.0661407932639122
20.281158447265625 4.82236385345459 0.06605935096740723
20.26645278930664 4.863325119018555 0.06604580581188202
20.24346923828125 4.902259826660156 0.06600569933652878
20.216567993164062 4.9414896965026855 0.0650748610496521
20.19176483154297 4.979853630065918 0.06590357422828674
20.167640686035156 5.019228935241699 0.06498102843761444
20.128143310546875 5.054181098937988 0.06683849543333054
20.115385055541992 5.095376491546631 0.06683186441659927
20.093833923339844 5.135219097137451 0.06679625809192657
20.05084800720215 5.168985843658447 0.06629906594753265
20.027328491210938 5.207270622253418 0.06664854288101196
20.008317947387695 5.247983932495117 0.06662191450595856
19.98626136779785 5.286551475524902 0.06619640439748764
19.95267105102539 5.322896957397461 0.06612229347229004
19.93619155883789 5.363243103027344 0.06610642373561859
19.923559188842773 5.404207229614258 0.06610143929719925
19.875286102294922 5.436319351196289 0.06597696989774704
19.87123680114746 5.479961395263672 0.06600247323513031
19.8438777923584 5.516753673553467 0.06594868004322052
19.825302124023438 5.557240962982178 0.06592772901058197
19.788782119750977 5.59132194519043 0.06584338843822479
19.76639175415039 5.6293158531188965 0.06580756604671478
19.742631912231445 5.712546348571777 0.06581009924411774
19.688936233520508 5.741314888000488 0.06566999107599258
19.651683807373047 5.820362567901611 0.06562786549329758
19.616405487060547 5.854219913482666 0.06555050611495972
19.572425842285156 5.930976390838623 0.06548547744750977
19.495702743530273 6.041802406311035 0.06650508940219879
19.436925888061523 6.157778263092041 0.06643592566251755
19.368192672729492 6.2702531814575195 0.0663340613245964
19.160511016845703 6.606064796447754 0.06603918969631195
19.07276153564453 6.71026086807251 0.06588105857372284
19.020544052124023 6.826566696166992 0.06670311838388443
18.887454986572266 6.913136005401611 0.06676124036312103
18.7274227142334 6.944133281707764 0.06629448384046555
18.64019203186035 6.955822467803955 0.06603661179542542
18.534099578857422 6.960084915161133 0.06571204960346222
18.44329833984375 6.970977783203125 0.06544280052185059
18.35626792907715 6.98165225982666 0.06518582999706268
18.240478515625 6.980975151062012 0.06482544541358948
18.14594841003418 6.989274978637695 0.064542755484581
18.043607711791992 6.992889881134033 0.06422964483499527
17.950206756591797 6.999571800231934 0.06394905596971512
17.85154151916504 7.005066871643066 0.06364959478378296
17.7480525970459 7.006994724273682 0.06333258002996445
17.65802001953125 7.014699935913086 0.06306420266628265
17.554073333740234 7.01600456237793 0.06310302019119263
17.46575355529785 7.022774696350098 0.062481511384248734
17.382816314697266 7.032601356506348 0.06223972141742706
17.309215545654297 7.044658660888672 0.062027495354413986
17.203763961791992 7.043391227722168 0.06205340474843979
17.114788055419922 7.049690246582031 0.06178662180900574
17.029985427856445 7.0561323165893555 0.062309786677360535
16.941986083984375 7.060898780822754 0.062041986733675
16.847766876220703 7.0639119148254395 0.06106088310480118
16.763648986816406 7.069581985473633 0.06080932915210724
16.680822372436523 7.075460433959961 0.06056160479784012
16.603559494018555 7.084576606750488 0.060335174202919006
16.511817932128906 7.085971355438232 0.06005700305104256
16.434980392456055 7.093788146972656 0.059831611812114716
16.358291625976562 7.101813316345215 0.05960655212402344
16.264198303222656 7.101113319396973 0.05931840091943741
16.100500106811523 7.11052131652832 0.05882890149950981
16.020105361938477 7.114781379699707 0.05858839303255081
15.851766586303711 7.120095729827881 0.058080367743968964
15.79757308959961 7.135547637939453 0.05793720483779907
15.632591247558594 7.14008903503418 0.05744115263223648
15.550575256347656 7.142024040222168 0.05719457566738129
15.39678955078125 7.149713516235352 0.056739166378974915
15.17701530456543 7.163984298706055 0.05609314143657684
14.956315040588379 7.175126552581787 0.055589254945516586
14.744104385375977 7.18803596496582 0.054968398064374924
14.540643692016602 7.20233154296875 0.05437416583299637
14.326333999633789 7.209447860717773 0.05404718220233917
14.140623092651367 7.227756500244141 0.05351735278964043
13.963689804077148 7.248396873474121 0.053019460290670395
13.804428100585938 7.238947868347168 0.052528731524944305
13.747346878051758 7.24616813659668 0.05236691236495972
13.690135955810547 7.252354621887207 0.0522044375538826
13.634214401245117 7.259335994720459 0.052054617553949356
13.575506210327148 7.265012264251709 0.051892027258872986
13.510977745056152 7.2665863037109375 0.051700472831726074
13.453925132751465 7.272266387939453 0.05138291418552399
13.375530242919922 7.266528129577637 0.05114109069108963
13.325031280517578 7.275274276733398 0.05100501328706741
13.26515007019043 7.279082298278809 0.05084194988012314
13.205802917480469 7.282212257385254 0.050667308270931244
13.14881706237793 7.28673791885376 0.05050726234912872
13.093343734741211 7.292275428771973 0.05035439133644104
13.028054237365723 7.291376113891602 0.050163209438323975
12.959814071655273 7.28886604309082 0.049954965710639954
12.908780097961426 7.296184062957764 0.0498184897005558
12.87108325958252 7.310161590576172 0.0497320182621479
12.806337356567383 7.309615135192871 0.04954163357615471
12.745697021484375 7.3101115226745605 0.0493643581867218
12.6947021484375 7.315915107727051 0.049226656556129456
12.6351900100708 7.317618370056152 0.04905512183904648
12.562398910522461 7.310317516326904 0.0488317534327507
12.525249481201172 7.323853969573975 0.04874732345342636
12.471559524536133 7.327939033508301 0.04887601360678673
12.408021926879883 7.325286388397217 0.048680417239665985
12.35183048248291 7.3270368576049805 0.048525892198085785
12.305482864379883 7.334810256958008 0.048398327082395554
12.253068923950195 7.33807373046875 0.048256270587444305
12.20443058013916 7.343712329864502 0.04812171310186386
12.143362998962402 7.342032432556152 0.04854145646095276
12.102394104003906 7.351600646972656 0.04709761589765549
12.037193298339844 7.3465471267700195 0.04690420627593994
11.976691246032715 7.344470977783203 0.04672646522521973
11.928401947021484 7.348963737487793 0.04659796506166458
11.82532024383545 7.354339599609375 0.0465812049806118
11.770374298095703 7.354394912719727 0.04642583429813385
11.686643600463867 7.370383262634277 0.0462142750620842
11.634051322937012 7.371313095092773 0.04606817662715912
11.532934188842773 7.375187397003174 0.046367060393095016
11.488155364990234 7.3804931640625 0.04624909162521362
11.383108139038086 7.380916595458984 0.04594310000538826
11.33932113647461 7.385993957519531 0.045836400240659714
11.243963241577148 7.391511917114258 0.04557408392429352
11.199790954589844 7.395804405212402 0.0457138866186142
11.110527992248535 7.404242515563965 0.04546892270445824
10.955852508544922 7.4010467529296875 0.04502948001027107
10.835201263427734 7.4191694259643555 0.04423244670033455
10.744272232055664 7.423564910888672 0.043977800756692886
10.690306663513184 7.419766902923584 0.04382585361599922
10.596541404724121 7.420341491699219 0.044118475168943405
10.567828178405762 7.433631896972656 0.04405756667256355
10.483373641967773 7.439752101898193 0.04407878965139389
10.432849884033203 7.437161445617676 0.043927788734436035
10.410598754882812 7.453930854797363 0.04390822350978851
10.350813865661621 7.443961143493652 0.04372046887874603
10.323670387268066 7.457655906677246 0.04367006570100784
10.264936447143555 7.447693824768066 0.043488793075084686
10.22303581237793 7.450019836425781 0.043367937207221985
10.187335968017578 7.457079887390137 0.043287720531225204
10.147571563720703 7.460659027099609 0.043188415467739105
10.095949172973633 7.455030918121338 0.04303162544965744
10.067419052124023 7.466953754425049 0.04298318922519684
10.024765968322754 7.4679107666015625 0.0431046187877655
9.975170135498047 7.463857650756836 0.042949799448251724
9.936511993408203 7.467146873474121 0.042852312326431274
9.898387908935547 7.470983505249023 0.0425163209438324
9.856569290161133 7.472229957580566 0.04240834712982178
9.821807861328125 7.478316783905029 0.04232844337821007
9.781643867492676 7.479854106903076 0.042219068855047226
9.734956741333008 7.476871490478516 0.04208953678607941
9.697059631347656 7.480101585388184 0.04198593273758888
9.663593292236328 7.486324310302734 0.0421413853764534
9.616067886352539 7.482139587402344 0.04200756922364235
9.582754135131836 7.488487243652344 0.04243732988834381
9.541352272033691 7.4880781173706055 0.042324248701334
9.506929397583008 7.493643760681152 0.04224385693669319
9.478313446044922 7.503322601318359 0.04219062253832817
9.436653137207031 7.502898693084717 0.042074475437402725
9.393021583557129 7.500075340270996 0.041951585561037064
9.364117622375488 7.509162425994873 0.04189316928386688
9.311217308044434 7.499188423156738 0.04172159731388092
9.292808532714844 7.5164995193481445 0.041934385895729065
9.239131927490234 7.504852294921875 0.041766077280044556
9.222976684570312 7.524199485778809 0.041760947555303574
9.170841217041016 7.513707160949707 0.041599683463573456
9.134664535522461 7.515802383422852 0.04149771109223366
9.102893829345703 7.522038459777832 0.04142935946583748
9.065730094909668 7.52333402633667 0.04183042049407959
8.992509841918945 7.526457786560059 0.04158679395914078
8.964388847351074 7.534900665283203 0.04153336584568024
8.877939224243164 7.525979042053223 0.04127552732825279
8.85073471069336 7.534828186035156 0.04171031713485718
8.782599449157715 7.540846824645996 0.04153431951999664
8.73859977722168 7.534627437591553 0.04140839725732803
8.66751480102539 7.537208557128906 0.04143292456865311
8.638547897338867 7.543558120727539 0.04137007147073746
8.572834014892578 7.550044059753418 0.04120303690433502
8.533920288085938 7.547276496887207 0.04109688848257065
8.493484497070312 7.543911933898926 0.0409766286611557
8.468850135803223 7.553529739379883 0.040940385311841965
8.400618553161621 7.556435585021973 0.041235264390707016
8.371431350708008 7.561667442321777 0.041381411254405975
8.299776077270508 7.560659885406494 0.0411810502409935
8.268136978149414 7.563292503356934 0.04110722616314888
8.200531005859375 7.565131187438965 0.040462687611579895
8.163376808166504 7.562273025512695 0.04140131175518036
8.100310325622559 7.567488193511963 0.041707709431648254
8.072610855102539 7.57304573059082 0.041653722524642944
8.045557975769043 7.580043792724609 0.04159948602318764
8.006949424743652 7.575096130371094 0.04147922247648239
7.980292797088623 7.581960678100586 0.04142305254936218
7.945809364318848 7.580921173095703 0.041531454771757126
7.9195332527160645 7.587308883666992 0.04147883132100105
7.882436752319336 7.583840370178223 0.04136383906006813
7.861324310302734 7.595293998718262 0.04134025797247887
7.820650100708008 7.58743953704834 0.04120832309126854
7.8032097816467285 7.602657318115234 0.041663505136966705
7.765406608581543 7.597589492797852 0.04154316335916519
7.738529205322266 7.602787017822266 0.04148222506046295
7.695929527282715 7.593024253845215 0.0413384735584259
7.6659770011901855 7.595218658447266 0.04147306829690933
7.637843132019043 7.599457740783691 0.0414048433303833
7.611970901489258 7.605503559112549 0.041351065039634705
7.573603630065918 7.5986409187316895 0.04122770205140114
7.5545244216918945 7.611662864685059 0.04121285304427147
7.514780521392822 7.603399276733398 0.04108426347374916
7.483943462371826 7.603693962097168 0.041000254452228546
7.459722518920898 7.611252784729004 0.040956221520900726
7.431553840637207 7.614343643188477 0.041895315051078796
7.397824764251709 7.611320972442627 0.041796207427978516
7.3787841796875 7.623961448669434 0.04198065772652626
7.3358964920043945 7.611480712890625 0.041825029999017715
7.31964111328125 7.626224040985107 0.041824616491794586
7.2789716720581055 7.6163530349731445 0.04168329015374184
7.250529766082764 7.618181228637695 0.04205164313316345
7.215832710266113 7.613940238952637 0.04194525256752968
7.202930450439453 7.632275581359863 0.041965752840042114
7.166266441345215 7.625063896179199 0.04184290021657944
7.1314239501953125 7.62025785446167 0.04193221032619476
7.110454082489014 7.6298136711120605 0.041902054101228714
7.088522434234619 7.637998104095459 0.04186825826764107
7.055133819580078 7.63437557220459 0.04176420718431473
7.025456428527832 7.634275913238525 0.041682351380586624
6.9990692138671875 7.637347221374512 0.041620947420597076
6.974322319030762 7.642767906188965 0.04200490936636925
6.940052032470703 7.637273788452148 0.041896164417266846
6.913591384887695 7.639949798583984 0.04202514886856079
6.874349117279053 7.629279136657715 0.04188646748661995
6.849149703979492 7.63310432434082 0.04182758554816246
6.827898979187012 7.641263961791992 0.04179544001817703
6.799605369567871 7.64239501953125 0.04172034189105034
6.770452499389648 7.64150333404541 0.04164040833711624
6.714102745056152 7.642505645751953 0.04245540499687195
6.699450492858887 7.657819747924805 0.042464230209589005
6.6328020095825195 7.646378993988037 0.042245227843523026
6.61381196975708 7.656530380249023 0.04222634434700012
6.552663803100586 7.650635719299316 0.042464300990104675
6.503340721130371 7.658093452453613 0.0425441637635231
6.4724907875061035 7.653901100158691 0.04244574159383774
6.4287590980529785 7.667446613311768 0.04237035661935806
6.4021430015563965 7.667966365814209 0.04230022057890892
6.328264236450195 7.644693374633789 0.04202372953295708
6.325523853302002 7.673746109008789 0.04271865636110306
6.290600776672363 7.664681434631348 0.04259283095598221
6.2662272453308105 7.667374610900879 0.042535729706287384
6.238194465637207 7.665482521057129 0.04245385155081749
6.221602439880371 7.678542137145996 0.042451780289411545
6.180714130401611 7.660525321960449 0.04228116571903229
6.162445545196533 7.670399188995361 0.042265165597200394
6.143096446990967 7.679859161376953 0.04224458336830139
6.118682861328125 7.68196439743042 0.042931701987981796
6.065988063812256 7.681971549987793 0.04320024326443672
6.035161972045898 7.675629615783691 0.04309463128447533
6.01724910736084 7.686285018920898 0.043082576245069504
5.980195045471191 7.671999931335449 0.04293244332075119
5.961285591125488 7.680559158325195 0.04291105642914772
5.937439918518066 7.683667182922363 0.04304119572043419
5.902521133422852 7.671329975128174 0.04290447384119034
5.889445781707764 7.687291145324707 0.042924728244543076
5.864110469818115 7.688187122344971 0.043266117572784424
5.837183475494385 7.685907363891602 0.04318491369485855
5.816703796386719 7.692030906677246 0.04315135255455971
5.78211784362793 7.6803436279296875 0.043016619980335236
5.7647318840026855 7.69041109085083 0.0431881882250309
5.741650581359863 7.692831039428711 0.04313477873802185
5.71604061126709 7.692747116088867 0.04306631535291672
5.6877312660217285 7.687922477722168 0.04337474703788757
5.670644283294678 7.6988654136657715 0.04336867481470108
5.641552925109863 7.693056106567383 0.0432695671916008
5.622339248657227 7.700313568115234 0.04324459284543991
5.598743438720703 7.70218563079834 0.043188244104385376
5.579570293426514 7.709704875946045 0.04334515333175659
5.545621871948242 7.696372985839844 0.043205998837947845
5.518764495849609 7.693698883056641 0.043305158615112305
5.499690532684326 7.700799942016602 0.043279968202114105
5.479467868804932 7.706932544708252 0.0438268817961216
5.449065685272217 7.698258399963379 0.043713025748729706
5.4304704666137695 7.705848693847656 0.043690793216228485
5.404452800750732 7.703516006469727 0.043613385409116745
5.379946231842041 7.702845573425293 0.04354576766490936
5.357908248901367 7.705304145812988 0.043496280908584595
5.340610980987549 7.715540885925293 0.04348953440785408
5.307042121887207 7.701145648956299 0.04352441430091858
5.291360378265381 7.712595462799072 0.04391997680068016
5.265843391418457 7.710659980773926 0.043845053762197495
5.24968957901001 7.721363067626953 0.04384239763021469
5.221032619476318 7.713593006134033 0.04373735934495926
5.192587375640869 7.7069830894470215 0.043637171387672424
5.170070648193359 7.708034038543701 0.04358237236738205
5.153227806091309 7.717494964599609 0.04357493668794632
5.129970073699951 7.718316078186035 0.04408340901136398
5.114430904388428 7.729682922363281 0.04408763349056244
5.067137718200684 7.7287397384643555 0.0439595989882946
5.04055118560791 7.7230939865112305 0.043868325650691986
5.014717102050781 7.719490051269531 0.043787695467472076
4.999893665313721 7.731746673583984 0.044184669852256775
4.971127986907959 7.7223615646362305 0.04407193884253502
4.949597358703613 7.725124359130859 0.044201478362083435
4.932645797729492 7.733952522277832 0.044194191694259644
4.901241779327393 7.7200026512146 0.04444059729576111
4.8871989250183105 7.734349250793457 0.0444624237716198
4.861987590789795 7.729926109313965 0.04437911882996559
4.839622497558594 7.729915142059326 0.04432111978530884
4.815164566040039 7.727503299713135 0.044248342514038086
4.8014912605285645 7.741305351257324 0.04444219544529915
4.774022102355957 7.732796669006348 0.04433779790997505
4.757357597351074 7.742758750915527 0.044718269258737564
4.726151466369629 7.727876663208008 0.044575806707143784
4.710439682006836 7.739282608032227 0.04458294436335564
4.686028480529785 7.735273361206055 0.04450371116399765
4.672937870025635 7.749909400939941 0.044531263411045074
4.6490559577941895 7.747682571411133 0.04463314265012741
4.627885341644287 7.748804092407227 0.04458474740386009
4.600337028503418 7.739114761352539 0.04485289752483368
4.58294153213501 7.7474822998046875 0.04484311491250992
4.560077667236328 7.7454681396484375 0.044777389615774155
4.540443420410156 7.749938011169434 0.0447477325797081
4.517209053039551 7.747094631195068 0.04467661678791046
4.495523452758789 7.7468037605285645 0.0447910837829113
4.463309288024902 7.729278564453125 0.04501022771000862
4.45137357711792 7.745682716369629 0.04471230506896973
4.42848014831543 7.7429962158203125 0.04464365541934967
4.408441543579102 7.746311187744141 0.04498301073908806
4.385543346405029 7.743411064147949 0.04508233070373535
4.367317199707031 7.748684883117676 0.0450601726770401
4.34245491027832 7.743198394775391 0.04497421532869339
4.324516773223877 7.748859405517578 0.04495488107204437
4.304642677307129 7.751002311706543 0.04491538926959038
4.282988548278809 7.7509765625 0.045234404504299164
4.260993957519531 7.74911642074585 0.04533984884619713
4.237783432006836 7.745279312133789 0.04526536911725998
4.2261857986450195 7.763070106506348 0.04531695321202278
4.204861640930176 7.762214183807373 0.04526091739535332
4.176120758056641 7.748636722564697 0.045129626989364624
5.774041652679443 -10.122422218322754 0.07490608096122742
5.856390953063965 -10.118453979492188 0.07443408668041229
5.907023906707764 -10.107512474060059 0.07453611493110657
5.935248851776123 -10.107601165771484 0.07462742924690247
5.993890762329102 -10.109716415405273 0.0748286247253418
6.016947269439697 -10.100765228271484 0.07463094592094421
6.077301025390625 -10.105046272277832 0.07435576617717743
6.108227729797363 -10.108912467956543 0.0744771808385849
6.166536331176758 -10.108983993530273 0.07466864585876465
6.185822010040283 -10.093425750732422 0.07464826107025146
6.215351104736328 -10.093149185180664 0.07474438846111298
6.240479469299316 -10.08701229095459 0.07407055050134659
6.279698848724365 -10.103483200073242 0.0742870420217514
6.301187038421631 -10.089917182922363 0.074286088347435
6.32647705078125 -10.083776473999023 0.07479014992713928
6.359859943389893 -10.089986801147461 0.07443373650312424
6.38475227355957 -10.082094192504883 0.07447618991136551
6.410225868225098 -10.07599925994873 0.074528768658638
6.439600944519043 -10.075519561767578 0.07462538778781891
6.4712114334106445 -10.077892303466797 0.07474365830421448
6.498546600341797 -10.074417114257812 0.07481776177883148
6.5280351638793945 -10.073758125305176 0.07468482851982117
6.565977096557617 -10.085454940795898 0.07436979562044144
6.619280815124512 -10.074284553527832 0.07449179887771606
6.64825439453125 -10.072772026062012 0.0745830088853836
6.7016496658325195 -10.061248779296875 0.07470548897981644
6.737360000610352 -10.069506645202637 0.07487104833126068
6.790736198425293 -10.057378768920898 0.07425151765346527
6.825403213500977 -10.063627243041992 0.07440279424190521
6.88195276260376 -10.055583953857422 0.07455682754516602
6.920416831970215 -10.066899299621582 0.07474644482135773
7.009946823120117 -10.061057090759277 0.07428033649921417
7.526165008544922 -10.019439697265625 0.07485754042863846
7.558670997619629 -10.019350051879883 0.07497289776802063
7.617356777191162 -10.009183883666992 0.07460883259773254
7.647391319274902 -10.00549602508545 0.07470060139894485
7.685406684875488 -10.01083755493164 0.07486072927713394
7.717691421508789 -10.00981616973877 0.07473403960466385
7.736255645751953 -9.990949630737305 0.07471197843551636
7.785730361938477 -10.010594367980957 0.07522434741258621
7.809974670410156 -9.998879432678223 0.07525738328695297
7.841704845428467 -9.99666976928711 0.07536378502845764
7.870145797729492 -9.988912582397461 0.0746556743979454
7.910252571105957 -9.9970703125 0.07483810186386108
7.9404988288879395 -9.992609977722168 0.07492895424365997
7.968984127044678 -9.984591484069824 0.07499631494283676
8.00674057006836 -9.989309310913086 0.07515428215265274
8.045002937316895 -9.99322509765625 0.07531392574310303
8.070274353027344 -9.982138633728027 0.0753553956747055
8.108156204223633 -9.98653507232666 0.07497607916593552
8.13270378112793 -9.97315502166748 0.0747632086277008
8.181751251220703 -9.990899085998535 0.07502222061157227
8.202253341674805 -9.973639488220215 0.07502031326293945
8.245482444763184 -9.982658386230469 0.07522033900022507
8.276408195495605 -9.977856636047363 0.07531137019395828
8.307140350341797 -9.972718238830566 0.07540364563465118
8.33808708190918 -9.966497421264648 0.07494639605283737
8.36859130859375 -9.960885047912598 0.07503582537174225
8.414656639099121 -9.972766876220703 0.07500864565372467
8.440298080444336 -9.960758209228516 0.07505327463150024
8.477421760559082 -9.962578773498535 0.07519752532243729
8.535324096679688 -9.945457458496094 0.07533849775791168
8.588973045349121 -9.965200424194336 0.07512591779232025
8.748971939086914 -9.938776969909668 0.07536090910434723
8.85669994354248 -9.934526443481445 0.07519060373306274
8.963983535766602 -9.927661895751953 0.07531099021434784
9.077720642089844 -9.927435874938965 0.07517474889755249
9.181385040283203 -9.91453742980957 0.07551500201225281
9.30216121673584 -9.919139862060547 0.07573387026786804
9.365213394165039 -9.902840614318848 0.07533717155456543
9.402267456054688 -9.900407791137695 0.07604187726974487
9.473016738891602 -9.891524314880371 0.07549569010734558
9.519378662109375 -9.89835262298584 0.07543850690126419
9.548677444458008 -9.886835098266602 0.07550463825464249
9.593816757202148 -9.8920316696167 0.07569760084152222
9.622754096984863 -9.880758285522461 0.07576397806406021
9.667133331298828 -9.88437271118164 0.07594846189022064
9.696144104003906 -9.872587203979492 0.07543259859085083
9.745661735534668 -9.881903648376465 0.07565796375274658
9.775947570800781 -9.870723724365234 0.07546635717153549
9.825435638427734 -9.87922477722168 0.07568850368261337
9.857861518859863 -9.870776176452637 0.07578033208847046
9.900632858276367 -9.871338844299316 0.0759468600153923
9.940349578857422 -9.86988639831543 0.07609423249959946
9.98019790649414 -9.867579460144043 0.07564970850944519
10.023276329040527 -9.868746757507324 0.07581927627325058
10.05410385131836 -9.858092308044434 0.07562965899705887
10.090662002563477 -9.852121353149414 0.07574757933616638
10.143113136291504 -9.861926078796387 0.0759861096739769
10.172945976257324 -9.849946975708008 0.07605630159378052
10.216815948486328 -9.850600242614746 0.07622820138931274
10.250733375549316 -9.841961860656738 0.07573062926530838
10.302059173583984 -9.850235939025879 0.07715573906898499
10.380470275878906 -9.841859817504883 0.07606951892375946
10.430723190307617 -9.847654342651367 0.07628557831048965
10.460439682006836 -9.834358215332031 0.07607870548963547
10.497447967529297 -9.828192710876465 0.07559564709663391
10.549365043640137 -9.834970474243164 0.07582029700279236
10.58692455291748 -9.828624725341797 0.07594208419322968
10.631990432739258 -9.828634262084961 0.07611601054668427
10.65574836730957 -9.80966567993164 0.07613915205001831
10.716854095458984 -9.82453441619873 0.07642935961484909
10.751341819763184 -9.814338684082031 0.07625102251768112
10.877053260803223 -9.804447174072266 0.07608786970376968
10.998950958251953 -9.789701461791992 0.07650849223136902
11.089839935302734 -9.787205696105957 0.07595033943653107
11.230926513671875 -9.786816596984863 0.07649379968643188
11.358707427978516 -9.773218154907227 0.07706479728221893
11.440503120422363 -9.76004695892334 0.07641806453466415
11.496747016906738 -9.766880989074707 0.07665863633155823
11.575712203979492 -9.75032901763916 0.07690856605768204
11.619914054870605 -9.746411323547363 0.07706940174102783
11.672465324401855 -9.748919486999512 0.07728412002325058
11.701452255249023 -9.731146812438965 0.0764080062508583
11.757740020751953 -9.736377716064453 0.07664481550455093
11.805312156677246 -9.733711242675781 0.07682086527347565
11.84709644317627 -9.726935386657715 0.07695921510457993
11.89327621459961 -9.723224639892578 0.07712680101394653
11.949703216552734 -9.727219581604004 0.07735919207334518
11.991409301757812 -9.719864845275879 0.07720251381397247
12.038376808166504 -9.716231346130371 0.07737996429204941
12.08209228515625 -9.709342956542969 0.0768732950091362
12.136759757995605 -9.711891174316406 0.0770949050784111
12.185983657836914 -9.70865249633789 0.07727377861738205
12.227487564086914 -9.70030689239502 0.07741238176822662
12.279362678527832 -9.699628829956055 0.0776117742061615
12.329113006591797 -9.696608543395996 0.07749417424201965
12.376443862915039 -9.692331314086914 0.0776657983660698
12.419565200805664 -9.684207916259766 0.07846630364656448
12.471458435058594 -9.682283401489258 0.07806579023599625
12.526946067810059 -9.68376350402832 0.07828808575868607
12.5728759765625 -9.67727279663086 0.07814890146255493
12.627649307250977 -9.676925659179688 0.07835692912340164
12.664754867553711 -9.663330078125 0.07779942452907562
12.725908279418945 -9.66742992401123 0.07804712653160095
12.76901626586914 -9.658452987670898 0.07818323373794556
12.824277877807617 -9.658096313476562 0.07840023934841156
12.875360488891602 -9.653914451599121 0.07827930897474289
12.926994323730469 -9.650787353515625 0.07847554981708527
12.971538543701172 -9.641801834106445 0.07862488925457001
13.016946792602539 -9.632835388183594 0.0787716954946518
13.075006484985352 -9.633872032165527 0.07832016050815582
13.119373321533203 -9.623390197753906 0.07846178859472275
13.177277565002441 -9.623868942260742 0.07869216799736023
13.27627182006836 -9.610694885253906 0.07872625440359116
13.331459045410156 -9.608546257019043 0.07893787324428558
13.44670295715332 -9.605818748474121 0.07937580347061157
13.497634887695312 -9.59996223449707 0.07956027239561081
13.555608749389648 -9.597655296325684 0.07908300310373306
13.604557037353516 -9.589988708496094 0.07893531024456024
13.667370796203613 -9.591873168945312 0.07988779246807098
13.7139892578125 -9.58092975616455 0.08003608137369156
13.768081665039062 -9.576265335083008 0.08023787289857864
13.885204315185547 -9.57121467590332 0.07965534925460815
13.920206069946289 -9.552789688110352 0.07974052429199219
14.044103622436523 -9.551065444946289 0.08021838963031769
14.0939302444458 -9.542236328125 0.08039127290248871
14.149759292602539 -9.536015510559082 0.08059220016002655
14.2071533203125 -9.531883239746094 0.08048129826784134
14.264509201049805 -9.527105331420898 0.07997444272041321
14.324199676513672 -9.523177146911621 0.08019281178712845
14.383756637573242 -9.519790649414062 0.08041536062955856
14.441978454589844 -9.514020919799805 0.08062520623207092
14.510647773742676 -9.516136169433594 0.08090393245220184
14.563600540161133 -9.507701873779297 0.0810851901769638
14.622676849365234 -9.501779556274414 0.08097024261951447
14.690022468566895 -9.502243041992188 0.08123330771923065
14.732534408569336 -9.486434936523438 0.08062312006950378
14.806655883789062 -9.489479064941406 0.08092258125543594
14.851367950439453 -9.474713325500488 0.08105585724115372
14.928059577941895 -9.47971248626709 0.08136589080095291
14.975189208984375 -9.465209007263184 0.0815168246626854
15.030576705932617 -9.456623077392578 0.08137378096580505
15.095233917236328 -9.452350616455078 0.08228875696659088
15.163856506347656 -9.451571464538574 0.08255578577518463
15.212742805480957 -9.438263893127441 0.08271665871143341
15.277676582336426 -9.43341064453125 0.08296000957489014
15.348001480102539 -9.432896614074707 0.08323746919631958
15.423015594482422 -9.434961318969727 0.0827760100364685
15.475349426269531 -9.421606063842773 0.0826016440987587
15.546943664550781 -9.421028137207031 0.0828828513622284
15.610075950622559 -9.415050506591797 0.08312089741230011
15.670618057250977 -9.40597152709961 0.08332502841949463
15.72736930847168 -9.395692825317383 0.08352750539779663
15.812387466430664 -9.400708198547363 0.0838746726512909
15.857444763183594 -9.383010864257812 0.08401129394769669
15.92371654510498 -9.377665519714355 0.08313018083572388
15.992033958435059 -9.371946334838867 0.08337978273630142
16.065170288085938 -9.370072364807129 0.08365888893604279
16.114788055419922 -9.352933883666992 0.08381226658821106
16.18814468383789 -9.350652694702148 0.08409523218870163
16.268945693969727 -9.352354049682617 0.08441288024187088
16.332992553710938 -9.34280776977539 0.08464176952838898
16.388540267944336 -9.329498291015625 0.08446644991636276
16.46629524230957 -9.328570365905762 0.08397176861763
16.53479766845703 -9.32077693939209 0.08422084897756577
16.62158203125 -9.324296951293945 0.08456730842590332
16.67359161376953 -9.308035850524902 0.08618833124637604
16.74285888671875 -9.299848556518555 0.08563446998596191
16.8204288482666 -9.297310829162598 0.08556613326072693
16.890708923339844 -9.289107322692871 0.08582612127065659
16.95423126220703 -9.278268814086914 0.08604784309864044
17.034809112548828 -9.276479721069336 0.08635862171649933
17.111785888671875 -9.271059036254883 0.08665046840906143
17.188356399536133 -9.26645565032959 0.08694116771221161
17.25318145751953 -9.255245208740234 0.08717064559459686
17.40280532836914 -9.241340637207031 0.08652813732624054
17.476627349853516 -9.234098434448242 0.08680033683776855
17.56096649169922 -9.230728149414062 0.08712078630924225
17.642898559570312 -9.227116584777832 0.08743400871753693
17.777482986450195 -9.20236587524414 0.08790342509746552
17.86832618713379 -9.202423095703125 0.08826068788766861
17.952152252197266 -9.197127342224121 0.08819404244422913
18.030475616455078 -9.19006633758545 0.0876389667391777
18.10162353515625 -9.178101539611816 0.08788285404443741
18.186450958251953 -9.173284530639648 0.08820347487926483
18.250892639160156 -9.158329010009766 0.08842027187347412
18.33452033996582 -9.151315689086914 0.08873271942138672
18.419742584228516 -9.14615535736084 0.08818882703781128
18.487192153930664 -9.131872177124023 0.0903816670179367
18.573787689208984 -9.12533950805664 0.09071128815412521
18.655359268188477 -9.117406845092773 0.09101888537406921
18.758344650268555 -9.119562149047852 0.09142852574586868
18.81603240966797 -9.097963333129883 0.09161338955163956
18.91114616394043 -9.095582008361816 0.09110209345817566
18.992382049560547 -9.08519172668457 0.09100135415792465
19.08226776123047 -9.079130172729492 0.09133996069431305
19.165512084960938 -9.070011138916016 0.09164749830961227
19.2498722076416 -9.060100555419922 0.09196016192436218
19.33957862854004 -9.052895545959473 0.09229627251625061
19.435861587524414 -9.048843383789062 0.09266945719718933
19.505943298339844 -9.030818939208984 0.09290958195924759
19.602359771728516 -9.026107788085938 0.09327852725982666
19.67243003845215 -9.008938789367676 0.09220260381698608
19.76968765258789 -9.002439498901367 0.09256807714700699
19.86962127685547 -8.998207092285156 0.09294924139976501
19.96476936340332 -8.990407943725586 0.09330481290817261
20.045766830444336 -8.976436614990234 0.0935962051153183
20.143512725830078 -8.970069885253906 0.09396576136350632
20.225208282470703 -8.955184936523438 0.09425652772188187
20.323627471923828 -8.94790267944336 0.09462946653366089
20.413631439208984 -8.935979843139648 0.093599334359169
20.513336181640625 -8.928481101989746 0.09303010255098343
20.599288940429688 -8.915090560913086 0.09589896351099014
20.77469825744629 -8.887316703796387 0.09654046595096588
20.875869750976562 -8.879392623901367 0.09692477434873581
20.983863830566406 -8.872438430786133 0.09690427035093307
21.093263626098633 -8.867142677307129 0.09732452034950256
21.17443084716797 -8.849601745605469 0.09761396795511246
21.276565551757812 -8.838945388793945 0.09799748659133911
21.37234878540039 -8.826774597167969 0.09738284349441528
21.563753128051758 -8.799705505371094 0.09808523952960968
21.67310333251953 -8.79190731048584 0.09849943965673447
21.88182830810547 -8.769442558288574 0.09883059561252594
21.980735778808594 -8.756183624267578 0.09919527918100357
22.185094833374023 -8.729515075683594 0.09995048493146896
22.300321578979492 -8.721456527709961 0.09938210994005203
22.38222885131836 -8.698408126831055 0.09966409206390381
22.44676971435547 -8.669917106628418 0.09987115859985352
22.49557876586914 -8.634084701538086 0.10000677406787872
22.547815322875977 -8.599996566772461 0.10015869140625
22.562307357788086 -8.551935195922852 0.09968042373657227
22.605457305908203 -8.513602256774902 0.09878097474575043
22.621265411376953 -8.465499877929688 0.10109008848667145
22.61474609375 -8.408522605895996 0.10098486393690109
22.621723175048828 -8.3577241897583 0.10093875229358673
22.642013549804688 -8.31136703491211 0.10095159709453583
22.636032104492188 -8.254837036132812 0.10084674507379532
22.63990020751953 -8.202564239501953 0.09931670129299164
22.647705078125 -8.152265548706055 0.09927570819854736
22.652973175048828 -8.100030899047852 0.09922511130571365
22.649860382080078 -8.045454025268555 0.09913751482963562
22.641315460205078 -7.989544868469238 0.09902841597795486
22.66608238220215 -7.944365501403809 0.09905999153852463
22.65102767944336 -7.885858535766602 0.09892348945140839
22.648033142089844 -7.831099987030029 0.0988403856754303
22.673065185546875 -7.786628246307373 0.09787623584270477
22.689746856689453 -7.739755630493164 0.09741495549678802
22.70532989501953 -7.691449165344238 0.09740819036960602
22.6978759765625 -7.635968208312988 0.09730587154626846
22.735502243041992 -7.596141338348389 0.09740041196346283
22.734664916992188 -7.542397499084473 0.09732930362224579
22.753814697265625 -7.495886325836182 0.0973426103591919
22.785057067871094 -7.452744007110596 0.09741091728210449
22.795820236206055 -7.403934001922607 0.09739206731319427
22.81393814086914 -7.357032299041748 0.09740135073661804
22.822126388549805 -7.306369304656982 0.0973697230219841
22.838218688964844 -7.2588210105896 0.0978337749838829
22.849103927612305 -7.210109710693359 0.09781557321548462
22.854759216308594 -7.158727645874023 0.09777739644050598
22.90750503540039 -7.0174174308776855 0.09634968638420105
22.88661003112793 -6.9586181640625 0.09619927406311035
22.900197982788086 -6.858004570007324 0.0961357057094574
22.905309677124023 -6.807292938232422 0.09609710425138474
22.915056228637695 -6.705290794372559 0.0960191860795021
22.934635162353516 -6.55478048324585 0.09446685761213303
22.945892333984375 -6.402239799499512 0.09434778243303299
22.963802337646484 -6.303118705749512 0.09430839121341705
22.95842933654785 -6.250441074371338 0.09423477202653885
22.971296310424805 -6.150149822235107 0.09318404644727707
22.97945213317871 -6.100227355957031 0.09415768086910248
23.002649307250977 -6.0038275718688965 0.09369537234306335
23.008363723754883 -5.953319549560547 0.09366565942764282
23.030170440673828 -5.8555908203125 0.0931975394487381
23.040159225463867 -5.807253837585449 0.09319014102220535
23.03734588623047 -5.755257606506348 0.09213534742593765
23.057558059692383 -5.7084736824035645 0.09216682612895966
23.05234146118164 -5.656437397003174 0.0920974388718605
23.079282760620117 -5.611827850341797 0.09215852618217468
23.0770263671875 -5.559561252593994 0.09210182726383209
23.08349609375 -5.510462760925293 0.0920834019780159
23.065322875976562 -5.455089569091797 0.09196305274963379
23.102563858032227 -5.412277698516846 0.09160987287759781
23.114830017089844 -5.364574432373047 0.0916130393743515
23.100202560424805 -5.309201240539551 0.09151195734739304
23.08991241455078 -5.256413459777832 0.09043975919485092
23.12299156188965 -5.213495254516602 0.09052203595638275
23.11770248413086 -5.160431861877441 0.09045404195785522
23.107328414916992 -5.107799053192139 0.09037941694259644
23.095983505249023 -5.054579734802246 0.09029088169336319
23.064258575439453 -4.996492385864258 0.09012278914451599
23.021968841552734 -4.886924743652344 0.09086494892835617
22.98164939880371 -4.777309894561768 0.0888262391090393
22.912395477294922 -4.7123332023620605 0.08851981163024902
22.939990997314453 -4.668410301208496 0.08858881145715714
22.892732620239258 -4.608882904052734 0.08836884051561356
22.907447814941406 -4.561403751373291 0.08838815987110138
22.898700714111328 -4.510278701782227 0.0878719612956047
22.885955810546875 -4.407729148864746 0.087751105427742
22.893592834472656 -4.359949111938477 0.0877450481057167
22.868881225585938 -4.255518913269043 0.08660614490509033
22.779333114624023 -4.189515113830566 0.08623360097408295
22.855093002319336 -4.055076599121094 0.08642218261957169
22.79083251953125 -3.503424644470215 0.08514481782913208
22.766712188720703 -3.352372646331787 0.08356977999210358
22.732088088989258 -3.250497341156006 0.08338870108127594
22.731395721435547 -3.201303243637085 0.08336374163627625
22.726255416870117 -3.1524972915649414 0.08331689238548279
22.70830535888672 -3.1005775928497314 0.08323118835687637
22.71735382080078 -3.053804874420166 0.08324135839939117
22.704267501831055 -3.004091739654541 0.08317070454359055
22.674510955810547 -2.9508824348449707 0.08303777128458023
22.65691566467285 -2.900791883468628 0.08295141160488129
22.66136932373047 -2.85357666015625 0.08198623359203339
22.6442928314209 -2.8022985458374023 0.08147291094064713
22.633102416992188 -2.753239154815674 0.08140797168016434
22.611713409423828 -2.703031301498413 0.0813087522983551
22.628725051879883 -2.656045436859131 0.08135438710451126
22.592426300048828 -2.6042675971984863 0.08119887113571167
22.59889030456543 -2.5561060905456543 0.08120697736740112
22.585723876953125 -2.5071587562561035 0.08114168792963028
22.606874465942383 -2.4620254039764404 0.08310812711715698
22.558536529541016 -2.4080114364624023 0.0798751711845398
22.570322036743164 -2.361907720565796 0.0799073651432991
22.56098175048828 -2.3136096000671387 0.07985684275627136
22.567285537719727 -2.265550374984741 0.07986222952604294
22.560991287231445 -2.2176380157470703 0.07982419431209564
22.562868118286133 -2.1705574989318848 0.0798138678073883
22.540348052978516 -2.1198034286499023 0.07972173392772675
22.53988265991211 -2.0725808143615723 0.07970607280731201
22.53607940673828 -2.023690938949585 0.07829777896404266
22.536672592163086 -1.9766077995300293 0.07828553020954132
22.525146484375 -1.9285013675689697 0.07823212444782257
22.505107879638672 -1.8313467502593994 0.078132763504982
22.500301361083984 -1.688638687133789 0.07808136940002441
22.47467041015625 -1.5446946620941162 0.07795717567205429
22.480634689331055 -1.4031689167022705 0.07752341032028198
22.46995735168457 -0.976146399974823 0.07623077929019928
22.434555053710938 -0.8333415389060974 0.07471710443496704
22.40457534790039 -0.6912153363227844 0.07460910081863403
22.349828720092773 -0.5953237414360046 0.07441746443510056
22.348161697387695 -0.5488718152046204 0.07441502809524536
22.300167083740234 -0.4537302851676941 0.07424365729093552
22.29244041442871 -0.4072946310043335 0.07421505451202393
22.284204483032227 -0.31327131390571594 0.07418037205934525
22.26358985900879 -0.26677191257476807 0.07412081956863403
22.276199340820312 -0.21933040022850037 0.07373429834842682
22.242687225341797 -0.17283886671066284 0.07455924898386002
22.22603416442871 -0.12564949691295624 0.07229601591825485
22.227893829345703 -0.07910925149917603 0.07231837511062622
22.23265266418457 -0.03298898786306381 0.07232801616191864
20.232759475708008 0.178278386592865 -0.003416286315768957
20.207508087158203 0.305111825466156 -0.0034137286711484194
20.174423217773438 0.38960087299346924 -0.0034091195557266474
20.196495056152344 0.4319559335708618 -0.003412277903407812
20.12164306640625 0.6417444944381714 -0.004235704429447651
20.04584503173828 0.7655023336410522 -0.004218993708491325
20.00052261352539 0.8897227048873901 -0.004601455293595791
19.526988983154297 2.520719289779663 -0.007364765740931034
19.46239471435547 2.6368751525878906 -0.007347785402089357
19.436676025390625 2.757932186126709 -0.007776332087814808
19.39657211303711 2.8356235027313232 -0.007762851193547249
19.41126251220703 2.8789267539978027 -0.007771279662847519
19.35965919494629 2.9546518325805664 -0.007759381551295519
19.317611694335938 2.989269256591797 -0.00774479191750288
19.269939422607422 3.065044641494751 -0.007734768092632294
19.24117660522461 3.10142183303833 -0.008910696022212505
18.370569229125977 4.405610084533691 -0.010164936073124409
18.343318939208984 4.439350605010986 -0.010943026281893253
18.31275749206543 4.513677597045898 -0.010517348535358906
18.27760887145996 4.545269012451172 -0.010503816418349743
18.242345809936523 4.618162631988525 -0.011640768498182297
18.22870445251465 4.6549835205078125 -0.011639110743999481
18.199478149414062 4.6889567375183105 -0.011629369109869003
18.161466598510742 4.719374656677246 -0.011610063724219799
18.130290985107422 4.751460075378418 -0.01159627828747034
18.080114364624023 4.8197736740112305 -0.011579838581383228
18.071657180786133 4.85770845413208 -0.01157913077622652
18.01188850402832 4.92307186126709 -0.011557133868336678
17.96907615661621 5.032985210418701 -0.011549324728548527
17.90381622314453 5.136307239532471 -0.012303781695663929
17.85297203063965 5.243413925170898 -0.01265420950949192
17.77212142944336 5.3416337966918945 -0.012257938273251057
17.375457763671875 5.987052917480469 -0.013623797334730625
17.323257446289062 6.091979026794434 -0.013618191704154015
17.244260787963867 6.18628454208374 -0.01358098816126585
17.211517333984375 6.255664348602295 -0.013578338548541069
17.187301635742188 6.288084983825684 -0.013569645583629608
17.149551391601562 6.355478286743164 -0.014328043907880783
17.12469482421875 6.387529373168945 -0.014318988658487797
17.078720092773438 6.452442169189453 -0.01430081482976675
17.0390567779541 6.4778947830200195 -0.014273821376264095
17.03554344177246 6.517430305480957 -0.01428270060569048
17.026262283325195 6.555231094360352 -0.014639120548963547
16.99042510986328 6.5819501876831055 -0.014619722031056881
16.981632232666016 6.619484901428223 -0.014629595912992954
16.96338653564453 6.653774261474609 -0.014630715362727642
