VERSION .7
FIELDS x y z
SIZE 4 4 4
TYPE F F F
COUNT 1 1 1
WIDTH 832
HEIGHT 1
VIEWPOINT 0 0 0 1 0 0 0
POINTS 832
DATA ascii
9.783138275146484 6.580181121826172 -0.20511126518249512
9.752420425415039 6.588955879211426 -0.20441864430904388
9.711251258850098 6.591399669647217 -0.2034677267074585
9.680471420288086 6.599893569946289 -0.2023940533399582
9.640413284301758 6.602331161499023 -0.2018464356660843
9.608064651489258 6.609970569610596 -0.20074838399887085
9.566082000732422 6.610376834869385 -0.19982632994651794
9.544126510620117 6.624913215637207 -0.19927985966205597
9.507102966308594 6.6289520263671875 -0.19846823811531067
9.469778060913086 6.632174491882324 -0.1975991427898407
9.424461364746094 6.630490303039551 -0.19662070274353027
9.399617195129395 6.642214775085449 -0.196014404296875
9.363326072692871 6.646145820617676 -0.1948477029800415
9.320779800415039 6.645535945892334 -0.19425339996814728
9.287059783935547 6.650606155395508 -0.1937445104122162
9.265974998474121 6.665040493011475 -0.19289863109588623
9.225881576538086 6.66575288772583 -0.19235646724700928
9.1542329788208 6.672386646270752 -0.19042862951755524
9.131603240966797 6.685410499572754 -0.1898803412914276
9.062952041625977 6.693957805633545 -0.18834897875785828
9.019868850708008 6.6911091804504395 -0.18705779314041138
8.957117080688477 6.70322322845459 -0.18565720319747925
8.925758361816406 6.708697319030762 -0.1849769651889801
8.892203330993652 6.713250637054443 -0.18421581387519836
8.869813919067383 6.7252912521362305 -0.1837233155965805
8.798007011413574 6.729386329650879 -0.18178397417068481
8.77510929107666 6.740781784057617 -0.18128472566604614
8.71066951751709 6.749802589416504 -0.17986515164375305
8.67927360534668 6.754345893859863 -0.17914794385433197
8.61375617980957 6.7617974281311035 -0.17740210890769958
8.576066970825195 6.761418342590332 -0.17656315863132477
8.552868843078613 6.772409915924072 -0.1760675609111786
8.515755653381348 6.771821975708008 -0.1755027025938034
8.485234260559082 6.776737213134766 -0.1745023876428604
8.45145034790039 6.7789812088012695 -0.17379428446292877
8.428494453430176 6.789755821228027 -0.17326319217681885
8.390628814697266 6.78801155090332 -0.17246536910533905
8.356048583984375 6.789226531982422 -0.17169901728630066
8.333699226379395 6.8002214431762695 -0.17087675631046295
8.306386947631836 6.807151794433594 -0.17030641436576843
8.264123916625977 6.80123233795166 -0.16937768459320068
8.249279022216797 6.818172454833984 -0.16871309280395508
8.2158203125 6.8197174072265625 -0.16801884770393372
8.192256927490234 6.828920841217041 -0.16748058795928955
8.144147872924805 6.818357467651367 -0.1664901077747345
8.12462043762207 6.830737113952637 -0.16573315858840942
8.089670181274414 6.830451488494873 -0.1649671494960785
8.064151763916016 6.838070869445801 -0.16444143652915955
8.024203300476074 6.832873344421387 -0.16327223181724548
8.005510330200195 6.846059799194336 -0.1628391146659851
7.978856086730957 6.852435111999512 -0.1622912436723709
7.948269844055176 6.8548784255981445 -0.16161730885505676
7.910956382751465 6.851769924163818 -0.16050967574119568
7.899252891540527 6.870826721191406 -0.16027089953422546
7.8586530685424805 6.864604949951172 -0.15939709544181824
7.839171409606934 6.876772880554199 -0.15866073966026306
7.802802085876465 6.873573303222656 -0.15851017832756042
7.7785186767578125 6.881296157836914 -0.15767315030097961
7.747375011444092 6.882909774780273 -0.15670569241046906
7.721510887145996 6.888655662536621 -0.1564677655696869
7.69830846786499 6.897094249725342 -0.15566325187683105
7.667790412902832 6.898942470550537 -0.1547079086303711
7.608674049377441 6.903504848480225 -0.1534692645072937
7.581938743591309 6.908441543579102 -0.15259715914726257
7.518153190612793 6.908493995666504 -0.15127530694007874
7.499801158905029 6.9203901290893555 -0.15057286620140076
7.4343061447143555 6.918148994445801 -0.1492198407649994
7.391207695007324 6.936355113983154 -0.14803443849086761
7.360182762145996 6.936020851135254 -0.14736878871917725
7.306769847869873 6.94401741027832 -0.14598394930362701
7.288625240325928 6.955616474151611 -0.1455785632133484
7.236014366149902 6.963871002197266 -0.14421620965003967
7.208223342895508 6.965995788574219 -0.14333654940128326
7.181182861328125 6.969593048095703 -0.14276722073554993
7.148830413818359 6.967061996459961 -0.14213073253631592
7.126006126403809 6.9741058349609375 -0.14163970947265625
7.100513458251953 6.978518962860107 -0.140815868973732
7.067809104919434 6.9752702713012695 -0.14017179608345032
7.0453691482543945 6.98244047164917 -0.1396963894367218
7.020066738128662 6.986756324768066 -0.13888588547706604
6.988642692565918 6.984409332275391 -0.13826480507850647
6.966015815734863 6.991147994995117 -0.13750767707824707
6.937352180480957 6.991794586181641 -0.1369127482175827
6.918937683105469 7.002635955810547 -0.1362343728542328
6.88883638381958 7.0016279220581055 -0.13565322756767273
6.869227409362793 7.010740280151367 -0.1352350264787674
6.833591461181641 7.003782272338867 -0.13422492146492004
6.827910423278809 7.027533531188965 -0.13412463665008545
6.788616180419922 7.0161638259887695 -0.13304521143436432
6.765169620513916 7.021885871887207 -0.13256201148033142
6.739557266235352 7.024417877197266 -0.131749227643013
6.71726655960083 7.030330657958984 -0.13132193684577942
6.686960220336914 7.028611183166504 -0.13043029606342316
6.664012432098389 7.033662796020508 -0.12995098531246185
6.646088600158691 7.044366359710693 -0.12961556017398834
6.618694305419922 7.045021057128906 -0.12878014147281647
6.580293655395508 7.033336639404297 -0.12772753834724426
6.571310520172119 7.0534186363220215 -0.1275278478860855
6.546401023864746 7.056445121765137 -0.1273733377456665
6.521907806396484 7.059368133544922 -0.1265927404165268
6.493584632873535 7.058905124664307 -0.12574991583824158
6.469538688659668 7.062122344970703 -0.1252988874912262
6.440282821655273 7.059543609619141 -0.12470275163650513
6.425783157348633 7.073941230773926 -0.12413085252046585
6.392589092254639 7.066809177398682 -0.12319128215312958
6.344466209411621 7.073261260986328 -0.12198489904403687
6.324539661407471 7.0805511474609375 -0.12157317996025085
6.28439998626709 7.095534801483154 -0.12052784860134125
6.23081111907959 7.095006465911865 -0.11918756365776062
6.207669258117676 7.098311424255371 -0.11845266819000244
6.162139892578125 7.106423377990723 -0.11731202155351639
6.140892505645752 7.111682891845703 -0.11688047647476196
6.119568824768066 7.117669582366943 -0.11619038134813309
6.091177940368652 7.1144609451293945 -0.11536049842834473
6.075737953186035 7.126308441162109 -0.11508142948150635
6.051963806152344 7.129214286804199 -0.11434848606586456
6.029531002044678 7.132737636566162 -0.11390010267496109
6.00396728515625 7.1324663162231445 -0.1131276935338974
5.982363224029541 7.137693881988525 -0.11278129369020462
5.959607124328613 7.140590190887451 -0.11206388473510742
5.934628009796143 7.141144752502441 -0.11187615990638733
5.915186882019043 7.148350238800049 -0.11122611165046692
5.891911506652832 7.1503801345825195 -0.11050274968147278
5.87274694442749 7.158226013183594 -0.10986518114805222
5.841652870178223 7.150535583496094 -0.10929761826992035
5.8235883712768555 7.158693313598633 -0.10893608629703522
5.802174091339111 7.163575172424316 -0.10826054960489273
5.782088279724121 7.1691436767578125 -0.10760024189949036
5.7546563148498535 7.165510177612305 -0.10680442303419113
5.738709926605225 7.177004337310791 -0.10623203963041306
5.707941055297852 7.168974876403809 -0.10593873262405396
5.690676689147949 7.178229331970215 -0.10533912479877472
5.664566993713379 7.176313400268555 -0.10457714647054672
5.645421028137207 7.182656288146973 -0.10394001007080078
5.625444412231445 7.188796520233154 -0.10329775512218475
5.600624084472656 7.1877617835998535 -0.10285679996013641
5.5802507400512695 7.192350387573242 -0.10245971381664276
5.5626983642578125 7.201437950134277 -0.10186440497636795
5.537097930908203 7.199128150939941 -0.10111407935619354
5.515416145324707 7.202239513397217 -0.10044200718402863
5.4962477684021 7.208634376525879 -0.10011060535907745
5.481112480163574 7.219809055328369 -0.09955431520938873
5.446451663970947 7.206064701080322 -0.09924113005399704
5.436059474945068 7.223428726196289 -0.09877284616231918
5.410045623779297 7.219997882843018 -0.0980214774608612
5.392547607421875 7.228774070739746 -0.09769025444984436
5.363580703735352 7.221161842346191 -0.09718064963817596
5.340432167053223 7.221253871917725 -0.09648429602384567
5.322815418243408 7.229687213897705 -0.09589681029319763
5.307814121246338 7.240735054016113 -0.09534902125597
5.2800469398498535 7.234292984008789 -0.09457298368215561
5.26009464263916 7.239381790161133 -0.09420062601566315
5.237632751464844 7.240015506744385 -0.09352199733257294
5.219682693481445 7.247755527496338 -0.09322352707386017
5.195226669311523 7.245455741882324 -0.09251084178686142
5.180172920227051 7.25621223449707 -0.09196650981903076
5.157092571258545 7.256613254547119 -0.09128832817077637
5.1317901611328125 7.252839088439941 -0.09056433290243149
5.114293098449707 7.260014533996582 -0.0902319997549057
5.0977020263671875 7.269397735595703 -0.08967139571905136
5.070279121398926 7.262304306030273 -0.089201420545578
5.053128242492676 7.269834518432617 -0.088624507188797
5.029618263244629 7.269096374511719 -0.08794474601745605
5.014378547668457 7.279308319091797 -0.08740264177322388
4.985832691192627 7.271068572998047 -0.0866374671459198
4.973662376403809 7.2856903076171875 -0.08615005761384964
4.948853969573975 7.281754970550537 -0.08601761609315872
4.933636665344238 7.292827129364014 -0.0854862630367279
4.907729148864746 7.287067413330078 -0.08501344919204712
4.868010520935059 7.294206619262695 -0.08407236635684967
4.8451828956604 7.292733192443848 -0.08340512216091156
4.822101593017578 7.291738986968994 -0.08274098485708237
4.810790538787842 7.307550430297852 -0.08227358013391495
4.792720317840576 7.3130998611450195 -0.08168970048427582
4.765350818634033 7.305330276489258 -0.08095715939998627
4.743810653686523 7.305393218994141 -0.08031681180000305
4.724887371063232 7.309416770935059 -0.07996922731399536
4.701884746551514 7.308027267456055 -0.07931369543075562
4.689098358154297 7.321498870849609 -0.07910633087158203
4.667719841003418 7.321529388427734 -0.07847191393375397
4.647675514221191 7.324559211730957 -0.07786905020475388
4.6238555908203125 7.320556640625 -0.07719545066356659
4.604807376861572 7.324546813964844 -0.07660606503486633
4.583708763122559 7.325141429901123 -0.07598450779914856
4.575599193572998 7.346038818359375 -0.07557445764541626
4.547429084777832 7.335685729980469 -0.07508651912212372
4.527968406677246 7.338254451751709 -0.07449008524417877
4.51332950592041 7.348610877990723 -0.07397341728210449
4.491688251495361 7.348530292510986 -0.07363066077232361
4.469586372375488 7.346589088439941 -0.07327310740947723
4.4591474533081055 7.363800525665283 -0.07282736897468567
4.440267562866211 7.368099689483643 -0.07225051522254944
4.419208526611328 7.367697715759277 -0.07163311541080475
4.39447021484375 7.361586570739746 -0.07095982134342194
4.3818359375 7.375631332397461 -0.07072609663009644
4.350676536560059 7.357912063598633 -0.06994736194610596
4.338552951812744 7.372835159301758 -0.0694800540804863
4.316075325012207 7.370065689086914 -0.06884759664535522
4.302691459655762 7.382299423217773 -0.06835711747407913
4.277073383331299 7.374510765075684 -0.06795765459537506
4.262641906738281 7.384897232055664 -0.06745097041130066
4.237779140472412 7.377696514129639 -0.06678366661071777
4.225102424621582 7.391585826873779 -0.06630945205688477
4.200138568878174 7.383434295654297 -0.06564044207334518
4.181593894958496 7.387020111083984 -0.06507528573274612
4.168124675750732 7.399491310119629 -0.06458882987499237
4.1492509841918945 7.4018659591674805 -0.06425818800926208
4.121048927307129 7.388515472412109 -0.06354863941669464
4.10598611831665 7.397553443908691 -0.06303637474775314
4.090232849121094 7.405346870422363 -0.06251464784145355
4.070000648498535 7.406054496765137 -0.06193149462342262
4.052032470703125 7.409748554229736 -0.06137585639953613
4.0389204025268555 7.4223175048828125 -0.06089518219232559
4.01717472076416 7.420066833496094 -0.06080538034439087
3.994004249572754 7.413976192474365 -0.06017359346151352
5.746681213378906 -10.089112281799316 -0.05934356898069382
5.76971435546875 -10.080848693847656 -0.059693094342947006
5.822441577911377 -10.074323654174805 -0.06122303754091263
5.853925704956055 -10.08045768737793 -0.061710476875305176
5.905783653259277 -10.071844100952148 -0.06323865801095963
5.988423824310303 -10.067194938659668 -0.06563414633274078
6.962315559387207 -10.004727363586426 -0.08997106552124023
7.0515289306640625 -9.998271942138672 -0.09180345386266708
7.117468357086182 -10.002063751220703 -0.09361021220684052
7.210384368896484 -9.998970985412598 -0.0958603024482727
7.230325222015381 -9.982892990112305 -0.09625163674354553
7.2939300537109375 -9.981949806213379 -0.09804637730121613
7.327760696411133 -9.984685897827148 -0.09907747060060501
7.383876800537109 -9.972822189331055 -0.10078292340040207
7.415285110473633 -9.971905708312988 -0.10168717801570892
7.471508026123047 -9.959640502929688 -0.10264274477958679
7.51576042175293 -9.975439071655273 -0.10372814536094666
7.581863880157471 -9.975484848022461 -0.10558970272541046
7.6064581871032715 -9.964851379394531 -0.10605151951313019
8.580730438232422 -9.884012222290039 -0.12915711104869843
8.684928894042969 -9.87725830078125 -0.13181576132774353
8.763989448547363 -9.883575439453125 -0.13357092440128326
8.792256355285645 -9.873452186584473 -0.13411454856395721
8.86890983581543 -9.87547492980957 -0.13583718240261078
8.902580261230469 -9.871681213378906 -0.13647277653217316
8.966865539550781 -9.859161376953125 -0.13806498050689697
9.002065658569336 -9.856694221496582 -0.13867254555225372
9.043355941772461 -9.860166549682617 -0.1398082971572876
9.070842742919922 -9.848386764526367 -0.14034341275691986
9.115333557128906 -9.855567932128906 -0.14153704047203064
9.143941879272461 -9.844871520996094 -0.1420404016971588
9.21340274810791 -9.836816787719727 -0.14374105632305145
9.334453582763672 -9.841316223144531 -0.14632101356983185
9.438297271728516 -9.825776100158691 -0.14902141690254211
9.558113098144531 -9.82611083984375 -0.1520567536354065
10.24424934387207 -9.764819145202637 -0.1672971248626709
10.372175216674805 -9.763046264648438 -0.17011967301368713
10.441495895385742 -9.745688438415527 -0.17145442962646484
10.4853515625 -9.74598503112793 -0.17271670699119568
10.524187088012695 -9.740816116333008 -0.17348557710647583
10.57266902923584 -9.744474411010742 -0.17435482144355774
10.60108470916748 -9.73005485534668 -0.1753683239221573
10.655668258666992 -9.738853454589844 -0.17681238055229187
10.676685333251953 -9.7169189453125 -0.17682158946990967
10.734418869018555 -9.728177070617676 -0.17732012271881104
10.772493362426758 -9.722043991088867 -0.178501158952713
10.815662384033203 -9.719795227050781 -0.17929178476333618
10.901653289794922 -9.714395523071289 -0.1814039647579193
10.990941047668457 -9.711785316467285 -0.1831076443195343
11.017642974853516 -9.694181442260742 -0.18410837650299072
11.11812973022461 -9.700387954711914 -0.18600858747959137
11.151058197021484 -9.687878608703613 -0.1871199756860733
11.251492500305176 -9.69228744506836 -0.18902496993541718
11.286542892456055 -9.681751251220703 -0.190184086561203
11.374431610107422 -9.67428970336914 -0.19188782572746277
11.642627716064453 -9.652774810791016 -0.19804251194000244
12.345833778381348 -9.59619140625 -0.21265092492103577
12.495051383972168 -9.586775779724121 -0.2160990834236145
12.593526840209961 -9.57834529876709 -0.2185867726802826
12.64651870727539 -9.577287673950195 -0.21960993111133575
12.69115161895752 -9.569064140319824 -0.2205512970685959
12.74458122253418 -9.567365646362305 -0.2215844839811325
12.7977294921875 -9.565803527832031 -0.2231397032737732
12.85622787475586 -9.567358016967773 -0.22432783246040344
12.895204544067383 -9.554279327392578 -0.22511565685272217
12.956071853637695 -9.55714225769043 -0.22569304704666138
13.009852409362793 -9.554620742797852 -0.22673724591732025
13.062810897827148 -9.551847457885742 -0.22829991579055786
13.103428840637207 -9.539226531982422 -0.22866041958332062
13.1671781539917 -9.54332160949707 -0.230416402220726
13.265681266784668 -9.530330657958984 -0.2324369102716446
13.309293746948242 -9.519277572631836 -0.23385243117809296
13.423772811889648 -9.515960693359375 -0.23615950345993042
13.481956481933594 -9.515230178833008 -0.237836554646492
13.574520111083984 -9.495168685913086 -0.23977133631706238
13.60153579711914 -9.472088813781738 -0.2398914396762848
13.64467716217041 -9.417047500610352 -0.2419603168964386
13.676907539367676 -9.312902450561523 -0.2424967885017395
13.785259246826172 -8.886550903320312 -0.24722397327423096
13.810409545898438 -8.78035831451416 -0.24868354201316833
13.81392765045166 -8.701120376586914 -0.24907860159873962
13.833925247192383 -8.673669815063477 -0.2501049041748047
13.845489501953125 -8.599902153015137 -0.2506505846977234
13.855594635009766 -8.566384315490723 -0.2505122423171997
13.864629745483398 -8.531625747680664 -0.2513498365879059
13.868972778320312 -8.49413013458252 -0.25209465622901917
13.866933822631836 -8.453360557556152 -0.25173258781433105
13.87594223022461 -8.41824722290039 -0.2525542676448822
13.891084671020508 -8.388046264648438 -0.25251415371894836
13.888711929321289 -8.347332000732422 -0.25314784049987793
13.91462516784668 -8.32249641418457 -0.253293514251709
13.899255752563477 -8.274190902709961 -0.2536869943141937
13.914051055908203 -8.24332332611084 -0.2546314597129822
13.917741775512695 -8.206008911132812 -0.2548418641090393
13.9283447265625 -8.173355102539062 -0.2552450895309448
13.924562454223633 -8.131196975708008 -0.2553180456161499
13.941032409667969 -8.102066040039062 -0.25583988428115845
13.955333709716797 -8.031946182250977 -0.256916880607605
13.956939697265625 -7.994357585906982 -0.2571656107902527
13.974048614501953 -7.926187515258789 -0.257846474647522
13.985797882080078 -7.894535064697266 -0.25821101665496826
13.988409042358398 -7.818511962890625 -0.25862741470336914
14.01159954071045 -7.716272830963135 -0.25964829325675964
14.043691635131836 -7.391170024871826 -0.26349160075187683
14.057568550109863 -7.285991668701172 -0.2643095552921295
14.08365249633789 -7.224429130554199 -0.26518887281417847
14.095953941345215 -7.119163990020752 -0.26605525612831116
14.087102890014648 -7.078040599822998 -0.26604825258255005
14.1072998046875 -7.013935089111328 -0.26683181524276733
14.126791954040527 -6.9871015548706055 -0.26744624972343445
14.110458374023438 -6.9415459632873535 -0.26729902625083923
14.128963470458984 -6.914270401000977 -0.2678963541984558
14.12352180480957 -6.8753156661987305 -0.2679651081562042
14.133028030395508 -6.842636585235596 -0.26838526129722595
14.136869430541992 -6.808318614959717 -0.2686319351196289
14.151824951171875 -6.7793779373168945 -0.269163578748703
14.150208473205566 -6.741477012634277 -0.2692980170249939
14.169586181640625 -6.714665412902832 -0.2699137330055237
14.162721633911133 -6.67440128326416 -0.2699527144432068
14.173521041870117 -6.643579483032227 -0.26989150047302246
14.194802284240723 -6.61717414855957 -0.27055150270462036
14.185462951660156 -6.57645320892334 -0.2721576690673828
14.180763244628906 -6.538557052612305 -0.2723241448402405
14.209076881408691 -6.515405654907227 -0.2730431854724884
14.218567848205566 -6.483517646789551 -0.27347713708877563
14.211427688598633 -6.444672107696533 -0.2735224664211273
14.221085548400879 -6.376980781555176 -0.27414190769195557
14.224039077758789 -6.342404365539551 -0.27444952726364136
14.220647811889648 -6.269708633422852 -0.27482208609580994
14.228416442871094 -6.237421989440918 -0.27515727281570435
14.243977546691895 -6.173336029052734 -0.2759040594100952
14.238992691040039 -6.064659118652344 -0.27601146697998047
14.26173210144043 -5.9687042236328125 -0.2771605849266052
14.251392364501953 -5.893969535827637 -0.2769043445587158
14.257887840270996 -5.86148738861084 -0.27773261070251465
14.243907928466797 -5.786281585693359 -0.2774944305419922
14.260211944580078 -5.757912635803223 -0.27916818857192993
14.247249603271484 -5.717855453491211 -0.2796144485473633
14.25776481628418 -5.68720817565918 -0.2795872986316681
14.245798110961914 -5.648195743560791 -0.2800566554069519
14.251967430114746 -5.6159820556640625 -0.2799449563026428
14.206302642822266 -5.563417434692383 -0.2793174982070923
14.217097282409668 -5.53364372253418 -0.2797320485115051
14.191171646118164 -5.489211082458496 -0.2789938747882843
14.20132827758789 -5.458749771118164 -0.2798956036567688
14.184019088745117 -5.41788387298584 -0.2793307900428772
14.167743682861328 -5.37747049331665 -0.27928656339645386
14.140057563781738 -5.333417892456055 -0.27894890308380127
14.139671325683594 -5.2993268966674805 -0.27921783924102783
14.12531852722168 -5.260014533996582 -0.27913838624954224
14.135404586791992 -5.2299418449401855 -0.2791197896003723
14.145007133483887 -5.200148582458496 -0.2800168991088867
14.134170532226562 -5.1623687744140625 -0.27958613634109497
14.128979682922363 -5.1268157958984375 -0.27926912903785706
14.129528045654297 -5.093332290649414 -0.2799839675426483
14.134078979492188 -5.061854839324951 -0.2798655331134796
14.109832763671875 -5.019712448120117 -0.28009146451950073
14.095535278320312 -4.981175422668457 -0.2795957326889038
14.093777656555176 -4.947233200073242 -0.2793554961681366
14.085023880004883 -4.878076553344727 -0.28080320358276367
14.093249320983887 -4.847749710083008 -0.28167471289634705
14.106550216674805 -4.785983085632324 -0.28202515840530396
14.095471382141113 -4.749629020690918 -0.2820248603820801
14.120889663696289 -4.692066192626953 -0.2830449342727661
14.097406387329102 -4.651800632476807 -0.28237855434417725
14.088621139526367 -4.615550994873047 -0.28249168395996094
14.081714630126953 -4.580952167510986 -0.28257882595062256
14.091324806213379 -4.518543243408203 -0.28287434577941895
14.079033851623535 -4.482402801513672 -0.2828560173511505
14.087420463562012 -4.419817924499512 -0.2831341326236725
14.067161560058594 -4.381417274475098 -0.28295761346817017
14.078710556030273 -4.352043151855469 -0.2830032706260681
14.086807250976562 -4.322539806365967 -0.2838848829269409
14.074827194213867 -4.286420822143555 -0.2834606468677521
14.078295707702637 -4.255139350891113 -0.2833501100540161
14.092521667480469 -4.227038383483887 -0.28435349464416504
14.066766738891602 -4.1870832443237305 -0.2836572229862213
14.066485404968262 -4.155242443084717 -0.28347617387771606
14.069169998168945 -4.123808860778809 -0.28424954414367676
14.059144973754883 -4.088777542114258 -0.28448814153671265
14.050954818725586 -4.054790019989014 -0.2846318483352661
14.055164337158203 -4.023499488830566 -0.28495603799819946
14.030515670776367 -3.9849600791931152 -0.284288227558136
14.045208930969238 -3.9576539993286133 -0.2853085398674011
14.029356956481934 -3.9208574295043945 -0.28481292724609375
14.038434028625488 -3.8920040130615234 -0.2848353683948517
14.029769897460938 -3.8577728271484375 -0.28538113832473755
14.033391952514648 -3.8270373344421387 -0.2852945029735565
14.006372451782227 -3.7884583473205566 -0.2845792770385742
14.020112991333008 -3.760051965713501 -0.2851725220680237
14.03127670288086 -3.731851577758789 -0.28564995527267456
14.008100509643555 -3.6945786476135254 -0.2850242853164673
14.003997802734375 -3.661518096923828 -0.2847782373428345
13.995765686035156 -3.628352403640747 -0.28534144163131714
13.993583679199219 -3.5959019660949707 -0.2851425111293793
14.003555297851562 -3.567502021789551 -0.28519266843795776
13.99540901184082 -3.5340263843536377 -0.2857544720172882
13.990486145019531 -3.501495361328125 -0.2855002284049988
13.986886024475098 -3.4697670936584473 -0.28527945280075073
13.97262954711914 -3.4345614910125732 -0.28571951389312744
13.98036003112793 -3.405712127685547 -0.28573256731033325
13.992584228515625 -3.3779454231262207 -0.2858397364616394
13.97641372680664 -3.3424606323242188 -0.2858375310897827
13.972594261169434 -3.310908317565918 -0.2860839366912842
13.977930068969727 -3.2815520763397217 -0.28605276346206665
13.972457885742188 -3.2487895488739014 -0.286268413066864
13.95920467376709 -3.215188503265381 -0.2858603298664093
13.972650527954102 -3.18686842918396 -0.2863990068435669
13.961563110351562 -3.153873920440674 -0.28604185581207275
13.956367492675781 -3.122274398803711 -0.2862679064273834
13.951566696166992 -3.0899198055267334 -0.28603339195251465
13.953269958496094 -3.0599350929260254 -0.2863386273384094
13.952821731567383 -3.028611183166504 -0.2862014174461365
13.950494766235352 -2.997805595397949 -0.28648990392684937
13.939628601074219 -2.9652211666107178 -0.2865452766418457
13.943832397460938 -2.9349942207336426 -0.28649792075157166
13.95352840423584 -2.906808853149414 -0.28704535961151123
13.942546844482422 -2.87345814704895 -0.28668421506881714
13.933099746704102 -2.8413820266723633 -0.28677165508270264
13.948856353759766 -2.814457416534424 -0.2869749069213867
13.91990852355957 -2.7776832580566406 -0.28672540187835693
13.928308486938477 -2.749316692352295 -0.28678104281425476
13.918996810913086 -2.7174811363220215 -0.2868708670139313
13.93993091583252 -2.690667152404785 -0.2871856987476349
13.934496879577637 -2.6596360206604004 -0.28742101788520813
13.93464469909668 -2.6288247108459473 -0.287309467792511
13.92289924621582 -2.5966997146606445 -0.28735411167144775
13.926241874694824 -2.567429542541504 -0.2873125970363617
13.928874969482422 -2.5371603965759277 -0.2872564196586609
13.911005020141602 -2.5040907859802246 -0.2867721915245056
13.922183990478516 -2.4758806228637695 -0.2868976593017578
13.92562484741211 -2.446221113204956 -0.2877236604690552
13.912714004516602 -2.414201259613037 -0.2873520851135254
13.924417495727539 -2.3856019973754883 -0.2874854505062103
13.924072265625 -2.3558096885681152 -0.28738248348236084
13.927215576171875 -2.326218605041504 -0.28820422291755676
13.915695190429688 -2.2941527366638184 -0.28786563873291016
13.916810989379883 -2.264681577682495 -0.28779417276382446
13.902578353881836 -2.2318906784057617 -0.28739845752716064
13.918701171875 -2.204860210418701 -0.28764018416404724
13.897220611572266 -2.1719040870666504 -0.28795599937438965
13.902922630310059 -2.1423802375793457 -0.28797757625579834
13.89725112915039 -2.1119911670684814 -0.2877689599990845
13.908293724060059 -2.053781032562256 -0.2886699438095093
13.902585983276367 -2.0234673023223877 -0.28846967220306396
13.879478454589844 -1.9898357391357422 -0.28789931535720825
13.886878967285156 -1.9614949226379395 -0.2879718244075775
13.886472702026367 -1.9018241167068481 -0.2886480987071991
13.870072364807129 -1.8702633380889893 -0.28822094202041626
13.864940643310547 -1.8394227027893066 -0.28705716133117676
13.859450340270996 -1.809435248374939 -0.2868645489215851
13.866101264953613 -1.7806466817855835 -0.2869216501712799
13.854419708251953 -1.74946928024292 -0.2866055965423584
13.863092422485352 -1.7213445901870728 -0.28756147623062134
13.845818519592285 -1.689173698425293 -0.2871284484863281
13.835010528564453 -1.6587249040603638 -0.2868330478668213
13.831971168518066 -1.6288542747497559 -0.286699503660202
13.838462829589844 -1.600050926208496 -0.2867623567581177
13.816247940063477 -1.568434476852417 -0.2866879105567932
13.807443618774414 -1.5380234718322754 -0.2868313193321228
13.811395645141602 -1.5089962482452393 -0.286848783493042
13.81028938293457 -1.4798808097839355 -0.2867625057697296
13.794679641723633 -1.448407769203186 -0.2863733172416687
13.79310417175293 -1.4193098545074463 -0.28627973794937134
13.784153938293457 -1.389093041419983 -0.2864832282066345
13.782459259033203 -1.3595809936523438 -0.28678250312805176
13.766590118408203 -1.3291752338409424 -0.28639382123947144
13.762928009033203 -1.2996070384979248 -0.28625714778900146
13.759819030761719 -1.2700562477111816 -0.286137193441391
13.759493827819824 -1.2408422231674194 -0.28607672452926636
13.756202697753906 -1.211318016052246 -0.28640520572662354
13.765861511230469 -1.1833851337432861 -0.2869459390640259
13.752777099609375 -1.1531227827072144 -0.28701251745224
13.751012802124023 -1.1237902641296387 -0.28505828976631165
13.745916366577148 -1.0651168823242188 -0.2853088974952698
13.721824645996094 -1.034608244895935 -0.2847636640071869
13.71072006225586 -0.975719153881073 -0.2844454050064087
13.72281265258789 -0.94796222448349 -0.2846548557281494
13.71719741821289 -0.8895461559295654 -0.2852974832057953
13.714085578918457 -0.8313611745834351 -0.2851574420928955
13.701419830322266 -0.8020592927932739 -0.2848588228225708
13.706413269042969 -0.7444441914558411 -0.2848949432373047
13.70016098022461 -0.715205192565918 -0.2847331166267395
13.674537658691406 -0.6849665641784668 -0.28416991233825684
13.695724487304688 -0.6575381755828857 -0.28541845083236694
13.67661190032959 -0.6277879476547241 -0.2849920392036438
13.67770767211914 -0.598949134349823 -0.2849879264831543
13.672660827636719 -0.5699151158332825 -0.2848571538925171
13.683183670043945 -0.5414628982543945 -0.28505197167396545
13.660065650939941 -0.5121587514877319 -0.2845476269721985
13.659177780151367 -0.4833548069000244 -0.28450730443000793
13.649502754211426 -0.45420676469802856 -0.2854456305503845
13.660619735717773 -0.4261987507343292 -0.2838693857192993
13.656085968017578 -0.3973053991794586 -0.2837580442428589
13.650514602661133 -0.3683466911315918 -0.2836245000362396
13.650577545166016 -0.33961495757102966 -0.28361016511917114
13.64634895324707 -0.3107280135154724 -0.28350695967674255
13.644929885864258 -0.28198009729385376 -0.2838512063026428
13.647684097290039 -0.2537042498588562 -0.2838987112045288
13.646894454956055 -0.22491425275802612 -0.28431838750839233
13.644472122192383 -0.19616639614105225 -0.28425729274749756
13.623485565185547 -0.1675882488489151 -0.2838122248649597
13.629961013793945 -0.1389332413673401 -0.2839429974555969
13.634613990783691 -0.11029793322086334 -0.2840317487716675
13.603656768798828 -0.08137049525976181 -0.28338348865509033
13.606922149658203 -0.052766989916563034 -0.28344953060150146
13.601452827453613 -0.024520013481378555 -0.2833329439163208
12.86121654510498 0.5176342725753784 -0.30345338582992554
12.862823486328125 0.5987164974212646 -0.30357813835144043
12.858274459838867 0.6527834534645081 -0.3035290539264679
12.849042892456055 0.6790511012077332 -0.303345263004303
12.856151580810547 0.7061834335327148 -0.3035474419593811
12.86695671081543 0.7343506813049316 -0.3038410246372223
12.836395263671875 0.7593343257904053 -0.30315548181533813
12.833444595336914 0.7858879566192627 -0.30312299728393555
12.851116180419922 0.8145298361778259 -0.30468541383743286
12.836003303527832 0.8403193950653076 -0.3043674826622009
12.819454193115234 1.0012524127960205 -0.30425190925598145
12.829776763916016 1.0836150646209717 -0.3046502470970154
12.752756118774414 1.6455838680267334 -0.304618239402771
12.751441955566406 1.7274010181427002 -0.30484044551849365
12.744024276733398 1.7806612253189087 -0.30447036027908325
12.749246597290039 1.8087952136993408 -0.30468612909317017
12.724030494689941 1.8321616649627686 -0.30417361855506897
12.723211288452148 1.859795331954956 -0.30424782633781433
12.742630004882812 1.889650821685791 -0.30480581521987915
12.732105255126953 1.9150996208190918 -0.30464649200439453
12.720613479614258 1.9411702156066895 -0.3044717311859131
12.722103118896484 1.9684224128723145 -0.3046053647994995
12.709762573242188 1.993900179862976 -0.3039911091327667
12.69291877746582 2.0186774730682373 -0.30368924140930176
12.681503295898438 2.043853759765625 -0.3035176396369934
12.65255355834961 2.120880126953125 -0.30355530977249146
12.623040199279785 2.197976589202881 -0.30317336320877075
12.608619689941406 2.2772254943847656 -0.3031652271747589
12.4451904296875 2.736804485321045 -0.30036377906799316
12.42309284210205 2.7868452072143555 -0.29933398962020874
12.42045783996582 2.8133387565612793 -0.29940980672836304
12.384065628051758 2.8599789142608643 -0.2988221049308777
12.38892936706543 2.888619899749756 -0.2990845739841461
12.363689422607422 2.9372644424438477 -0.2987687587738037
12.362022399902344 2.9644076824188232 -0.29846590757369995
12.351140022277832 2.9889163970947266 -0.297988623380661
12.330608367919922 3.0118467807769775 -0.2976495623588562
12.323827743530273 3.037303924560547 -0.2976364493370056
12.32858943939209 3.0660037994384766 -0.29790711402893066
12.319448471069336 3.0913162231445312 -0.29784274101257324
12.2965087890625 3.1126980781555176 -0.2974432706832886
12.290494918823242 3.1387033462524414 -0.29704469442367554
12.274309158325195 3.162142753601074 -0.2964526414871216
12.273799896240234 3.1891870498657227 -0.2965993881225586
12.223421096801758 3.2586374282836914 -0.295870840549469
12.17944049835205 3.3290610313415527 -0.2941766381263733
12.15981388092041 3.405994176864624 -0.2938530445098877
11.991203308105469 3.769810676574707 -0.29056215286254883
11.944842338562012 3.8379154205322266 -0.28966015577316284
11.93511962890625 3.890319585800171 -0.2883352041244507
11.919801712036133 3.9127089977264404 -0.28815925121307373
11.906163215637207 3.9638543128967285 -0.2882351875305176
11.901765823364258 3.9902753829956055 -0.2883278727531433
11.882722854614258 4.039207458496094 -0.28750622272491455
11.870304107666016 4.062915802001953 -0.2874128818511963
11.853636741638184 4.085089683532715 -0.2872180640697479
11.855530738830566 4.113718509674072 -0.28747355937957764
11.837108612060547 4.1348676681518555 -0.2864682674407959
11.84632682800293 4.166070461273193 -0.2869036793708801
11.82313346862793 4.185936450958252 -0.28655317425727844
11.81615161895752 4.211080074310303 -0.2865974009037018
11.801806449890137 4.233969688415527 -0.2860581874847412
11.809347152709961 4.2647905349731445 -0.2860987186431885
11.779047012329102 4.281880855560303 -0.28558236360549927
11.772489547729492 4.307176113128662 -0.28563880920410156
11.766071319580078 4.3329691886901855 -0.28570473194122314
11.754350662231445 4.356756210327148 -0.2848788797855377
11.719987869262695 4.428017616271973 -0.28471285104751587
11.690342903137207 4.501001358032227 -0.2824297249317169
11.558782577514648 4.788260459899902 -0.2797851264476776
11.533571243286133 4.86298942565918 -0.2795058488845825
11.495756149291992 4.904166221618652 -0.278728187084198
11.496692657470703 4.932791233062744 -0.2790009379386902
11.467952728271484 4.977751731872559 -0.2780444324016571
11.465770721435547 5.0051069259643555 -0.2782427966594696
11.439599990844727 5.051145076751709 -0.2762337923049927
11.421939849853516 5.07169771194458 -0.276059627532959
11.422146797180176 5.1010284423828125 -0.27633002400398254
11.410877227783203 5.124424457550049 -0.2759077548980713
11.401216506958008 5.148989677429199 -0.2755749821662903
11.396015167236328 5.175532817840576 -0.27571791410446167
11.385171890258789 5.199134826660156 -0.2753048837184906
11.378020286560059 5.224878311157227 -0.2753962278366089
11.365621566772461 5.248165130615234 -0.2750067114830017
11.369110107421875 5.278876304626465 -0.27495190501213074
11.355859756469727 5.301397800445557 -0.2748977541923523
11.342109680175781 5.324069023132324 -0.27447882294654846
11.326037406921387 5.345685005187988 -0.2743602395057678
11.32873821258545 5.3761305809021 -0.27429503202438354
11.315210342407227 5.398508071899414 -0.27423349022865295
11.292692184448242 5.417013168334961 -0.27360737323760986
11.277189254760742 5.438789367675781 -0.2731022536754608
11.252463340759277 5.514325141906738 -0.2725714445114136
11.21714973449707 5.584744453430176 -0.27179986238479614
11.188852310180664 5.658707618713379 -0.27043411135673523
11.087193489074707 5.8733086585998535 -0.2683165669441223
11.04561996459961 5.9405107498168945 -0.2674473822116852
11.012528419494629 5.982641696929932 -0.2664843797683716
10.987064361572266 5.998371124267578 -0.266169011592865
10.959112167358398 6.043159008026123 -0.26534053683280945
10.961969375610352 6.074434280395508 -0.26530778408050537
10.925689697265625 6.114612579345703 -0.2646927237510681
10.920389175415039 6.1414408683776855 -0.2644636034965515
10.921539306640625 6.172834396362305 -0.2648094892501831
10.906444549560547 6.194201469421387 -0.2635877728462219
10.879005432128906 6.2085113525390625 -0.2628256678581238
10.861103057861328 6.229089736938477 -0.26271265745162964
10.836000442504883 6.2446136474609375 -0.26206788420677185
10.801220893859863 6.254934310913086 -0.26113903522491455
10.75901985168457 6.26075553894043 -0.2600761353969574
10.716650009155273 6.26590633392334 -0.25896450877189636
10.685348510742188 6.277863502502441 -0.25852739810943604
10.63761043548584 6.279956340789795 -0.25734037160873413
10.60184097290039 6.289011001586914 -0.25639086961746216
10.560798645019531 6.294735908508301 -0.25571951270103455
10.52341365814209 6.30208683013916 -0.2547796368598938
10.471617698669434 6.301093101501465 -0.25345009565353394
10.450220108032227 6.318199157714844 -0.25325384736061096
10.412455558776855 6.3249101638793945 -0.2519117593765259
10.329537391662598 6.334249496459961 -0.2502015233039856
10.291038513183594 6.340065002441406 -0.24919287860393524
10.209898948669434 6.349549293518066 -0.24713940918445587
10.096622467041016 6.3674726486206055 -0.24463316798210144
9.994693756103516 6.391364574432373 -0.24197502434253693
9.892433166503906 6.413948059082031 -0.23975208401679993
9.656780242919922 6.435894966125488 -0.23386695981025696
9.591216087341309 6.45069694519043 -0.23293498158454895
9.556800842285156 6.456393241882324 -0.2317189872264862
9.489587783813477 6.469357967376709 -0.23004768788814545
9.454459190368652 6.474188327789307 -0.22952121496200562
9.392366409301758 6.489940643310547 -0.22797885537147522
9.354427337646484 6.492447376251221 -0.22738391160964966
9.321884155273438 6.498960494995117 -0.22623112797737122
9.290210723876953 6.506019592285156 -0.22579526901245117
9.249509811401367 6.506165504455566 -0.22444267570972443
9.227243423461914 6.520013332366943 -0.22423970699310303
9.17508316040039 6.511744499206543 -0.22288817167282104
9.154447555541992 6.525708198547363 -0.222715362906456
9.106422424316406 6.520856857299805 -0.22152076661586761
9.088966369628906 6.536931991577148 -0.22110655903816223
9.041360855102539 6.5312042236328125 -0.2202778160572052
9.028558731079102 6.551352500915527 -0.2196252942085266
8.975767135620117 6.541522979736328 -0.2186707854270935
8.959495544433594 6.559016227722168 -0.21793770790100098
8.914623260498047 6.554623603820801 -0.21717646718025208
8.893939018249512 6.567893028259277 -0.21664376556873322
8.856733322143555 6.569701671600342 -0.21576504409313202
8.826318740844727 6.575579643249512 -0.21499726176261902
8.788265228271484 6.576022624969482 -0.21409404277801514
8.7605562210083 6.5841383934021 -0.21375665068626404
8.725959777832031 6.586517810821533 -0.21257808804512024
8.668596267700195 6.600708961486816 -0.21119073033332825
8.631391525268555 6.60072135925293 -0.2106178253889084
8.569242477416992 6.610572814941406 -0.20911765098571777
8.543458938598633 6.61939811706543 -0.20847582817077637
8.467458724975586 6.617379665374756 -0.20663875341415405
8.384498596191406 6.637869358062744 -0.20523659884929657
8.281366348266602 6.641725063323975 -0.20278382301330566
8.201366424560547 6.662716865539551 -0.20120184123516083
8.144479751586914 6.673635482788086 -0.19985029101371765
8.117462158203125 6.680145263671875 -0.19889067113399506
8.051918983459473 6.682837009429932 -0.1973283886909485
8.016092300415039 6.6816864013671875 -0.19679558277130127
7.970855712890625 6.700629711151123 -0.19573447108268738
7.932861328125 6.697277069091797 -0.1945134401321411
7.878203868865967 6.708163261413574 -0.1932324767112732
7.846678733825684 6.709458827972412 -0.1928004026412964
7.821566581726074 6.716521739959717 -0.19190040230751038
7.798941612243652 6.725704193115234 -0.19169360399246216
7.7547149658203125 6.715674877166748 -0.19032233953475952
7.732095718383789 6.724603176116943 -0.19011330604553223
7.707845687866211 6.732099533081055 -0.1898251473903656
7.683836936950684 6.739291191101074 -0.18957681953907013
7.6443986892700195 6.73364782333374 -0.1883367896080017
7.628007888793945 6.747372627258301 -0.18827757239341736
7.594142913818359 6.745946884155273 -0.187170147895813
7.559764862060547 6.743969440460205 -0.18638432025909424
7.540363311767578 6.754814624786377 -0.1859205663204193
7.516874313354492 6.762328624725342 -0.1854046881198883
7.485607624053955 6.7628021240234375 -0.18465621769428253
7.45855712890625 6.766914367675781 -0.18405291438102722
7.429415702819824 6.768636703491211 -0.18335098028182983
7.409397125244141 6.779034614562988 -0.1829237937927246
7.384975433349609 6.785284996032715 -0.18234658241271973
7.352518081665039 6.784099102020264 -0.18161335587501526
7.313050270080566 6.775832176208496 -0.18066033720970154
7.3008341789245605 6.793112754821777 -0.1804278939962387
7.269597053527832 6.792691230773926 -0.17968621850013733
7.247250556945801 6.800036907196045 -0.17919780313968658
7.218353271484375 6.801532745361328 -0.17851273715496063
7.196150779724121 6.809303283691406 -0.17771479487419128
7.157533645629883 6.801358699798584 -0.17683160305023193
7.11153507232666 6.814482688903809 -0.1757972538471222
7.086458206176758 6.819106101989746 -0.1752108335494995
7.030417442321777 6.822049140930176 -0.17420870065689087
7.01289701461792 6.833750247955322 -0.17385290563106537
6.9557294845581055 6.835387706756592 -0.17255134880542755
6.925665855407715 6.834153652191162 -0.17184141278266907
6.8723907470703125 6.8389458656311035 -0.1703643947839737
6.825305938720703 6.849540710449219 -0.16932076215744019
6.7991437911987305 6.8516645431518555 -0.16902339458465576
6.749603271484375 6.859278678894043 -0.16760802268981934
6.7264604568481445 6.864193916320801 -0.1671118140220642
6.672881126403809 6.867132186889648 -0.16591431200504303
6.647327423095703 6.86929988861084 -0.16504833102226257
6.600937843322754 6.879098892211914 -0.16403251886367798
6.5736541748046875 6.879633903503418 -0.16340263187885284
6.554831504821777 6.888889312744141 -0.16302549839019775
6.523816108703613 6.884848117828369 -0.16203027963638306
6.5034708976745605 6.892416000366211 -0.1618850827217102
6.479859352111816 6.896399021148682 -0.16108015179634094
6.455568313598633 6.899630546569824 -0.1611468493938446
6.432455539703369 6.903589248657227 -0.16035085916519165
6.402614593505859 6.90061092376709 -0.15966174006462097
6.389063835144043 6.915182113647461 -0.15941914916038513
6.355093955993652 6.907116413116455 -0.15835633873939514
6.332928657531738 6.9121527671813965 -0.15816493332386017
6.313504219055176 6.92017936706543 -0.15747199952602386
6.288974761962891 6.922484397888184 -0.15722310543060303
6.274722099304199 6.935659885406494 -0.15665501356124878
6.247404098510742 6.934789180755615 -0.1560339331626892
6.2247514724731445 6.938942909240723 -0.15556688606739044
6.193509101867676 6.933460712432861 -0.15458306670188904
6.168580055236816 6.93486213684082 -0.15432453155517578
6.146401405334473 6.938870906829834 -0.1535630077123642
6.137906074523926 6.958775997161865 -0.15315136313438416
6.104439735412598 6.950252056121826 -0.15268157422542572
6.078071594238281 6.949263095855713 -0.15181738138198853
6.05856990814209 6.956501007080078 -0.1516965627670288
6.031380653381348 6.95476770401001 -0.15082040429115295
6.011228084564209 6.960661888122559 -0.15011563897132874
5.984224796295166 6.958991050720215 -0.14980754256248474
5.96535587310791 6.966640949249268 -0.14914265275001526
5.939666748046875 6.966306686401367 -0.14886662364006042
5.920454502105713 6.973433494567871 -0.14819392561912537
5.9010443687438965 6.9798784255981445 -0.14780950546264648
5.882752418518066 6.988063335418701 -0.14716264605522156
5.85456657409668 6.98435115814209 -0.14656543731689453
5.792819023132324 6.9996018409729 -0.14526760578155518
5.738646507263184 6.993902206420898 -0.14383646845817566
5.71990966796875 7.000642776489258 -0.14343546330928802
5.677028656005859 7.0081915855407715 -0.14229220151901245
5.652433395385742 7.007510662078857 -0.1417471021413803
5.60455322265625 7.0083465576171875 -0.14048153162002563
5.583562850952148 7.0118818283081055 -0.14002791047096252
5.564347267150879 7.018466472625732 -0.1396666318178177
5.545889854431152 7.025082111358643 -0.1392766535282135
5.501470565795898 7.029484748840332 -0.13810503482818604
5.485052585601807 7.038552284240723 -0.1377684473991394
5.459920883178711 7.036844253540039 -0.13725560903549194
5.446703910827637 7.0503830909729 -0.1367524415254593
5.411136627197266 7.0344696044921875 -0.13593637943267822
5.399119853973389 7.049543380737305 -0.13575458526611328
5.377593040466309 7.052119255065918 -0.1350809931755066
5.359545707702637 7.058784008026123 -0.13445454835891724
5.32684326171875 7.046918869018555 -0.13372349739074707
5.312630653381348 7.0585198402404785 -0.13348256051540375
5.294221878051758 7.065006256103516 -0.13285507261753082
5.272080898284912 7.066387176513672 -0.13238488137722015
5.250518798828125 7.068041801452637 -0.13196063041687012
5.231847763061523 7.074007987976074 -0.13132905960083008
5.209141731262207 7.074386119842529 -0.13084594905376434
5.18787956237793 7.076703071594238 -0.13043686747550964
5.171932220458984 7.085739612579346 -0.12986940145492554
5.14790678024292 7.084071159362793 -0.12963995337486267
5.12507963180542 7.084007263183594 -0.12890712916851044
5.104851722717285 7.087395668029785 -0.1284884810447693
5.087574005126953 7.0944061279296875 -0.12817537784576416
5.064245700836182 7.093398094177246 -0.12743183970451355
5.042036056518555 7.0937981605529785 -0.1269647628068924
5.030277252197266 7.108447074890137 -0.12679192423820496
5.001044750213623 7.099253177642822 -0.12590691447257996
4.983165740966797 7.105144500732422 -0.12529811263084412
4.965950965881348 7.111948013305664 -0.12523597478866577
4.946181297302246 7.115971088409424 -0.12459144741296768
4.919421672821045 7.108905792236328 -0.12400701642036438
4.896371364593506 7.107565879821777 -0.12327644973993301
4.8744354248046875 7.107682228088379 -0.12260998040437698
4.8629655838012695 7.122601509094238 -0.12216601520776749
4.832868576049805 7.110657691955566 -0.12154072523117065
4.818858623504639 7.122226715087891 -0.12128537893295288
4.798151969909668 7.1234283447265625 -0.12061239033937454
4.779129981994629 7.1280035972595215 -0.12027117609977722
4.753785133361816 7.122111797332764 -0.11972670257091522
4.737783908843994 7.130138397216797 -0.11917316913604736
4.721329689025879 7.138410568237305 -0.11890004575252533
4.698150634765625 7.135502815246582 -0.1184099018573761
4.663388252258301 7.148066997528076 -0.11724972724914551
4.636748313903809 7.139564514160156 -0.11695145815610886
4.596024513244629 7.1425323486328125 -0.11564578860998154
4.582150936126709 7.1535515785217285 -0.11542823165655136
4.546260356903076 7.163766860961914 -0.1144886314868927
4.5019941329956055 7.160491943359375 -0.11361657083034515
4.480471611022949 7.159187316894531 -0.11293277144432068
4.451452255249023 7.1798810958862305 -0.11244644224643707
4.427087783813477 7.1737823486328125 -0.1114514023065567
4.405810356140137 7.173548698425293 -0.11078786849975586
4.386453628540039 7.175379276275635 -0.11016172170639038
4.37075138092041 7.1831464767456055 -0.10990298539400101
4.357346057891846 7.195687294006348 -0.10967746376991272
4.336040019989014 7.194154739379883 -0.10900376737117767
4.314580917358398 7.1927995681762695 -0.10860651731491089
4.299201488494873 7.2014594078063965 -0.10832616686820984
4.2773823738098145 7.198812007904053 -0.10764271020889282
4.257844924926758 7.200448036193848 -0.10702257603406906
4.239873886108398 7.204606056213379 -0.10695133358240128
4.220803737640381 7.206371307373047 -0.1063385158777237
4.1979546546936035 7.202597618103027 -0.10564032196998596
4.176761627197266 7.200541973114014 -0.10524573922157288
4.155797958374023 7.198779582977295 -0.10482311993837357
