VERSION .7
FIELDS x y z
SIZE 4 4 4
TYPE F F F
COUNT 1 1 1
WIDTH 817
HEIGHT 1
VIEWPOINT 0 0 0 1 0 0 0
POINTS 817
DATA ascii
16.752851486206055 4.351848602294922 -0.006338694132864475
16.673307418823242 4.368140697479248 -0.006312013603746891
16.48931884765625 4.394230842590332 -0.006530027836561203
16.379915237426758 4.401501178741455 -0.006490312051028013
16.175493240356445 4.419694900512695 -0.006417121738195419
16.071243286132812 4.427072048187256 -0.006379279308021069
15.976861000061035 4.437814235687256 -0.006345619447529316
15.894330978393555 4.450438976287842 -0.006316313985735178
15.813201904296875 4.463131904602051 -0.006287578493356705
15.71539306640625 4.471794128417969 -0.006980874575674534
15.627267837524414 4.4817938804626465 -0.006945843808352947
15.52752685546875 4.489110469818115 -0.006905759684741497
15.445198059082031 4.500060081481934 -0.006873283069580793
15.339214324951172 4.503735542297363 -0.006830262951552868
15.26876449584961 4.518502712249756 -0.006803175900131464
15.189393997192383 4.5293169021606445 -0.006771984975785017
15.08269214630127 4.53160285949707 -0.006103403400629759
15.020755767822266 4.548001766204834 -0.006080601364374161
14.936878204345703 4.556465148925781 -0.006049987394362688
14.850085258483887 4.563694953918457 -0.006019939668476582
14.770150184631348 4.5736846923828125 -0.005990512669086456
14.690462112426758 4.5824384689331055 -0.0059636603109538555
14.622096061706543 4.59541130065918 -0.005938500165939331
14.543712615966797 4.603960990905762 -0.0059096794575452805
14.460569381713867 4.6106791496276855 -0.005879584699869156
14.375529289245605 4.6174187660217285 -0.006524047814309597
14.312085151672363 4.629827499389648 -0.006497829221189022
14.230279922485352 4.6367082595825195 -0.006711174733936787
14.161269187927246 4.64700984954834 -0.006682778708636761
14.08635139465332 4.654827117919922 -0.006653293501585722
14.015645980834961 4.664696216583252 -0.006622236222028732
13.953384399414062 4.676159858703613 -0.006597918923944235
13.864851951599121 4.678516864776611 -0.006560147274285555
13.820064544677734 4.696311950683594 -0.006543767638504505
13.730890274047852 4.697815895080566 -0.0065042925998568535
13.657081604003906 4.704244613647461 -0.006475853733718395
13.591073989868164 4.714010238647461 -0.006448024418205023
13.530580520629883 4.724508285522461 -0.006426074076443911
13.443986892700195 4.726516246795654 -0.0063902586698532104
13.360803604125977 4.728447914123535 -0.006354670971632004
13.298600196838379 4.737509727478027 -0.006794005632400513
13.25684642791748 4.754574298858643 -0.006774450186640024
13.192066192626953 4.762260437011719 -0.006745820865035057
13.122730255126953 4.768035411834717 -0.006944021675735712
13.049367904663086 4.772960186004639 -0.006910939700901508
12.998189926147461 4.784847736358643 -0.006889923941344023
12.918842315673828 4.7870001792907715 -0.006852550897747278
12.845993041992188 4.790348529815674 -0.006822793744504452
12.795625686645508 4.801835536956787 -0.006799241527915001
12.731073379516602 4.808661937713623 -0.006769347004592419
12.660833358764648 4.8121771812438965 -0.006736744195222855
12.597740173339844 4.818140029907227 -0.007313366513699293
12.55782699584961 4.833650588989258 -0.007292137015610933
12.487202644348145 4.836243152618408 -0.0072571272030472755
12.42038345336914 4.840667247772217 -0.007223631255328655
12.37728214263916 4.8537139892578125 -0.007204204332083464
12.315195083618164 4.858877182006836 -0.007173966150730848
12.257095336914062 4.86624002456665 -0.00714543042704463
12.178667068481445 4.864383697509766 -0.007108631543815136
12.13526439666748 4.876272678375244 -0.007087959907948971
12.073099136352539 4.88127326965332 -0.007060015574097633
12.027774810791016 4.8920135498046875 -0.007250749971717596
11.96356201171875 4.895707130432129 -0.007219704799354076
11.917997360229492 4.905959606170654 -0.007197473663836718
11.853243827819824 4.908094882965088 -0.00872689951211214
11.805746078491211 4.917997360229492 -0.008702734485268593
11.7489013671875 4.922954082489014 -0.008667703717947006
11.690839767456055 4.927170753479004 -0.00863170437514782
11.637940406799316 4.93418025970459 -0.008808593265712261
11.579754829406738 4.937885284423828 -0.008774078451097012
11.528341293334961 4.944260597229004 -0.008740370161831379
11.475626945495605 4.95070219039917 -0.008708475157618523
11.429052352905273 4.958767414093018 -0.008678938262164593
11.377694129943848 4.965391635894775 -0.008650179952383041
11.319146156311035 4.967828750610352 -0.008611519820988178
11.288166046142578 4.982194900512695 -0.008593189530074596
11.2294282913208 4.984959125518799 -0.00910743698477745
11.182855606079102 4.99208927154541 -0.009079025126993656
11.127320289611816 4.995614051818848 -0.009044592268764973
11.070953369140625 4.998157501220703 -0.009004853665828705
11.013557434082031 4.99978494644165 -0.008968429639935493
10.976581573486328 5.011090278625488 -0.008943479508161545
10.913142204284668 5.009737491607666 -0.008900469169020653
10.867385864257812 5.016063690185547 -0.008871986530721188
10.833696365356445 5.0286149978637695 -0.0088524604216218
10.795818328857422 5.0382890701293945 -0.008830968290567398
10.732434272766113 5.035858154296875 -0.008788352832198143
10.694774627685547 5.0460920333862305 -0.009345028549432755
10.649724960327148 5.051883697509766 -0.0103682279586792
10.593598365783691 5.053009510040283 -0.01032552681863308
10.547626495361328 5.057976722717285 -0.010812683962285519
10.510446548461914 5.0670013427734375 -0.010787110775709152
10.466803550720215 5.073545455932617 -0.010941537097096443
10.411225318908691 5.073314666748047 -0.010894160717725754
10.363851547241211 5.076870918273926 -0.010855944827198982
10.329936981201172 5.087647914886475 -0.010832124389708042
10.279603004455566 5.089391231536865 -0.010790089145302773
10.243017196655273 5.097771644592285 -0.010762447491288185
10.199346542358398 5.103250980377197 -0.010728246532380581
10.153741836547852 5.106807231903076 -0.01069279108196497
10.095320701599121 5.104474067687988 -0.010642390698194504
10.05205249786377 5.108817100524902 -0.010608188807964325
10.015483856201172 5.1164116859436035 -0.010582972317934036
9.973127365112305 5.121668338775635 -0.010546930134296417
9.93051528930664 5.125855445861816 -0.01051194965839386
9.878458976745605 5.1255340576171875 -0.010471314191818237
9.842668533325195 5.133121490478516 -0.010443760082125664
9.797815322875977 5.135620594024658 -0.010408002883195877
9.760136604309082 5.142478942871094 -0.010377195663750172
9.724987030029297 5.149770259857178 -0.010354332625865936
9.690789222717285 5.157439231872559 -0.010325945913791656
9.640645980834961 5.1572113037109375 -0.011310068890452385
9.603189468383789 5.162834167480469 -0.012739554047584534
9.56005859375 5.165248394012451 -0.012700866907835007
9.525594711303711 5.172946929931641 -0.012666923925280571
9.472920417785645 5.169826507568359 -0.012613032013177872
9.4473237991333 5.182079792022705 -0.012593486346304417
9.409612655639648 5.186825752258301 -0.0125566516071558
9.361730575561523 5.185791015625 -0.012506214901804924
9.312894821166992 5.184769630432129 -0.012454938143491745
9.270794868469238 5.186561584472656 -0.012414449825882912
9.24743938446045 5.198721408843994 -0.012397490441799164
9.200875282287598 5.198441982269287 -0.012350531294941902
9.165447235107422 5.203546524047852 -0.012315686792135239
9.124908447265625 5.205798149108887 -0.012278162874281406
9.099111557006836 5.216679096221924 -0.012255804613232613
9.056478500366211 5.217237949371338 -0.012681620195508003
9.028580665588379 5.226886749267578 -0.012658212333917618
8.98354721069336 5.225736141204834 -0.012779776006937027
8.939626693725586 5.225046634674072 -0.012736422941088676
8.903050422668457 5.2292160987854 -0.012697957456111908
8.867232322692871 5.232957363128662 -0.012663912028074265
8.825983047485352 5.233871936798096 -0.012620499357581139
8.797737121582031 5.242025375366211 -0.012592323124408722
8.750043869018555 5.238243103027344 -0.012542635202407837
8.728460311889648 5.250682353973389 -0.01269441656768322
8.68312931060791 5.247983932495117 -0.014001055620610714
8.655400276184082 5.255778789520264 -0.013976920396089554
8.625590324401855 5.262930393218994 -0.014394845813512802
8.591594696044922 5.266685962677002 -0.014357409439980984
8.55772590637207 5.2711076736450195 -0.014319980517029762
8.520002365112305 5.272292137145996 -0.01427295058965683
8.47398567199707 5.268167495727539 -0.014218145981431007
8.44549560546875 5.2755022048950195 -0.014187248423695564
8.415383338928223 5.281001567840576 -0.014154785312712193
8.386792182922363 5.287349224090576 -0.014125639572739601
8.357498168945312 5.293865203857422 -0.014095734804868698
8.30386734008789 5.28407096862793 -0.014023950323462486
8.283181190490723 5.295090198516846 -0.014005191624164581
8.257255554199219 5.303399085998535 -0.013981176540255547
8.214900016784668 5.30030632019043 -0.013928975909948349
8.187166213989258 5.307217597961426 -0.01390075497329235
8.152386665344238 5.3087310791015625 -0.013861232437193394
8.127527236938477 5.316593170166016 -0.01383830513805151
8.085247039794922 5.313633441925049 -0.013784326612949371
8.067461013793945 5.325949668884277 -0.013771449215710163
8.014144897460938 5.315178394317627 -0.01370241679251194
8.000381469726562 5.330178260803223 -0.013696668669581413
7.951200008392334 5.3212690353393555 -0.013632591813802719
7.922104358673096 5.326146602630615 -0.013915713876485825
7.886569499969482 5.326241493225098 -0.01514694094657898
7.8660078048706055 5.336156368255615 -0.015128248371183872
7.829634666442871 5.335940361022949 -0.015080060809850693
7.812588214874268 5.348099708557129 -0.015067935921251774
7.782984256744385 5.351588249206543 -0.01503183413296938
7.74880313873291 5.352499961853027 -0.014988504350185394
7.709195137023926 5.348806381225586 -0.014933321624994278
7.692095756530762 5.361321449279785 -0.014922207221388817
7.660820007324219 5.363177299499512 -0.014882841147482395
7.618190765380859 5.356925010681152 -0.01482089702039957
7.592005729675293 5.362786769866943 -0.014794083312153816
7.558300018310547 5.362524032592773 -0.014750169590115547
7.531923294067383 5.367341995239258 -0.014719586819410324
7.507769584655762 5.374349594116211 -0.0146951824426651
7.4693498611450195 5.370325088500977 -0.014641474932432175
7.45750093460083 5.385316848754883 -0.014639844186604023
7.412346839904785 5.3768391609191895 -0.01457374170422554
7.403613090515137 5.393987655639648 -0.014578171074390411
7.352690696716309 5.380969047546387 -0.014501888304948807
7.336201190948486 5.392314910888672 -0.01449023000895977
7.302582740783691 5.390981674194336 -0.01444522850215435
7.2822065353393555 5.40001106262207 -0.014428090304136276
7.241354942321777 5.393045425415039 -0.014369837939739227
7.227055549621582 5.406251430511475 -0.014215344563126564
7.194830894470215 5.405652046203613 -0.014575953595340252
7.161946773529053 5.404233455657959 -0.014532212167978287
7.1364312171936035 5.408760070800781 -0.014503838494420052
7.106490612030029 5.409506797790527 -0.014465930871665478
7.071934700012207 5.406418323516846 -0.014418626204133034
7.054028511047363 5.416645050048828 -0.014405529946088791
7.026732444763184 5.4189019203186035 -0.014372655190527439
6.988832473754883 5.412839889526367 -0.014317922294139862
6.963050842285156 5.416707992553711 -0.01428945455700159
6.940065383911133 5.421982288360596 -0.014265278354287148
6.913922309875488 5.425382137298584 -0.014234967529773712
6.8864264488220215 5.426934242248535 -0.01420125737786293
6.858099937438965 5.4277191162109375 -0.014166165143251419
6.83976411819458 5.437011241912842 -0.014152265153825283
6.804172992706299 5.43179988861084 -0.014102557674050331
6.793522357940674 5.446417808532715 -0.01410338468849659
6.770498275756836 5.451760292053223 -0.014079715125262737
6.739686965942383 5.450042724609375 -0.014038938097655773
6.705033779144287 5.445072174072266 -0.013990452513098717
6.683403968811035 5.451240539550781 -0.0139700248837471
6.660592079162598 5.455690860748291 -0.01394559070467949
6.638942241668701 5.461696624755859 -0.01392452698200941
6.598410606384277 5.451352119445801 -0.013863490894436836
6.578962802886963 5.458296298980713 -0.013565643690526485
6.5440874099731445 5.453005313873291 -0.013137699104845524
6.522453308105469 5.457951545715332 -0.013117008842527866
6.495706081390381 5.4590229988098145 -0.013086404651403427
6.4734883308410645 5.463495254516602 -0.013064444996416569
6.451056003570557 5.467525482177734 -0.013042264617979527
6.432641983032227 5.475574493408203 -0.01302852388471365
6.409877777099609 5.479177951812744 -0.013005326502025127
6.385872840881348 5.48163366317749 -0.012979801744222641
6.347661972045898 5.472428798675537 -0.012926014140248299
6.342160224914551 5.490670680999756 -0.012937735766172409
6.308575630187988 5.48453950881958 -0.012892688624560833
6.285977363586426 5.4885149002075195 -0.012870348989963531
6.250627517700195 5.480551242828369 -0.012821312062442303
6.229992389678955 5.4860429763793945 -0.012802823446691036
6.205991744995117 5.4878153800964355 -0.012776965275406837
6.19292688369751 5.499205112457275 -0.012773554772138596
6.171902179718018 5.5041608810424805 -0.012754250317811966
6.144747257232666 5.502879619598389 -0.01308984961360693
6.119771957397461 5.503440856933594 -0.012693645432591438
6.0926289558410645 5.502617835998535 -0.012661905959248543
6.067867279052734 5.50316047668457 -0.012633860111236572
6.050893783569336 5.5113701820373535 -0.012988348491489887
6.019598484039307 5.505764007568359 -0.012945670634508133
5.997715473175049 5.508650779724121 -0.012292599305510521
5.978363037109375 5.514467239379883 -0.01155092939734459
5.955257415771484 5.5160722732543945 -0.011528595350682735
5.926114082336426 5.5119709968566895 -0.011494123376905918
5.91001033782959 5.5205864906311035 -0.011846701614558697
5.882396697998047 5.517695426940918 -0.01181427575647831
5.8435187339782715 5.527673721313477 -0.011423932388424873
5.813587188720703 5.5222649574279785 -0.011745572090148926
5.787459850311279 5.521013259887695 -0.011716585606336594
5.774876594543457 5.531944274902344 -0.011357450857758522
5.743478298187256 5.524768829345703 -0.011318536475300789
5.725510120391846 5.531081676483154 -0.01166133675724268
5.711847305297852 5.540843963623047 -0.01165690366178751
5.675955772399902 5.529610633850098 -0.01160773541778326
5.65743350982666 5.5344953536987305 -0.011240215972065926
5.6417059898376465 5.542068004608154 -0.011584632098674774
5.612752914428711 5.53723669052124 -0.011549443006515503
5.592963218688965 5.54066276550293 -0.011532356962561607
5.578245162963867 5.549066066741943 -0.011174498125910759
5.554218292236328 5.548822402954102 -0.011150396429002285
5.528448581695557 5.546047210693359 -0.011470995843410492
5.511162281036377 5.551701068878174 -0.01145900972187519
5.492484092712402 5.556576251983643 -0.011444829404354095
5.468553066253662 5.555377006530762 -0.010814996436238289
5.444906234741211 5.555041313171387 -0.010444806888699532
5.4230732917785645 5.555783748626709 -0.010425019077956676
5.406912803649902 5.562273025512695 -0.010416119359433651
5.383330821990967 5.561736106872559 -0.010393555276095867
5.363321304321289 5.564122200012207 -0.010377193801105022
5.3456854820251465 5.569406509399414 -0.010365890339016914
5.324585914611816 5.570700645446777 -0.010347547009587288
5.302154541015625 5.570328712463379 -0.01032639667391777
5.283085823059082 5.573908805847168 -0.010312248952686787
5.260035991668701 5.57288932800293 -0.00994801614433527
5.2341108322143555 5.568527698516846 -0.010261854156851768
5.218567848205566 5.575811386108398 -0.010254710912704468
5.1961188316345215 5.57496976852417 -0.010233309119939804
5.175292015075684 5.575778484344482 -0.010215057991445065
5.150095462799072 5.572459697723389 -0.009850124828517437
5.147369861602783 5.592750549316406 -0.009867019020020962
5.123350143432617 5.590573310852051 -0.010182375088334084
5.10042667388916 5.588798999786377 -0.010159843601286411
5.076021194458008 5.585290431976318 -0.009797504171729088
5.067653656005859 5.600072383880615 -0.009804322384297848
5.038447380065918 5.5910749435424805 -0.009770497679710388
5.019752025604248 5.593626499176025 -0.009756890125572681
4.998684883117676 5.594146728515625 -0.009738855063915253
4.974303245544434 5.590165615081787 -0.009591111913323402
4.959474563598633 5.596846580505371 -0.008917449973523617
4.939897537231445 5.59880256652832 -0.00890414323657751
4.918727874755859 5.598183631896973 -0.008886400610208511
4.898131370544434 5.598817825317383 -0.008870651945471764
4.887211799621582 5.609785556793213 -0.008871993981301785
4.866046905517578 5.608949661254883 -0.008854693733155727
4.841767311096191 5.605108737945557 -0.008832430467009544
4.8258490562438965 5.610173225402832 -0.00870332308113575
4.793280601501465 5.620013236999512 -0.008686909452080727
4.765371322631836 5.610831260681152 -0.008657597936689854
4.729213237762451 5.616023063659668 -0.008634925819933414
4.7130279541015625 5.6204328536987305 -0.008626380003988743
4.687798976898193 5.6146650314331055 -0.008602478541433811
4.676982879638672 5.625397682189941 -0.008603799156844616
4.654995918273926 5.622646331787109 -0.008584882132709026
4.639941692352295 5.628899574279785 -0.008579346351325512
4.614297389984131 5.621516704559326 -0.008553652092814445
4.605020999908447 5.6347174644470215 -0.008558269590139389
4.580170154571533 5.628105163574219 -0.008533908054232597
4.562681198120117 5.630441665649414 -0.008523077704012394
4.538460731506348 5.625076770782471 -0.008500451222062111
4.521458625793457 5.627861976623535 -0.00849016010761261
4.499800682067871 5.6247711181640625 -0.007829032838344574
4.486384391784668 5.632625102996826 -0.007826210930943489
4.470022201538086 5.636042594909668 -0.007817277684807777
4.458498001098633 5.64553689956665 -0.007700315676629543
4.43248987197876 5.637322425842285 -0.0076759932562708855
4.419075965881348 5.644329071044922 -0.007673523388803005
4.407008171081543 5.653756141662598 -0.007673523388803005
4.3764543533325195 5.638652324676514 -0.007640925236046314
4.356040000915527 5.636459827423096 -0.007625746075063944
4.34995698928833 5.653509140014648 -0.007635137997567654
4.329165458679199 5.650710582733154 -0.0076196640729904175
4.314929962158203 5.656928539276123 -0.007615868002176285
4.295409679412842 5.655830383300781 -0.007602646015584469
4.280095100402832 5.660013198852539 -0.007595871575176716
4.259370803833008 5.657689571380615 -0.007580159232020378
4.249026775360107 5.668391704559326 -0.0075829210691154
4.222685813903809 5.657677173614502 -0.007557286880910397
4.204691410064697 5.65874719619751 -0.007546623237431049
4.1930646896362305 5.667629718780518 -0.007546583656221628
4.172089099884033 5.664546012878418 -0.007530239410698414
4.156462669372559 5.6679253578186035 -0.007523471489548683
4.142269611358643 5.673221588134766 -0.007518904283642769
4.125731468200684 5.675991535186768 -0.007511034607887268
4.104344844818115 5.671276569366455 -0.007493636105209589
4.0906267166137695 5.677088737487793 -0.007176902145147324
4.067541122436523 5.670551300048828 -0.007157991640269756
4.049492359161377 5.670197010040283 -0.00714727072045207
4.042920112609863 5.685905456542969 -0.007156605366617441
4.013453006744385 5.67007303237915 -0.007125873118638992
3.998718738555908 5.674189567565918 -0.007119915448129177
3.980415105819702 5.673919200897217 -0.007110323756933212
3.9763615131378174 5.693234443664551 -0.007123300805687904
3.954228639602661 5.686647891998291 -0.007104676216840744
3.926767349243164 5.672971725463867 -0.007077246438711882
3.92061185836792 5.689270496368408 -0.007087240926921368
3.901331901550293 5.686513900756836 -0.007073570974171162
3.8770885467529297 5.6771368980407715 -0.007052569650113583
3.866665840148926 5.687180519104004 -0.007054376415908337
3.8331358432769775 5.6892476081848145 -0.00703675439581275
3.814821720123291 5.6875 -0.007024431601166725
3.8006744384765625 5.692657470703125 -0.007021680474281311
3.7882609367370605 5.699642181396484 -0.007020082324743271
3.7698497772216797 5.6975531578063965 -0.00700782984495163
3.745645523071289 5.687335968017578 -0.006985939107835293
3.7333908081054688 5.694419860839844 -0.0069849672727286816
3.7195262908935547 5.699790000915527 -0.006981377489864826
3.7002060413360596 5.695974826812744 -0.006776388734579086
3.684701919555664 5.697957515716553 -0.006768723949790001
3.6709394454956055 5.703357696533203 -0.00676657073199749
3.644785165786743 5.688628196716309 -0.006741099059581757
3.639829397201538 5.706930637359619 -0.0067517682909965515
3.6203207969665527 5.703178882598877 -0.0067388201132416725
3.6095423698425293 5.712364196777344 -0.006740001495927572
3.591459274291992 5.709951877593994 -0.0067290025763213634
3.5712952613830566 5.704898357391357 -0.006604260765016079
3.554263114929199 5.703976154327393 -0.00659528374671936
3.538905143737793 5.706452369689941 -0.006588146090507507
3.529317855834961 5.717448711395264 -0.006591268815100193
3.5140042304992676 5.719159126281738 -0.006585604511201382
3.495814323425293 5.716899871826172 -0.006574783939868212
3.4785823822021484 5.715332984924316 -0.006564523093402386
3.4646859169006348 5.719767093658447 -0.006561598740518093
3.4437928199768066 5.712202548980713 -0.006545215379446745
3.429593086242676 5.715439796447754 -0.006539945024996996
3.4206409454345703 5.728008270263672 -0.006545029580593109
3.397792100906372 5.71687650680542 -0.00652590487152338
3.385631799697876 5.72342586517334 -0.006524114403873682
3.3722784519195557 5.7287445068359375 -0.006522818468511105
3.3550093173980713 5.726558685302734 -0.006512362975627184
3.3329052925109863 5.715992450714111 -0.006493027321994305
3.3204426765441895 5.7226786613464355 -0.006599505431950092
3.304187297821045 5.721983909606934 -0.006592584773898125
6.384597301483154 -12.073031425476074 0.014458635821938515
6.41044807434082 -12.06080436706543 0.014460091479122639
6.440280914306641 -12.055200576782227 0.01446912344545126
6.465723991394043 -12.04262924194336 0.01447015255689621
6.4936723709106445 -12.032936096191406 0.014475919306278229
6.5240020751953125 -12.029340744018555 0.014487046748399734
6.549864292144775 -12.01698112487793 0.01448983233422041
6.600517272949219 -12.049062728881836 0.014544099569320679
6.626643657684326 -12.037403106689453 0.014547444880008698
6.67201042175293 -12.060035705566406 0.016435617581009865
6.686124801635742 -12.025297164916992 0.016408327966928482
6.728888988494873 -12.043296813964844 0.016451289877295494
6.7558393478393555 -12.03110122680664 0.016454489901661873
6.796649932861328 -12.045159339904785 0.016492804512381554
6.823431968688965 -12.034204483032227 0.016497069969773293
6.85630464553833 -12.032203674316406 0.016742084175348282
6.885313987731934 -12.025031089782715 0.016752030700445175
6.92006778717041 -12.02731704711914 0.016775116324424744
6.950549125671387 -12.021270751953125 0.01678716018795967
6.986656188964844 -12.026057243347168 0.016813673079013824
7.01977014541626 -12.025078773498535 0.016833150759339333
7.047208786010742 -12.013520240783691 0.016838688403367996
7.08115291595459 -12.014187812805176 0.016859332099556923
7.1195149421691895 -12.020500183105469 0.01688947156071663
7.149353981018066 -12.013948440551758 0.01690121740102768
7.182608604431152 -12.012584686279297 0.016920171678066254
7.214197158813477 -12.007552146911621 0.01755993813276291
7.246795654296875 -12.005306243896484 0.01757860742509365
7.284759998321533 -12.010132789611816 0.017607953399419785
7.314387798309326 -12.002735137939453 0.017619742080569267
7.381829261779785 -11.999390602111816 0.017659738659858704
7.418092727661133 -12.002455711364746 0.01768721081316471
7.485623359680176 -11.99843692779541 0.018757494166493416
7.517182350158691 -11.993528366088867 0.018774205818772316
7.543606281280518 -11.978744506835938 0.018776090815663338
7.577486991882324 -11.977352142333984 0.019031202420592308
7.614937782287598 -11.981444358825684 0.019062772393226624
7.645731449127197 -11.973318099975586 0.0190757866948843
7.682979106903076 -11.97678279876709 0.0191066674888134
7.746603012084961 -11.964790344238281 0.019139409065246582
7.781717777252197 -11.964529991149902 0.019164785742759705
7.814962387084961 -11.95966625213623 0.0191836915910244
7.851904392242432 -11.961918830871582 0.019213400781154633
7.881168365478516 -11.95235824584961 0.019224273040890694
7.918911933898926 -11.953954696655273 0.019254004582762718
7.950740814208984 -11.948073387145996 0.019271066412329674
7.989802837371826 -11.95291805267334 0.019305583089590073
8.02320671081543 -11.9475679397583 0.01932458207011223
8.053670883178711 -11.939327239990234 0.01933824084699154
8.097326278686523 -11.948904037475586 0.019381726160645485
8.13101577758789 -11.945167541503906 0.019402991980314255
8.157646179199219 -11.930988311767578 0.019407417625188828
8.197260856628418 -11.934126853942871 0.019440963864326477
8.239134788513184 -11.941912651062012 0.019481457769870758
8.267952919006348 -11.930222511291504 0.019662097096443176
8.309161186218262 -11.935561180114746 0.019699539989233017
8.340256690979004 -11.927367210388184 0.019714493304491043
8.37828254699707 -11.927409172058105 0.01998334750533104
8.41232967376709 -11.923197746276855 0.020005295053124428
8.4441499710083 -11.915728569030762 0.020022112876176834
8.487814903259277 -11.923270225524902 0.02006542682647705
8.517815589904785 -11.913008689880371 0.020077815279364586
8.550552368164062 -11.90608024597168 0.020095927640795708
8.627530097961426 -11.907519340515137 0.020159563049674034
8.652085304260254 -11.88899040222168 0.02081421948969364
8.699275970458984 -11.90073013305664 0.02086789347231388
8.73257064819336 -11.894390106201172 0.02088744007050991
8.77030086517334 -11.89244270324707 0.02091735415160656
8.802830696105957 -11.884840965270996 0.020936554297804832
8.837480545043945 -11.879999160766602 0.02095954120159149
8.880548477172852 -11.88479232788086 0.021002229303121567
8.920408248901367 -11.886614799499512 0.021037627011537552
8.956624031066895 -11.881915092468262 0.021064110100269318
8.990091323852539 -11.87496566772461 0.021084295585751534
9.024426460266113 -11.869056701660156 0.02110646292567253
9.069650650024414 -11.8757963180542 0.02115296944975853
9.094348907470703 -11.85704517364502 0.02066252939403057
9.175087928771973 -11.858555793762207 0.020064417272806168
9.216928482055664 -11.861692428588867 0.020100897178053856
9.283272743225098 -11.843786239624023 0.020136255770921707
9.320333480834961 -11.84037971496582 0.02016357146203518
9.366190910339355 -11.846478462219238 0.02020815759897232
9.403277397155762 -11.84278678894043 0.020236296579241753
12.988033294677734 -11.520380020141602 0.013000772334635258
13.044626235961914 -11.522298812866211 0.013033133000135422
13.090691566467285 -11.513298988342285 0.013054471462965012
13.13842487335205 -11.507014274597168 0.013078264892101288
13.186639785766602 -11.500972747802734 0.013102609664201736
13.229687690734863 -11.488850593566895 0.013120919466018677
13.294717788696289 -11.497014999389648 0.010807699523866177
13.336196899414062 -11.483181953430176 0.010822269134223461
13.388124465942383 -11.479598999023438 0.010845661163330078
13.439842224121094 -11.47563648223877 0.010867005214095116
13.494695663452148 -11.472718238830566 0.010891539044678211
13.546367645263672 -11.468303680419922 0.010914139449596405
13.605047225952148 -11.469596862792969 0.010941793210804462
13.654703140258789 -11.461647987365723 0.010961094871163368
13.704988479614258 -11.455463409423828 0.010983482003211975
13.810615539550781 -11.445300102233887 0.011029073968529701
13.86186408996582 -11.439332008361816 0.01105173397809267
13.910558700561523 -11.429651260375977 0.011070932261645794
13.961921691894531 -11.423401832580566 0.011092166416347027
14.018843650817871 -11.421488761901855 0.011119227856397629
14.068195343017578 -11.411784172058105 0.01113918423652649
14.123738288879395 -11.408323287963867 0.010353617370128632
14.22906494140625 -11.39471435546875 0.010397066362202168
14.283088684082031 -11.389410018920898 0.01041911169886589
14.343655586242676 -11.387667655944824 0.010444377548992634
14.406803131103516 -11.389139175415039 0.010472569614648819
14.512279510498047 -11.37353801727295 0.010817935690283775
14.575450897216797 -11.374300956726074 0.009196297265589237
14.616851806640625 -11.357882499694824 0.009208102710545063
14.674718856811523 -11.352655410766602 0.00923129916191101
14.728378295898438 -11.345388412475586 0.009251177310943604
14.788509368896484 -11.341453552246094 0.009270106442272663
14.844853401184082 -11.335817337036133 0.009293053299188614
14.895292282104492 -11.325474739074707 0.009308312088251114
14.966110229492188 -11.328948974609375 0.00933768693357706
15.023907661437988 -11.323735237121582 0.009358828887343407
15.075750350952148 -11.313441276550293 0.00937562808394432
15.127462387084961 -11.302201271057129 0.009392531588673592
15.184619903564453 -11.295879364013672 0.009416097775101662
15.249822616577148 -11.293859481811523 0.009439527057111263
15.306239128112793 -11.286531448364258 0.009459950029850006
15.369040489196777 -11.283679962158203 0.009484320878982544
15.427339553833008 -11.275840759277344 0.009505925700068474
15.481121063232422 -11.265935897827148 0.009524751454591751
15.546759605407715 -11.264427185058594 0.009235676378011703
15.604238510131836 -11.255319595336914 0.008397405035793781
15.67007827758789 -11.253445625305176 0.008419264107942581
15.72144889831543 -11.240571022033691 0.008433127775788307
15.781045913696289 -11.232705116271973 0.008451460860669613
15.84619426727295 -11.229602813720703 0.008475901558995247
15.90512752532959 -11.220403671264648 0.009133372455835342
15.965346336364746 -11.213338851928711 0.010023355484008789
16.029996871948242 -11.209144592285156 0.010049352422356606
16.09364891052246 -11.202537536621094 0.009198304265737534
16.151851654052734 -11.193365097045898 0.009221827611327171
16.288616180419922 -11.186894416809082 0.009271584451198578
16.346416473388672 -11.176742553710938 0.009292464703321457
16.406068801879883 -11.16617202758789 0.009311996400356293
16.4713134765625 -11.160633087158203 0.009011289104819298
16.528379440307617 -11.149322509765625 0.009027763269841671
16.60103988647461 -11.146809577941895 0.009054668247699738
16.661949157714844 -11.137612342834473 0.009075025096535683
16.79534149169922 -11.12472915649414 0.009122006595134735
16.869173049926758 -11.123335838317871 0.009147444739937782
16.923377990722656 -11.107277870178223 0.009166747331619263
17.001588821411133 -11.108200073242188 0.009196747094392776
17.06212615966797 -11.097297668457031 0.009216484613716602
17.127056121826172 -11.087535858154297 0.009239878505468369
17.200029373168945 -11.084193229675293 0.00926505122333765
17.269498825073242 -11.07830810546875 0.008375891484320164
17.402667999267578 -11.060564994812012 0.008416199125349522
17.472614288330078 -11.052688598632812 0.009458716958761215
17.53704261779785 -11.04255485534668 0.011329550296068192
17.609371185302734 -11.037134170532227 0.011359944008290768
17.68412971496582 -11.031441688537598 0.011393018066883087
17.74917984008789 -11.020919799804688 0.01141930092126131
17.820804595947266 -11.014219284057617 0.011454280465841293
17.883544921875 -11.00027084350586 0.011481150984764099
17.96403694152832 -10.998462677001953 0.011518795974552631
18.04498863220215 -10.995097160339355 0.011552032083272934
18.110416412353516 -10.983492851257324 0.011581884697079659
18.171112060546875 -10.968789100646973 0.011605367064476013
18.262542724609375 -10.970819473266602 0.010695742443203926
18.3277530670166 -10.95829963684082 0.010721508413553238
18.400550842285156 -10.950054168701172 0.010753530077636242
18.463417053222656 -10.934123039245605 0.0104240532964468
18.549190521240234 -10.932991027832031 0.01045623142272234
18.6215763092041 -10.92212200164795 0.010484736412763596
18.685684204101562 -10.907670021057129 0.010508902370929718
18.778648376464844 -10.909751892089844 0.010545765981078148
18.85594367980957 -10.900847434997559 0.01057511568069458
18.918601989746094 -10.884753227233887 0.0106023158878088
19.006134033203125 -10.88267993927002 0.010638700798153877
19.07525062561035 -10.86821174621582 0.010660619474947453
19.15979766845703 -10.863777160644531 0.01069626770913601
19.2308349609375 -10.850964546203613 0.011445699259638786
19.31710433959961 -10.845721244812012 0.015441736206412315
19.394420623779297 -10.83625602722168 0.015484029427170753
19.466957092285156 -10.822282791137695 0.015524034388363361
19.639930725097656 -10.811983108520508 0.015623830258846283
19.973857879638672 -10.777597427368164 0.014803515747189522
20.04262351989746 -10.761059761047363 0.014841516502201557
20.12628936767578 -10.750656127929688 0.014883855357766151
20.214990615844727 -10.744176864624023 0.014933213591575623
20.3006534576416 -10.735736846923828 0.014978289604187012
20.37430763244629 -10.719054222106934 0.0150179173797369
20.46462059020996 -10.712404251098633 0.015066470950841904
20.640621185302734 -10.694031715393066 0.014780831523239613
20.804027557373047 -10.667801856994629 0.014866581186652184
20.888383865356445 -10.656370162963867 0.014912469312548637
20.9788818359375 -10.64773178100586 0.014958405867218971
21.07192611694336 -10.638406753540039 0.015010596252977848
21.164043426513672 -10.62985610961914 0.015059167519211769
21.24492645263672 -10.615327835083008 0.015880774706602097
21.3487548828125 -10.61027717590332 0.02019675262272358
21.424283981323242 -10.592430114746094 0.02024943009018898
21.522523880004883 -10.583846092224121 0.020319711416959763
21.61797332763672 -10.5751314163208 0.020388897508382797
21.69164276123047 -10.555437088012695 0.020437762141227722
21.798564910888672 -10.549934387207031 0.02051667310297489
21.89585304260254 -10.540993690490723 0.019503988325595856
21.99512481689453 -10.53261947631836 0.019572315737605095
22.07206916809082 -10.51155948638916 0.019620461389422417
22.180797576904297 -10.506927490234375 0.019698798656463623
22.28632164001465 -10.498680114746094 0.019769499078392982
22.371185302734375 -10.481986999511719 0.019825533032417297
22.466632843017578 -10.469905853271484 0.019891154021024704
22.572303771972656 -10.460515975952148 0.019964702427387238
22.65964126586914 -10.443923950195312 0.01961488276720047
22.75579261779785 -10.43104076385498 0.019679438322782516
22.865175247192383 -10.422128677368164 0.01975587010383606
22.959856033325195 -10.407795906066895 0.019818764179944992
23.050264358520508 -10.38947582244873 0.019875846803188324
23.158510208129883 -10.380497932434082 0.019951481372117996
23.271785736083984 -10.373327255249023 0.02002958208322525
23.360454559326172 -10.3530912399292 0.020087864249944687
23.466379165649414 -10.341826438903809 0.020160434767603874
23.57036781311035 -10.32929515838623 0.020230619236826897
23.68646240234375 -10.31991195678711 0.02492501586675644
23.783288955688477 -10.303426742553711 0.025004297494888306
23.887027740478516 -10.289083480834961 0.02466409280896187
23.99853515625 -10.276857376098633 0.024757254868745804
24.1088809967041 -10.264958381652832 0.024848565459251404
24.20984649658203 -10.246909141540527 0.024930259212851524
24.308259963989258 -10.229133605957031 0.02383270487189293
24.42479133605957 -10.218560218811035 0.023926082998514175
24.527427673339844 -10.199987411499023 0.02400500513613224
24.635879516601562 -10.185175895690918 0.024090370163321495
24.86853790283203 -10.158942222595215 0.024275463074445724
24.985397338867188 -10.146228790283203 0.024368910118937492
25.094575881958008 -10.12817096710205 0.024454152211546898
25.219335556030273 -10.117713928222656 0.024555277079343796
25.314104080200195 -10.09479808807373 0.02462681010365486
25.553325653076172 -10.065672874450684 0.024818548932671547
25.78380012512207 -10.031230926513672 0.02500036172568798
25.911029815673828 -10.018871307373047 0.025103464722633362
26.03108024597168 -10.001420021057129 0.02474256604909897
26.145671844482422 -9.983230590820312 0.024831509217619896
26.26949691772461 -9.968097686767578 0.024468883872032166
26.393531799316406 -9.950715065002441 0.027083752676844597
26.511226654052734 -9.932300567626953 0.02718331106007099
26.61962127685547 -9.909964561462402 0.027273312211036682
26.761789321899414 -9.897850036621094 0.027397284284234047
26.878910064697266 -9.877805709838867 0.0274960994720459
27.010696411132812 -9.860794067382812 0.0276095662266016
27.268678665161133 -9.826910972595215 0.027831275016069412
27.396350860595703 -9.806844711303711 0.02793995477259159
27.645851135253906 -9.7669038772583 0.028152870014309883
27.785566329956055 -9.749549865722656 0.028274059295654297
27.913362503051758 -9.729381561279297 0.027898699045181274
28.04383087158203 -9.708234786987305 0.02800922282040119
28.168701171875 -9.685531616210938 0.028113054111599922
17.998916625976562 -6.1041107177734375 0.01793457567691803
17.99045181274414 -6.059641361236572 0.01706754043698311
17.98149871826172 -6.015105724334717 0.017047250643372536
17.97591209411621 -5.9705705642700195 0.017029624432325363
17.968814849853516 -5.9268388748168945 0.01701141707599163
17.963180541992188 -5.8824615478515625 0.01699410006403923
17.966102600097656 -5.842164993286133 0.016985628753900528
17.995731353759766 -5.8105340003967285 0.016069287434220314
18.188854217529297 -5.830013275146484 0.01709546521306038
18.493083953857422 -5.8429999351501465 0.01735520362854004
18.43981170654297 -5.782875061035156 0.01729237660765648
18.189594268798828 -5.5790510177612305 0.01700906828045845
18.235912322998047 -5.551881313323975 0.017047947272658348
17.72034454345703 -5.353581428527832 0.016529589891433716
17.79974365234375 -5.337284564971924 0.01663738302886486
17.633127212524414 -5.247467041015625 0.016448793932795525
17.788732528686523 -5.212324619293213 0.016276028007268906
17.883636474609375 -5.158451557159424 0.015516173094511032
17.95302963256836 -5.13813591003418 0.01556357741355896
18.056486129760742 -5.126038074493408 0.015644311904907227
18.07835578918457 -5.09173059463501 0.015652058646082878
18.15808868408203 -5.073540210723877 0.015709463506937027
18.168289184570312 -5.034574031829834 0.015709901228547096
18.045429229736328 -4.960227966308594 0.015592791140079498
18.334449768066406 -4.956719398498535 0.01583891548216343
18.411052703857422 -4.936453342437744 0.012645930983126163
18.497278213500977 -4.917241096496582 0.012687774375081062
18.597537994384766 -4.9025959968566895 0.012771222740411758
18.215543746948242 -4.761491298675537 0.012433134019374847
17.902935028076172 -4.638940334320068 0.012223013676702976
17.84821319580078 -4.585257053375244 0.01219744049012661
17.83534049987793 -4.542516231536865 0.011876149103045464
17.835668563842773 -4.502049446105957 0.011050875298678875
17.84319496154785 -4.464582443237305 0.011051558889448643
17.838600158691406 -4.422961235046387 0.011039831675589085
17.84178352355957 -4.384469032287598 0.011038074269890785
17.83027458190918 -4.342425346374512 0.011024722829461098
18.00631332397461 -4.305049419403076 0.0111441845074296
18.315162658691406 -4.338730812072754 0.011311104521155357
18.310850143432617 -4.2964186668396 0.011294999159872532
18.318870544433594 -4.258212089538574 0.011298442259430885
18.97138214111328 -4.3675103187561035 0.011780783534049988
19.251338958740234 -4.389590740203857 0.011867325752973557
19.312543869018555 -4.361405372619629 0.011897435411810875
19.408554077148438 -4.339532375335693 0.011951952241361141
19.538846969604492 -4.32611083984375 0.012029558420181274
19.680194854736328 -4.314583778381348 0.01178163941949606
20.863117218017578 -4.253296375274658 0.007244382053613663
20.85121726989746 -4.2058210372924805 0.006886808201670647
20.84632110595703 -4.15850830078125 0.006882654037326574
20.834285736083984 -4.111170768737793 0.006876732688397169
20.840377807617188 -4.067459583282471 0.006875180639326572
20.838655471801758 -4.020930290222168 0.0068721165880560875
20.919750213623047 -3.991567373275757 0.006895278114825487
21.15099334716797 -3.988879680633545 0.006971955299377441
21.222469329833984 -3.956770420074463 0.006987931672483683
21.675643920898438 -3.994734287261963 0.007132579572498798
21.7298526763916 -3.956747055053711 0.006136371288448572
21.860408782958984 -3.933668613433838 0.006171918474137783
25.196439743041992 -4.424503326416016 0.00707822572439909
25.156234741210938 -4.363649368286133 0.007062695454806089
25.096160888671875 -4.298025131225586 0.006616394035518169
25.051158905029297 -4.236825942993164 0.006612469907850027
24.976661682128906 -4.170930862426758 0.006580154411494732
24.92559242248535 -4.107690334320068 0.006565703544765711
24.876314163208008 -4.046562671661377 0.0008238223381340504
24.816980361938477 -3.9840657711029053 -0.0002928576432168484
24.77224349975586 -3.922618865966797 -0.00029341760091483593
24.728843688964844 -3.8631608486175537 -0.00029061269015073776
24.690750122070312 -3.803194999694824 -0.00029034819453954697
24.639711380004883 -3.74300479888916 -0.0002892562188208103
24.58272933959961 -3.68217396736145 -0.00028749718330800533
24.528839111328125 -3.6205437183380127 -0.00028842082247138023
24.514087677001953 -3.5664026737213135 -0.00028472859412431717
24.46800994873047 -3.5078635215759277 -0.00028411322273314
24.37429428100586 -3.441305160522461 -0.0006955545395612717
24.331626892089844 -3.383796215057373 -0.0006962236948311329
24.2733211517334 -3.322847366333008 -0.0006958970334380865
24.23944091796875 -3.266979694366455 -0.0006927363574504852
24.131332397460938 -3.148993492126465 -0.0006908520590513945
24.05488395690918 -3.0882625579833984 -0.0017679351149126887
23.997486114501953 -3.030287027359009 -0.0017658111173659563
23.935720443725586 -2.9705536365509033 -0.0017607423942536116
23.8922119140625 -2.9148223400115967 -0.0017560108099132776
23.84016227722168 -2.8572044372558594 -0.0017509997123852372
23.764171600341797 -2.797682285308838 -0.0017483155243098736
23.7229061126709 -2.742924213409424 -0.001740366336889565
23.674068450927734 -2.6860411167144775 -0.00173767632804811
23.63035011291504 -2.6314234733581543 -0.008192970417439938
23.58425521850586 -2.5767533779144287 -0.008174799382686615
23.560230255126953 -2.5232088565826416 -0.008161795325577259
23.508522033691406 -2.4683377742767334 -0.008143004961311817
23.496410369873047 -2.416330575942993 -0.008134265430271626
23.454971313476562 -2.3628907203674316 -0.008119574747979641
23.42087745666504 -2.3103699684143066 -0.008104110136628151
23.373023986816406 -2.2552437782287598 -0.008085483685135841
23.3333797454834 -2.2025563716888428 -0.00807165913283825
23.29676055908203 -2.1503331661224365 -0.00805662851780653
23.272457122802734 -2.0979607105255127 -0.008435061201453209
23.235300064086914 -2.0460104942321777 -0.00842219777405262
23.195640563964844 -1.994018316268921 -0.00840269960463047
23.172100067138672 -1.9421370029449463 -0.008391090668737888
23.12357521057129 -1.8897552490234375 -0.008373163640499115
23.118301391601562 -1.8396170139312744 -0.009395994246006012
23.055200576782227 -1.786456823348999 -0.009373161941766739
23.041988372802734 -1.7373368740081787 -0.009363175369799137
22.994304656982422 -1.6843491792678833 -0.009343171492218971
22.961925506591797 -1.6340783834457397 -0.009327676147222519
22.882144927978516 -1.5315748453140259 -0.009293392300605774
22.85433006286621 -1.4820798635482788 -0.009279298596084118
22.779693603515625 -1.3809272050857544 -0.013297729194164276
22.748992919921875 -1.3316898345947266 -0.013276688754558563
22.72707176208496 -1.2816959619522095 -0.013263052329421043
22.697494506835938 -1.2327817678451538 -0.01324419304728508
22.64914321899414 -1.1830209493637085 -0.013214288279414177
22.630874633789062 -1.1335954666137695 -0.01320143137127161
22.59649085998535 -1.08486807346344 -0.013179685920476913
22.55550193786621 -1.034610390663147 -0.013154815882444382
22.525470733642578 -0.9863941669464111 -0.013136250898241997
22.497371673583984 -0.938391923904419 -0.013118223287165165
22.464187622070312 -0.8889397978782654 -0.013097813352942467
22.44814109802246 -0.841651201248169 -0.014084932394325733
22.398155212402344 -0.7932347059249878 -0.014052353799343109
22.374649047851562 -0.744548499584198 -0.014408959075808525
22.345680236816406 -0.6971646547317505 -0.014388876035809517
22.3330078125 -0.6500101089477539 -0.014379754662513733
22.27716827392578 -0.6011289954185486 -0.014343267306685448
22.25772476196289 -0.5543841123580933 -0.014329513534903526
22.245637893676758 -0.506534218788147 -0.014320961199700832
22.22383689880371 -0.45989716053009033 -0.014305710792541504
22.186630249023438 -0.41306787729263306 -0.014281447976827621
22.161033630371094 -0.3652356266975403 -0.014264808036386967
22.145950317382812 -0.3190189003944397 -0.014253850094974041
22.090377807617188 -0.27138686180114746 -0.014217929914593697
22.06924819946289 -0.22495678067207336 -0.016412928700447083
22.035768508911133 -0.1788831502199173 -0.016386525705456734
22.013193130493164 -0.13167227804660797 -0.016370519995689392
21.98065948486328 -0.08586238324642181 -0.016346672549843788
21.945228576660156 -0.04018295556306839 -0.016683582216501236
27.283117294311523 0.006660917308181524 0.20558474957942963
27.232398986816406 0.06316119432449341 0.20520295202732086
27.163101196289062 0.12102779746055603 0.20468157529830933
27.123929977416992 0.1771424412727356 0.20438943803310394
27.057735443115234 0.23286345601081848 0.20269203186035156
27.01126480102539 0.29017123579978943 0.20189836621284485
26.99435806274414 0.346015989780426 0.20177707076072693
26.98887825012207 0.40361136198043823 0.20174141228199005
26.663419723510742 0.7341455221176147 0.19669808447360992
26.559860229492188 0.7864559888839722 0.19594413042068481
26.485212326049805 0.8392593860626221 0.19540667533874512
26.436012268066406 0.894234299659729 0.1950572282075882
26.372516632080078 0.9468811750411987 0.19460242986679077
26.32245635986328 1.0013914108276367 0.19424742460250854
26.27351188659668 1.0541354417800903 0.19390247762203217
26.2379207611084 1.1072485446929932 0.1936560422182083
26.17168426513672 1.1604667901992798 0.19318777322769165
26.09015464782715 1.2111053466796875 0.1921672374010086
25.926841735839844 1.3129708766937256 0.19100421667099
25.871295928955078 1.3639893531799316 0.1894642859697342
25.798566818237305 1.4154260158538818 0.18895334005355835
25.733688354492188 1.4654358625411987 0.18849921226501465
25.69442367553711 1.516700267791748 0.1882338523864746
25.625423431396484 1.5675666332244873 0.18775300681591034
25.55965805053711 1.6167902946472168 0.18729612231254578
25.526348114013672 1.6678743362426758 0.18707621097564697
25.45602798461914 1.7178995609283447 0.18658766150474548
25.423696517944336 1.7687245607376099 0.18877848982810974
25.367958068847656 1.819309115409851 0.18839424848556519
25.303586959838867 1.8674805164337158 0.1875227391719818
25.274703979492188 1.9180927276611328 0.18733690679073334
25.211231231689453 1.9674516916275024 0.18689751625061035
25.152997970581055 2.0154311656951904 0.18649542331695557
25.117382049560547 2.0650439262390137 0.1862647980451584
25.063875198364258 2.1145589351654053 0.1859005093574524
25.022876739501953 2.1634061336517334 0.1845138967037201
24.98546028137207 2.2139549255371094 0.18427015841007233
24.957101821899414 2.2636492252349854 0.18409469723701477
24.891887664794922 2.3098244667053223 0.18364866077899933
24.83984375 2.3585262298583984 0.18330176174640656
24.79515838623047 2.406212568283081 0.18300795555114746
24.756980895996094 2.455488443374634 0.1827651858329773
24.702129364013672 2.502239227294922 0.18239760398864746
24.667146682739258 2.5504209995269775 0.18176543712615967
24.62482452392578 2.5988104343414307 0.18149523437023163
24.58911895751953 2.647061824798584 0.18127116560935974
24.523191452026367 2.6914563179016113 0.18082740902900696
24.47477912902832 2.7390689849853516 0.18051162362098694
24.432445526123047 2.7856802940368652 0.1802433580160141
24.37786865234375 2.830716609954834 0.1798815131187439
