VERSION .7
FIELDS x y z
SIZE 4 4 4
TYPE F F F
COUNT 1 1 1
WIDTH 850
HEIGHT 1
VIEWPOINT 0 0 0 1 0 0 0
POINTS 850
DATA ascii
6.544200897216797 7.64169979095459 0.06838344037532806
6.510270118713379 7.634089469909668 0.06819452345371246
6.482639789581299 7.634661674499512 0.06785590201616287
6.454856872558594 7.633994102478027 0.06733976304531097
6.4326019287109375 7.639772415161133 0.06727270781993866
6.4018754959106445 7.636329650878906 0.06690345704555511
6.382866859436035 7.645827293395996 0.0664810836315155
6.346927642822266 7.634927749633789 0.06627157330513
6.32342529296875 7.639797210693359 0.06597889214754105
6.296010971069336 7.638893127441406 0.06547104567289352
6.266809463500977 7.635693550109863 0.06533215939998627
6.240362644195557 7.6366777420043945 0.06500988453626633
6.2106428146362305 7.6325788497924805 0.06448058784008026
6.185885429382324 7.63507080078125 0.06460641324520111
6.163834571838379 7.640558242797852 0.06454277783632278
6.127711296081543 7.628119468688965 0.0637337937951088
6.1111836433410645 7.640918254852295 0.06373148411512375
6.0809197425842285 7.635509967803955 0.06358098983764648
6.048973083496094 7.627824306488037 0.06281810998916626
6.026524543762207 7.63295316696167 0.06275410205125809
6.000476837158203 7.632474899291992 0.06264770030975342
5.972605228424072 7.6301703453063965 0.061933666467666626
5.949246406555176 7.633255958557129 0.061856869608163834
5.923340797424316 7.632632255554199 0.061752401292324066
5.897313117980957 7.632702827453613 0.061062246561050415
5.869434833526611 7.629291534423828 0.06093734875321388
5.835236549377441 7.617497444152832 0.06074603646993637
5.821887016296387 7.633795261383057 0.06019128859043121
5.803884983062744 7.643031597137451 0.0601683184504509
5.771688461303711 7.633471488952637 0.059999044984579086
5.747596740722656 7.635458946228027 0.05933498218655586
5.721943378448486 7.6342997550964355 0.05923333391547203
5.691994667053223 7.627272605895996 0.059086889028549194
5.671730041503906 7.634086608886719 0.058464862406253815
5.654837608337402 7.644436836242676 0.05845408886671066
5.623811721801758 7.635584831237793 0.0582970529794693
5.5910491943359375 7.625163555145264 0.05754970386624336
5.568003177642822 7.626872539520264 0.05768202245235443
5.521828651428223 7.630899429321289 0.05716776102781296
5.501999855041504 7.636816501617432 0.056919533759355545
5.472527027130127 7.630223274230957 0.05641624331474304
5.450031280517578 7.6322503089904785 0.056348107755184174
5.427416801452637 7.634029388427734 0.056071989238262177
5.409183979034424 7.642904281616211 0.05568616837263107
5.372350692749023 7.624364852905273 0.055469904094934464
5.356405258178711 7.6353373527526855 0.055263303220272064
5.327009677886963 7.628043174743652 0.054764524102211
5.294775009155273 7.615501880645752 0.0545964241027832
5.277979850769043 7.625057220458984 0.05438276752829552
5.258934497833252 7.632332801818848 0.053991056978702545
5.222423553466797 7.613110065460205 0.05377870798110962
5.1834306716918945 7.624908924102783 0.053143423050642014
5.16119909286499 7.626197338104248 0.053078874945640564
5.129467487335205 7.614302635192871 0.052718471735715866
5.113120079040527 7.624133110046387 0.052354007959365845
5.083543300628662 7.61414098739624 0.052212443202733994
5.071948528289795 7.632028579711914 0.0520591139793396
5.039101600646973 7.616844177246094 0.051527805626392365
5.025190353393555 7.630179405212402 0.05154802277684212
4.9992451667785645 7.626200199127197 0.05144742131233215
4.977384090423584 7.627326011657715 0.05102979391813278
4.946820259094238 7.615988731384277 0.05068448185920715
4.929770469665527 7.624329566955566 0.05031653121113777
4.90849494934082 7.626086235046387 0.050259068608284
4.88209342956543 7.620790481567383 0.04995812103152275
4.865954399108887 7.630413055419922 0.0496014729142189
4.838434219360352 7.622103691101074 0.04928289353847504
4.808524131774902 7.610869407653809 0.049144595861434937
4.789133071899414 7.615128993988037 0.049108415842056274
4.764854431152344 7.6115264892578125 0.04847392439842224
4.754034996032715 7.630438804626465 0.048527322709560394
4.719869136810303 7.610744953155518 0.04798976331949234
4.7035017013549805 7.619610786437988 0.04778800159692764
4.682855606079102 7.622547149658203 0.04774407297372818
4.656368732452393 7.614818096160889 0.04728545993566513
4.635122776031494 7.616583824157715 0.04703918844461441
4.621371269226074 7.629593849182129 0.04706055670976639
4.593725681304932 7.619590759277344 0.046939246356487274
4.575762748718262 7.626594066619873 0.046378470957279205
4.543548583984375 7.60864782333374 0.046212904155254364
4.526882171630859 7.616600036621094 0.04585801810026169
4.51188850402832 7.628430366516113 0.04567667096853256
4.479074954986572 7.608942985534668 0.04550366848707199
4.459354400634766 7.611529350280762 0.04511881619691849
4.438384056091309 7.61297607421875 0.044878456741571426
4.413845062255859 7.607122421264648 0.044789355248212814
4.392993927001953 7.607511520385742 0.044544778764247894
5.441126823425293 -10.172029495239258 0.07503115385770798
5.498584270477295 -10.176166534423828 0.07523327320814133
5.509770393371582 -10.146467208862305 0.07580342143774033
5.5751051902771 -10.164473533630371 0.07682232558727264
5.605034828186035 -10.168933868408203 0.07739859819412231
5.6556396484375 -10.1593017578125 0.0777590423822403
5.688026428222656 -10.166837692260742 0.07836633920669556
5.741433143615723 -10.162554740905762 0.07923068851232529
5.76708984375 -10.157759666442871 0.07928634434938431
5.798994064331055 -10.164764404296875 0.07969208061695099
5.830733299255371 -10.170785903930664 0.08029310405254364
5.853498458862305 -10.160646438598633 0.08031027019023895
5.883214950561523 -10.162895202636719 0.08068288117647171
5.914813995361328 -10.167840003967285 0.08128037303686142
5.936640739440918 -10.156808853149414 0.08129049837589264
5.963446617126465 -10.153733253479004 0.08208432793617249
6.023571968078613 -10.158405303955078 0.08232630789279938
6.04921293258667 -10.153055191040039 0.08310706913471222
6.09376335144043 -10.131059646606445 0.08313429355621338
6.128840446472168 -10.141164779663086 0.0840475931763649
6.186774253845215 -10.140807151794434 0.08498267829418182
6.268689155578613 -10.13077163696289 0.08621577173471451
6.3533735275268555 -10.124820709228516 0.08723214268684387
6.44158935546875 -10.123483657836914 0.0887719988822937
6.988890647888184 -10.073603630065918 0.09573057293891907
7.086050987243652 -10.077779769897461 0.09694480895996094
7.172780513763428 -10.06519889831543 0.09801209717988968
7.246673107147217 -10.079639434814453 0.09920459985733032
7.268999099731445 -10.06572151184082 0.0992187112569809
7.329944610595703 -10.061403274536133 0.10023659467697144
7.3552446365356445 -10.051407814025879 0.10029074549674988
7.4466166496276855 -10.043176651000977 0.10143694281578064
7.473567485809326 -10.035466194152832 0.10200920701026917
7.514883041381836 -10.04653263092041 0.10255661606788635
7.5376787185668945 -10.033530235290527 0.10258305072784424
7.5793352127075195 -10.0450439453125 0.103356271982193
7.606017112731934 -10.036202430725098 0.10370613634586334
7.63400936126709 -10.029829978942871 0.10435476899147034
7.660437107086182 -10.020878791809082 0.10492220520973206
7.699131011962891 -10.027482986450195 0.10543835163116455
7.722821235656738 -10.015241622924805 0.10597318410873413
7.787343978881836 -10.011443138122559 0.10655679553747177
7.820859909057617 -10.011140823364258 0.10722444951534271
7.916675567626953 -10.003519058227539 0.10845322906970978
8.021738052368164 -10.006356239318848 0.10981124639511108
8.115535736083984 -9.993967056274414 0.11051468551158905
8.939798355102539 -9.941493034362793 0.12159208208322525
9.045799255371094 -9.933061599731445 0.12300214171409607
9.074592590332031 -9.922454833984375 0.12310811877250671
9.145166397094727 -9.916227340698242 0.12379872798919678
9.190727233886719 -9.923445701599121 0.12466045469045639
9.29395866394043 -9.909215927124023 0.1266372799873352
9.332305908203125 -9.908378601074219 0.1271745264530182
9.359091758728027 -9.894814491271973 0.1272527426481247
9.403985023498535 -9.901041984558105 0.12758542597293854
9.442203521728516 -9.89962100982666 0.12782078981399536
9.478532791137695 -9.895732879638672 0.12886659801006317
9.549933433532715 -9.887361526489258 0.1292743980884552
9.58223819732666 -9.878921508789062 0.13026882708072662
9.631004333496094 -9.887624740600586 0.13064967095851898
9.659624099731445 -9.875919342041016 0.13075901567935944
9.699763298034668 -9.875102996826172 0.13102056086063385
9.742121696472168 -9.876708984375 0.13215896487236023
9.814764976501465 -9.867326736450195 0.1325826346874237
9.850470542907715 -9.861774444580078 0.13308976590633392
9.924962997436523 -9.85344123840332 0.13408569991588593
9.970170974731445 -9.856893539428711 0.13441750407218933
10.041988372802734 -9.844614028930664 0.1356835812330246
10.820087432861328 -9.793102264404297 0.14501062035560608
10.942031860351562 -9.779040336608887 0.14671269059181213
11.080660820007324 -9.77833366394043 0.14832288026809692
11.200946807861328 -9.759920120239258 0.15001621842384338
11.290117263793945 -9.75427532196045 0.15098394453525543
11.326130867004395 -9.743643760681152 0.151190847158432
11.420175552368164 -9.741931915283203 0.1522296518087387
11.462313652038574 -9.736083030700684 0.15310685336589813
11.550483703613281 -9.72830581665039 0.1537395864725113
11.598732948303223 -9.72709846496582 0.1541094034910202
11.639543533325195 -9.720251083374023 0.15530818700790405
11.68535041809082 -9.716983795166016 0.15564733743667603
11.724063873291016 -9.707319259643555 0.1558888703584671
11.786209106445312 -9.717185974121094 0.15644364058971405
11.811521530151367 -9.696179389953613 0.15744119882583618
11.861913681030273 -9.6964111328125 0.157842218875885
11.910260200500488 -9.6943359375 0.1582149863243103
11.95693588256836 -9.690369606018066 0.15856283903121948
11.98818588256836 -9.674114227294922 0.1590452641248703
12.05178451538086 -9.684209823608398 0.16022571921348572
12.138256072998047 -9.669849395751953 0.1608351171016693
12.193218231201172 -9.672342300415039 0.1616370528936386
12.279600143432617 -9.656888961791992 0.16251197457313538
12.334531784057617 -9.65872859954834 0.16358551383018494
12.437385559082031 -9.655049324035645 0.16475290060043335
13.465356826782227 -9.532962799072266 0.17594090104103088
13.630178451538086 -9.521583557128906 0.17861244082450867
13.776050567626953 -9.49517822265625 0.18010357022285461
13.832311630249023 -9.491674423217773 0.18123885989189148
13.943365097045898 -9.481756210327148 0.18253739178180695
13.998196601867676 -9.475820541381836 0.18299232423305511
14.09912109375 -9.458600997924805 0.18445995450019836
14.147733688354492 -9.447897911071777 0.18483418226242065
14.203678131103516 -9.442249298095703 0.18567873537540436
14.270309448242188 -9.443901062011719 0.18629267811775208
14.322385787963867 -9.434879302978516 0.18671190738677979
14.381044387817383 -9.430335998535156 0.18789257109165192
14.431694030761719 -9.419973373413086 0.1882936656475067
14.485960006713867 -9.41258430480957 0.18874642252922058
14.547075271606445 -9.408968925476074 0.18966369330883026
14.610413551330566 -9.406179428100586 0.1902294158935547
14.664224624633789 -9.397384643554688 0.19067323207855225
14.707159042358398 -9.381900787353516 0.19128045439720154
14.774614334106445 -9.381041526794434 0.1918993890285492
14.835830688476562 -9.376312255859375 0.1931270956993103
14.893597602844238 -9.36962604522705 0.1936248540878296
14.956733703613281 -9.364809036254883 0.1945708692073822
15.01141357421875 -9.355737686157227 0.19572213292121887
15.126534461975098 -9.33926773071289 0.19670841097831726
15.195257186889648 -9.338199615478516 0.19735029339790344
15.317093849182129 -9.324434280395508 0.19881294667720795
15.368179321289062 -9.311877250671387 0.1999293863773346
15.5470609664917 -9.287149429321289 0.20149168372154236
15.744283676147461 -9.271163940429688 0.20440402626991272
16.71678924560547 -9.147476196289062 0.2162548303604126
16.87134552001953 -9.139934539794922 0.21850666403770447
16.93378448486328 -9.12835693359375 0.219070702791214
17.078481674194336 -9.113740921020508 0.22086665034294128
17.154743194580078 -9.10875129699707 0.22160792350769043
17.29034996032715 -9.087616920471191 0.2228626310825348
17.34686279296875 -9.071426391601562 0.22411495447158813
17.50345802307129 -9.059650421142578 0.2256431132555008
17.583778381347656 -9.055006980895996 0.22686778008937836
17.640766143798828 -9.036727905273438 0.22735273838043213
17.714744567871094 -9.028266906738281 0.22806474566459656
17.79587173461914 -9.023138999938965 0.22886817157268524
17.873716354370117 -9.014662742614746 0.2304052859544754
17.952442169189453 -9.007684707641602 0.23161758482456207
18.0296688079834 -8.998764991760254 0.2331586480140686
18.092491149902344 -8.98277759552002 0.23372483253479004
18.180713653564453 -8.979598999023438 0.2346232533454895
18.254751205444336 -8.968204498291016 0.2353334128856659
18.330495834350586 -8.957747459411621 0.23606808483600616
18.413022994995117 -8.949898719787598 0.2368849515914917
18.492897033691406 -8.940826416015625 0.23847652971744537
18.56998062133789 -8.930598258972168 0.2396823763847351
18.72423553466797 -8.90788459777832 0.24118688702583313
18.814712524414062 -8.903094291687012 0.24211376905441284
18.97844696044922 -8.882943153381348 0.2437373250722885
19.051376342773438 -8.868927955627441 0.24443720281124115
19.2153263092041 -8.846981048583984 0.24688906967639923
19.309707641601562 -8.841917037963867 0.2483292669057846
19.48473358154297 -8.822988510131836 0.2501000761985779
19.734798431396484 -8.787139892578125 0.25259631872177124
20.00943946838379 -8.759115219116211 0.2572132647037506
20.818115234375 -8.64753532409668 0.2668328881263733
21.1175537109375 -8.616656303405762 0.26997125148773193
21.394840240478516 -8.573302268981934 0.2742292582988739
21.600852966308594 -8.550455093383789 0.2764056921005249
21.6911563873291 -8.534177780151367 0.2773330807685852
21.804153442382812 -8.526424407958984 0.2785513997077942
21.905811309814453 -8.5122709274292 0.27961716055870056
22.008745193481445 -8.49974250793457 0.2807053327560425
22.099103927612305 -8.481982231140137 0.2826683521270752
22.200143814086914 -8.46639633178711 0.2846592366695404
22.317901611328125 -8.458297729492188 0.2859441339969635
22.415563583374023 -8.44115161895752 0.2869657874107361
22.529033660888672 -8.42997932434082 0.28819146752357483
22.632497787475586 -8.415191650390625 0.2892909646034241
22.72562026977539 -8.394601821899414 0.2907811999320984
22.843280792236328 -8.384232521057129 0.29206374287605286
23.058570861816406 -8.353228569030762 0.2943640947341919
23.17151641845703 -8.339790344238281 0.2955840826034546
23.29322052001953 -8.329034805297852 0.29691559076309204
23.40884780883789 -8.314022064208984 0.2991352677345276
23.523378372192383 -8.299766540527344 0.30037814378738403
23.640705108642578 -8.284997940063477 0.3016509711742401
23.74591636657715 -8.265997886657715 0.3027716279029846
23.857372283935547 -8.249327659606934 0.30397409200668335
23.977005004882812 -8.233391761779785 0.30527329444885254
24.10426902770996 -8.221214294433594 0.3066757321357727
24.34648895263672 -8.189529418945312 0.3098784387111664
24.459514617919922 -8.171087265014648 0.3111002445220947
24.694934844970703 -8.134286880493164 0.31365588307380676
24.81515884399414 -8.116842269897461 0.31668543815612793
25.202960968017578 -8.068655014038086 0.32156044244766235
25.598997116088867 -8.018373489379883 0.32596421241760254
26.13510513305664 -7.349460601806641 0.33094918727874756
26.14348793029785 -7.293310165405273 0.33145517110824585
26.164405822753906 -7.122166633605957 0.33292248845100403
26.17611312866211 -7.007081985473633 0.3305697441101074
26.189117431640625 -6.952353477478027 0.33055153489112854
26.18105697631836 -6.890376567840576 0.3302612900733948
26.226299285888672 -6.844121932983398 0.33065277338027954
26.20516586303711 -6.780553817749023 0.3302082121372223
26.21953773498535 -6.724543571472168 0.33020731806755066
26.227258682250977 -6.668547630310059 0.33072176575660706
26.24331283569336 -6.614680290222168 0.33075112104415894
26.252891540527344 -6.557481288909912 0.330693781375885
21.899097442626953 -5.421731948852539 0.2766098976135254
21.90142059326172 -5.374095916748047 0.276496946811676
21.885311126708984 -5.272525310516357 0.27601104974746704
21.87316131591797 -5.220185279846191 0.27571576833724976
21.864425659179688 -5.170166969299316 0.2754707336425781
21.868207931518555 -5.123166561126709 0.2753816246986389
21.814617156982422 -5.061477184295654 0.2745727300643921
21.78812599182129 -5.0077056884765625 0.27410948276519775
21.801422119140625 -4.963151931762695 0.2741459012031555
21.790592193603516 -4.911746978759766 0.2738737463951111
21.788894653320312 -4.8638739585876465 0.273725301027298
21.78342056274414 -4.814715385437012 0.27352917194366455
21.774917602539062 -4.764570236206055 0.2742738723754883
21.764095306396484 -4.7148966789245605 0.27226734161376953
21.925662994384766 -4.653311252593994 0.2740193009376526
21.708026885986328 -4.322634220123291 0.27062076330184937
21.700042724609375 -4.179390907287598 0.270192414522171
21.659801483154297 -4.030591011047363 0.26936838030815125
21.68004035949707 -3.75161075592041 0.26900848746299744
21.66832733154297 -3.6094346046447754 0.2690580487251282
22.109895706176758 -3.540283679962158 0.2733805179595947
23.18163299560547 -3.612757921218872 0.286440372467041
23.32624053955078 -3.5847935676574707 0.2881357669830322
26.6451473236084 -3.9235453605651855 0.3288295865058899
23.886171340942383 -3.466118574142456 0.29468077421188354
26.458650588989258 -3.782308578491211 0.32632720470428467
26.26936912536621 -3.699638843536377 0.3238995671272278
24.74681854248047 -3.378986358642578 0.3049403727054596
24.718185424804688 -3.3228397369384766 0.3045004606246948
24.708942413330078 -3.2678747177124023 0.3043050467967987
24.71176528930664 -3.2160837650299072 0.30425482988357544
24.79016876220703 -3.173985719680786 0.3051359951496124
25.008373260498047 -3.1476378440856934 0.3077346682548523
26.215641021728516 -3.244340181350708 0.3225225806236267
26.192398071289062 -3.1857080459594727 0.3221522569656372
26.195268630981445 -3.1298670768737793 0.322102814912796
26.181652069091797 -3.0731465816497803 0.32186195254325867
26.171314239501953 -3.015268325805664 0.3216458261013031
26.147653579711914 -2.9575743675231934 0.32025790214538574
26.134868621826172 -2.901212692260742 0.3200315237045288
26.142345428466797 -2.8455209732055664 0.32003939151763916
26.126564025878906 -2.7889556884765625 0.31977924704551697
26.116180419921875 -2.733046054840088 0.31958746910095215
26.100494384765625 -2.6750495433807373 0.3193233609199524
26.100826263427734 -2.620361566543579 0.3192529082298279
26.05990219116211 -2.561062812805176 0.3186808228492737
26.038305282592773 -2.5033676624298096 0.3183637857437134
26.04698371887207 -2.4496607780456543 0.3184068500995636
26.022632598876953 -2.3923254013061523 0.3180443048477173
26.012222290039062 -2.3359169960021973 0.317857950925827
25.98760223388672 -2.2787771224975586 0.3175038695335388
25.963890075683594 -2.1123063564300537 0.3170425295829773
25.861360549926758 -1.6675724983215332 0.3132653832435608
25.819103240966797 -1.5019217729568481 0.3136415183544159
25.78583526611328 -1.3363796472549438 0.3131273090839386
25.764415740966797 -1.1729146242141724 0.312209814786911
25.74889373779297 -1.118668556213379 0.31199610233306885
25.746044158935547 -1.064453125 0.31093189120292664
25.73114013671875 -1.0093464851379395 0.31071633100509644
25.744869232177734 -0.9563815593719482 0.31085503101348877
25.728805541992188 -0.9017565846443176 0.310638427734375
25.727445602416992 -0.8472520112991333 0.31060177087783813
25.71731948852539 -0.7934954762458801 0.3104546070098877
25.674142837524414 -0.6839497089385986 0.3099047839641571
25.682180404663086 -0.630267858505249 0.30998504161834717
25.66874122619629 -0.5756381154060364 0.30980223417282104
25.678112030029297 -0.5225370526313782 0.30990466475486755
25.66547966003418 -0.46843448281288147 0.3097420334815979
25.654727935791016 -0.4139822721481323 0.30960071086883545
25.640714645385742 -0.3605347275733948 0.30829617381095886
25.65863800048828 -0.3059642016887665 0.3089349567890167
25.649250030517578 -0.2526189684867859 0.30881717801094055
25.625167846679688 -0.1991995871067047 0.3085143268108368
25.60198402404785 -0.14432565867900848 0.30823516845703125
25.572189331054688 -0.09108894318342209 0.30787062644958496
25.548473358154297 -0.03742454946041107 0.3075855076313019
30.63780403137207 0.018025951460003853 0.6203298568725586
30.617355346679688 0.0822245329618454 0.6199132800102234
30.607746124267578 0.1469116061925888 0.6190552115440369
30.592201232910156 0.21032389998435974 0.617554247379303
30.592050552368164 0.2744843661785126 0.6175682544708252
30.588912963867188 0.33913367986679077 0.6175265908241272
30.451589584350586 0.7845101356506348 0.6159374713897705
30.362201690673828 0.8464462161064148 0.6141701936721802
30.321269989013672 0.9082804322242737 0.6121928691864014
30.279560089111328 0.9705939888954163 0.6107273697853088
30.24481201171875 1.0334945917129517 0.6100704073905945
30.220314025878906 1.096114158630371 0.6096123456954956
30.180023193359375 1.1585495471954346 0.6088516116142273
30.135120391845703 1.2194589376449585 0.6079996824264526
30.138763427734375 1.282922387123108 0.6081258058547974
30.117900848388672 1.3458316326141357 0.6077607870101929
30.089242935180664 1.4071228504180908 0.6072374582290649
30.065536499023438 1.4692113399505615 0.6068211793899536
29.996807098388672 1.5918488502502441 0.6037294864654541
29.984512329101562 1.7809561491012573 0.6036939024925232
29.898954391479492 1.964573860168457 0.6008945107460022
29.837261199951172 2.1489858627319336 0.6022507548332214
29.698598861694336 2.4526422023773193 0.5987728238105774
29.6575927734375 2.637073516845703 0.5976125597953796
29.640029907226562 2.6986846923828125 0.5973727703094482
29.613964080810547 2.7589449882507324 0.5969641208648682
29.593290328979492 2.8189759254455566 0.5966624617576599
29.586158752441406 2.8814284801483154 0.5954792499542236
29.54920196533203 2.9404008388519287 0.5948607921600342
29.549346923828125 3.0023555755615234 0.5949850082397461
29.52318000793457 3.0627737045288086 0.5939351320266724
29.514493942260742 3.12445068359375 0.5938923358917236
29.473129272460938 3.183096408843994 0.5931936502456665
29.462684631347656 3.243835926055908 0.593119740486145
29.453693389892578 3.3053808212280273 0.5930765271186829
29.426414489746094 3.3653316497802734 0.5915086269378662
29.39908218383789 3.4240269660949707 0.590452253818512
29.39440155029297 3.4859800338745117 0.5928146243095398
29.38066864013672 3.5473575592041016 0.5926870107650757
29.35687255859375 3.6069655418395996 0.5923575758934021
29.343875885009766 3.6683614253997803 0.5922493934631348
29.310890197753906 3.726029872894287 0.5917407274246216
29.29045867919922 3.78587007522583 0.5908352136611938
29.267744064331055 3.8458638191223145 0.5893881916999817
29.246925354003906 3.904885768890381 0.5891326069831848
29.247098922729492 3.967357635498047 0.5893017053604126
29.21721649169922 4.026230812072754 0.5888689160346985
29.20207977294922 4.085912704467773 0.5887343883514404
29.172945022583008 4.144234657287598 0.5883212089538574
29.148025512695312 4.203582286834717 0.5879963636398315
29.102994918823242 4.258756637573242 0.5866172313690186
29.064319610595703 4.315376281738281 0.5848742723464966
29.02090835571289 4.371657848358154 0.5841865539550781
29.013500213623047 4.432791233062744 0.5842224955558777
28.995250701904297 4.49275541305542 0.5840453505516052
28.94623565673828 4.54669189453125 0.5832457542419434
28.886375427246094 4.599386692047119 0.581587016582489
28.824567794799805 4.65205192565918 0.5805395841598511
28.75314712524414 4.701767921447754 0.578161358833313
28.722305297851562 4.758594512939453 0.577740490436554
28.656352996826172 4.8099365234375 0.5766191482543945
28.630786895751953 4.867406368255615 0.5774402618408203
28.601192474365234 4.923464298248291 0.5770472884178162
28.563735961914062 4.979217529296875 0.5765032768249512
28.504283905029297 5.030473709106445 0.5755154490470886
28.48248863220215 5.087596893310547 0.5741591453552246
28.428890228271484 5.140068054199219 0.573296308517456
28.39708709716797 5.195844650268555 0.5722360014915466
28.256031036376953 5.353830814361572 0.570060133934021
28.180912017822266 5.462639331817627 0.5678843259811401
28.058547973632812 5.622167110443115 0.5654895305633545
27.929092407226562 5.77908992767334 0.5624919533729553
27.80471420288086 5.935874938964844 0.5600993633270264
27.693735122680664 6.094464302062988 0.5575190186500549
27.608062744140625 6.197625160217285 0.5556889772415161
27.579845428466797 6.252565383911133 0.5553860068321228
27.534687042236328 6.302432060241699 0.554739236831665
27.501726150512695 6.355618476867676 0.5543422698974609
27.448041915893555 6.404368877410889 0.553532600402832
27.395797729492188 6.452155113220215 0.5527476668357849
27.368492126464844 6.506338119506836 0.5513764023780823
27.330976486206055 6.558497428894043 0.5502756237983704
27.28485107421875 6.607979774475098 0.5496261119842529
27.25731658935547 6.661222457885742 0.5493483543395996
27.21147918701172 6.711015701293945 0.5487086772918701
27.18703842163086 6.76550817489624 0.5485009551048279
27.138168334960938 6.813182353973389 0.5467088222503662
27.109712600708008 6.866996765136719 0.5458081960678101
27.060527801513672 6.914965629577637 0.5451087951660156
27.030895233154297 6.968304634094238 0.5448072552680969
26.997180938720703 7.019393444061279 0.5444203615188599
26.94729232788086 7.066791534423828 0.5437120795249939
26.909584045410156 7.117738723754883 0.5415544509887695
26.879379272460938 7.169466018676758 0.5412437915802002
26.845722198486328 7.220831394195557 0.5408704876899719
26.80270767211914 7.270059585571289 0.5403125286102295
26.746868133544922 7.31517219543457 0.5407230257987976
26.733978271484375 7.372427940368652 0.5401623845100403
26.685775756835938 7.418758392333984 0.538419783115387
26.653133392333984 7.469939231872559 0.5380746722221375
26.622329711914062 7.522045612335205 0.5377731323242188
26.57166290283203 7.567309379577637 0.5370658040046692
26.528610229492188 7.615235328674316 0.5365176796913147
26.492477416992188 7.665523529052734 0.5344282388687134
26.441368103027344 7.710235118865967 0.5337206721305847
26.421062469482422 7.764476776123047 0.5336370468139648
26.383983612060547 7.81421422958374 0.5332202911376953
26.317222595214844 7.853882789611816 0.532197117805481
26.27115249633789 7.900176048278809 0.5309944152832031
26.223392486572266 7.946304798126221 0.529305100440979
26.200101852416992 7.99928092956543 0.5291718244552612
26.12228012084961 8.095311164855957 0.5282782912254333
26.052345275878906 8.133563995361328 0.5265976190567017
25.791339874267578 8.171440124511719 0.5209500193595886
25.618545532226562 8.175232887268066 0.5178033113479614
25.254257202148438 8.176329612731934 0.510546088218689
25.077133178710938 8.17651653289795 0.5080164670944214
24.731489181518555 8.179204940795898 0.5001143217086792
24.544933319091797 8.174053192138672 0.49668484926223755
24.214580535888672 8.177485466003418 0.4901309609413147
24.06787872314453 8.183624267578125 0.4875045120716095
23.755037307739258 8.189020156860352 0.4808753728866577
23.425186157226562 8.185850143432617 0.47434765100479126
23.26046371459961 8.182491302490234 0.47039198875427246
22.97213363647461 8.189942359924316 0.46525341272354126
22.823883056640625 8.190511703491211 0.4625941514968872
22.553377151489258 8.20081615447998 0.45634007453918457
22.402122497558594 8.199485778808594 0.45362818241119385
22.119873046875 8.200994491577148 0.4486055076122284
21.983034133911133 8.203169822692871 0.44566595554351807
21.83637237548828 8.20010757446289 0.44212135672569275
21.707904815673828 8.203849792480469 0.43986982107162476
21.563730239868164 8.201508522033691 0.43729662895202637
21.429346084594727 8.201878547668457 0.43593037128448486
21.28178596496582 8.196075439453125 0.4332734942436218
21.159358978271484 8.200340270996094 0.428862065076828
21.0396728515625 8.204748153686523 0.42678123712539673
20.907489776611328 8.203226089477539 0.42444586753845215
20.779651641845703 8.20380687713623 0.4213322401046753
20.64434051513672 8.200469970703125 0.4189363121986389
20.52301025390625 8.202555656433105 0.4163365662097931
20.394784927368164 8.200952529907227 0.41408658027648926
20.28141975402832 8.204300880432129 0.41212937235832214
20.149456024169922 8.200533866882324 0.40894588828086853
20.03234100341797 8.20188045501709 0.4064452648162842
19.902454376220703 8.196966171264648 0.40415582060813904
19.785791397094727 8.19788932800293 0.40213626623153687
19.678707122802734 8.20191764831543 0.39947375655174255
19.54361915588379 8.193257331848145 0.3970760107040405
19.445032119750977 8.200307846069336 0.3949623107910156
19.33216094970703 8.200502395629883 0.39301836490631104
19.217235565185547 8.19884967803955 0.39102232456207275
19.09286880493164 8.193547248840332 0.3880345821380615
18.993751525878906 8.198223114013672 0.38591593503952026
18.874059677124023 8.193943977355957 0.3838367462158203
18.759387969970703 8.190959930419922 0.38185662031173706
18.649856567382812 8.18925666809082 0.3791729807853699
18.547618865966797 8.191182136535645 0.3774460554122925
18.432340621948242 8.18651008605957 0.37544697523117065
18.334644317626953 8.188714981079102 0.3730199933052063
18.229175567626953 8.187883377075195 0.371223509311676
18.12731170654297 8.187858581542969 0.3690609931945801
17.931398391723633 8.189988136291504 0.36499571800231934
17.83236312866211 8.189996719360352 0.3633311688899994
17.62386703491211 8.184292793273926 0.3593512773513794
17.537376403808594 8.188411712646484 0.3571789264678955
17.35179328918457 8.190942764282227 0.35409092903137207
17.244550704956055 8.184122085571289 0.3518313765525818
17.043201446533203 8.176682472229004 0.3476839065551758
16.95844841003418 8.179356575012207 0.3463030159473419
16.866043090820312 8.17924690246582 0.344359815120697
16.784069061279297 8.182558059692383 0.3423004746437073
16.59906578063965 8.17906379699707 0.33922669291496277
16.51423454284668 8.179898262023926 0.33743399381637573
16.32806968688965 8.173501968383789 0.333618700504303
16.244115829467773 8.173676490783691 0.3322519361972809
16.06817626953125 8.17013168334961 0.32825297117233276
15.978124618530273 8.166116714477539 0.3267614245414734
15.808472633361816 8.163559913635254 0.3229037821292877
15.745231628417969 8.172332763671875 0.32195359468460083
15.636865615844727 8.158537864685059 0.32010188698768616
15.570077896118164 8.164843559265137 0.31907469034194946
15.48280143737793 8.160858154296875 0.31657519936561584
15.410104751586914 8.163883209228516 0.315437376499176
15.318243026733398 8.15597152709961 0.3139030337333679
15.253236770629883 8.162798881530762 0.3129199743270874
15.170541763305664 8.159516334533691 0.3111981153488159
15.079879760742188 8.151145935058594 0.3090168833732605
15.009440422058105 8.154122352600098 0.307926744222641
14.923477172851562 8.148002624511719 0.30651167035102844
14.851364135742188 8.149436950683594 0.30500927567481995
14.780513763427734 8.150511741638184 0.3032453954219818
14.708208084106445 8.15091323852539 0.3021070063114166
14.644065856933594 8.1558837890625 0.3007729649543762
14.559730529785156 8.148965835571289 0.2987430989742279
14.501267433166504 8.155811309814453 0.29788506031036377
14.406084060668945 8.142417907714844 0.29629117250442505
14.339183807373047 8.144330978393555 0.29453614354133606
14.269832611083984 8.144153594970703 0.29345694184303284
14.192413330078125 8.139796257019043 0.29121893644332886
14.121365547180176 8.13845157623291 0.29011061787605286
14.071517944335938 8.148670196533203 0.28943079710006714
13.98843765258789 8.14051342010498 0.2880816161632538
13.926265716552734 8.14306640625 0.286167174577713
13.84323787689209 8.133840560913086 0.2848103940486908
13.794132232666016 8.143952369689941 0.28415000438690186
13.717893600463867 8.137377738952637 0.2829288840293884
13.65625 8.139893531799316 0.28103914856910706
13.587420463562012 8.137535095214844 0.27997103333473206
13.525981903076172 8.138922691345215 0.27905401587486267
13.439800262451172 8.125819206237793 0.27728700637817383
13.392616271972656 8.135693550109863 0.27604979276657104
13.327571868896484 8.1340913772583 0.2750582695007324
13.258079528808594 8.13020133972168 0.2739775776863098
13.200927734375 8.133296966552734 0.27280640602111816
13.141204833984375 8.134173393249512 0.27131715416908264
13.058713912963867 8.121747970581055 0.2699739634990692
13.01502513885498 8.132080078125 0.2694151997566223
12.946141242980957 8.126442909240723 0.2674071788787842
12.887929916381836 8.128335952758789 0.26656514406204224
12.815841674804688 8.120092391967773 0.26542118191719055
12.696756362915039 8.11977767944336 0.262406587600708
12.642295837402344 8.121964454650879 0.2616288661956787
12.513941764831543 8.11415958404541 0.2593532204627991
12.45524787902832 8.112865447998047 0.25848352909088135
12.342248916625977 8.113496780395508 0.25594362616539
12.229215621948242 8.11315631866455 0.2543068528175354
12.181447982788086 8.117921829223633 0.25276830792427063
12.064075469970703 8.11328125 0.25103986263275146
11.991323471069336 8.100543022155762 0.24930806457996368
11.882720947265625 8.10026741027832 0.24744276702404022
11.843254089355469 8.109411239624023 0.24696895480155945
11.762602806091309 8.091150283813477 0.24477677047252655
11.724634170532227 8.100929260253906 0.24433672428131104
11.661672592163086 8.093230247497559 0.24337416887283325
11.618648529052734 8.100199699401855 0.242832750082016
11.556411743164062 8.092500686645508 0.24102649092674255
11.521638870239258 8.104509353637695 0.2406570315361023
11.461952209472656 8.098508834838867 0.23976275324821472
11.420344352722168 8.104693412780762 0.23862852156162262
11.353431701660156 8.093355178833008 0.23673611879348755
11.298622131347656 8.09007453918457 0.2364913672208786
11.244251251220703 8.086492538452148 0.23570281267166138
11.192453384399414 8.085198402404785 0.2341325283050537
11.134603500366211 8.078999519348145 0.23327642679214478
11.088979721069336 8.081074714660645 0.23267313838005066
11.043681144714355 8.08424186706543 0.23208165168762207
10.990647315979004 8.080501556396484 0.2304871678352356
10.942423820495605 8.080082893371582 0.22982515394687653
10.907987594604492 8.090719223022461 0.22946473956108093
10.851090431213379 8.083477973937988 0.22779473662376404
10.804924011230469 8.084665298461914 0.22718390822410583
10.73980712890625 8.07112979888916 0.2261706292629242
10.716630935668945 8.088565826416016 0.22603335976600647
10.647420883178711 8.071720123291016 0.22411908209323883
10.615942001342773 8.082969665527344 0.2238115668296814
10.55150032043457 8.068550109863281 0.22280661761760712
10.513224601745605 8.074563980102539 0.22154872119426727
10.452241897583008 8.06263256072998 0.2206205129623413
10.42494010925293 8.076787948608398 0.2204039990901947
10.37389850616455 8.072113037109375 0.21967962384223938
10.337235450744629 8.078081130981445 0.2184574007987976
10.277444839477539 8.066413879394531 0.2175544947385788
10.249268531799316 8.079092025756836 0.21674326062202454
10.189705848693848 8.066481590270996 0.2153286635875702
10.148984909057617 8.069210052490234 0.21584197878837585
10.102263450622559 8.066699028015137 0.21441951394081116
10.061445236206055 8.068354606628418 0.21390824019908905
10.018326759338379 8.069001197814941 0.2133566439151764
9.958780288696289 8.055171966552734 0.21166229248046875
9.924064636230469 8.061216354370117 0.21127940714359283
9.879586219787598 8.060179710388184 0.21069902181625366
9.835010528564453 8.05786418914795 0.21010443568229675
9.750070571899414 8.057135581970215 0.20824071764945984
9.712760925292969 8.060281753540039 0.2078002244234085
9.627920150756836 8.058587074279785 0.20594337582588196
9.583234786987305 8.05506420135498 0.2053445279598236
9.502188682556152 8.055475234985352 0.20357196033000946
9.451812744140625 8.046538352966309 0.20285093784332275
9.38408374786377 8.057289123535156 0.20136770606040955
9.330193519592285 8.044713020324707 0.20056939125061035
9.313982009887695 8.065488815307617 0.20059067010879517
9.255910873413086 8.048873901367188 0.1989501714706421
9.219583511352539 8.050944328308105 0.1985289603471756
9.178013801574707 8.04926586151123 0.1977350413799286
9.144495010375977 8.053503036499023 0.19737261533737183
9.065967559814453 8.05239200592041 0.19614210724830627
9.017240524291992 8.042649269104004 0.19544857740402222
8.934257507324219 8.036447525024414 0.1939118206501007
8.896892547607422 8.03630256652832 0.19319935142993927
8.830848693847656 8.044439315795898 0.192031592130661
8.787666320800781 8.039165496826172 0.19120079278945923
8.76400375366211 8.05134391784668 0.1905870884656906
8.715421676635742 8.04012680053711 0.18989332020282745
8.68437385559082 8.045538902282715 0.1893273890018463
8.642242431640625 8.040250778198242 0.18877604603767395
8.610363006591797 8.043992042541504 0.1879827082157135
8.572778701782227 8.042890548706055 0.18753322958946228
8.527740478515625 8.03432846069336 0.18665924668312073
8.499168395996094 8.040765762329102 0.1859407275915146
8.457728385925293 8.035870552062988 0.1854095160961151
8.420954704284668 8.034247398376465 0.184713214635849
8.392016410827637 8.039971351623535 0.18398959934711456
8.34886360168457 8.032903671264648 0.183419331908226
8.32349681854248 8.041826248168945 0.18297424912452698
8.277240753173828 8.031042098999023 0.18187913298606873
8.250083923339844 8.038350105285645 0.1818505823612213
8.215821266174316 8.038269996643066 0.18146270513534546
8.177132606506348 8.034326553344727 0.1805342435836792
8.136754989624023 8.02825927734375 0.17976340651512146
8.105658531188965 8.030841827392578 0.17944420874118805
8.072280883789062 8.03166389465332 0.178635373711586
8.0427885055542 8.035955429077148 0.17835527658462524
7.994932174682617 8.021361351013184 0.17741426825523376
7.961877346038818 8.02239990234375 0.17661860585212708
7.929424285888672 8.022932052612305 0.17626766860485077
7.897912979125977 8.024287223815918 0.17569032311439514
7.854531764984131 8.014385223388672 0.17466650903224945
7.833369731903076 8.026041984558105 0.17456591129302979
7.791120529174805 8.01596736907959 0.17374970018863678
7.757745265960693 8.01581859588623 0.1729503870010376
7.732202529907227 8.022674560546875 0.17275170981884003
7.700068950653076 8.023214340209961 0.17216871678829193
7.6598358154296875 8.014869689941406 0.17164447903633118
7.631108283996582 8.018056869506836 0.17094013094902039
7.6001386642456055 8.019401550292969 0.1703835427761078
7.570377826690674 8.021625518798828 0.1700931191444397
7.537734508514404 8.02031421661377 0.16930267214775085
7.505777359008789 8.020575523376465 0.16896933317184448
7.475286483764648 8.021293640136719 0.16865728795528412
7.4097185134887695 8.018377304077148 0.16727185249328613
7.371523857116699 8.010333061218262 0.16678452491760254
7.303160667419434 8.00342845916748 0.1653374433517456
7.278782844543457 8.010034561157227 0.16516150534152985
7.242195129394531 8.004058837890625 0.16448187828063965
7.22398567199707 8.017312049865723 0.1640239655971527
7.17958927154541 8.00136661529541 0.1633925884962082
7.157003402709961 8.010555267333984 0.16303178668022156
7.123797416687012 8.006770133972168 0.16223454475402832
7.090522766113281 8.002751350402832 0.16185462474822998
7.072548866271973 8.016902923583984 0.16160058975219727
7.0309319496154785 8.003145217895508 0.16061195731163025
6.964404106140137 7.995075225830078 0.15962722897529602
6.944258689880371 8.005430221557617 0.15913155674934387
6.887444496154785 8.007818222045898 0.1583695113658905
6.842935085296631 7.989546775817871 0.15731537342071533
6.8195953369140625 7.996809959411621 0.15717117488384247
6.78736686706543 7.992551803588867 0.15681031346321106
6.76643180847168 8.001495361328125 0.15630008280277252
6.733488082885742 7.997124195098877 0.15593336522579193
6.702535629272461 7.993974685668945 0.15560059249401093
6.675498962402344 7.995370864868164 0.15512911975383759
6.650782585144043 8.000444412231445 0.15454423427581787
6.612666606903076 7.988258361816406 0.15404389798641205
6.594058990478516 7.999516487121582 0.15376929938793182
6.550197601318359 7.980983257293701 0.15274015069007874
6.533590316772461 7.99452018737793 0.15273883938789368
6.496805191040039 7.98390007019043 0.15204767882823944
6.474048137664795 7.9901041984558105 0.1515045017004013
6.449406623840332 7.99354887008667 0.15131574869155884
6.414628028869629 7.984930038452148 0.15067102015018463
6.386514663696289 7.984170913696289 0.15000362694263458
6.363511085510254 7.989345073699951 0.1498522162437439
6.328368186950684 7.98014497756958 0.14920265972614288
6.305543899536133 7.985344886779785 0.14865700900554657
6.2739763259887695 7.9800004959106445 0.14831021428108215
6.245145797729492 7.977705955505371 0.14780154824256897
6.225282192230225 7.986422538757324 0.14732737839221954
6.196338176727295 7.984046936035156 0.14704161882400513
6.168659210205078 7.9828901290893555 0.14656031131744385
6.132463455200195 7.970179557800293 0.14569984376430511
6.113147735595703 7.980290412902832 0.14564532041549683
6.087739944458008 7.981377601623535 0.1456550657749176
6.0535173416137695 7.970757484436035 0.14462034404277802
6.034491062164307 7.981045722961426 0.14457328617572784
6.0073018074035645 7.979454040527344 0.1443178653717041
5.98181676864624 7.980011940002441 0.14349442720413208
5.9460954666137695 7.967767238616943 0.14304538071155548
5.927095890045166 7.976789474487305 0.14298591017723083
5.896842956542969 7.971223831176758 0.1420573592185974
5.870677947998047 7.970761299133301 0.14182916283607483
5.8378400802612305 7.960721492767334 0.14143496751785278
5.821161270141602 7.973273277282715 0.1408361792564392
5.792472839355469 7.969016075134277 0.1405465006828308
5.7668137550354 7.968433380126953 0.14032404124736786
5.740451335906982 7.9677886962890625 0.1394970715045929
5.721489906311035 7.976318359375 0.1394384205341339
5.686881065368652 7.962908744812012 0.1389971673488617
5.665126800537109 7.968385219573975 0.13828448951244354
5.634636402130127 7.9604268074035645 0.1379435658454895
5.614062309265137 7.966365814208984 0.13784408569335938
5.587485313415527 7.964732646942139 0.1370147466659546
5.569278717041016 7.973926067352295 0.13697342574596405
5.532814025878906 7.956839561462402 0.13648337125778198
5.51495885848999 7.9674201011657715 0.13586989045143127
5.483304977416992 7.956923007965088 0.1354973316192627
5.435522079467773 7.9591169357299805 0.13476699590682983
5.417072296142578 7.96755313873291 0.13471920788288116
5.3776960372924805 7.946093559265137 0.1337863653898239
5.362673759460449 7.959430694580078 0.1336129903793335
5.335790634155273 7.955104827880859 0.1333536058664322
5.3078460693359375 7.95010232925415 0.1327054649591446
5.285025596618652 7.95160436630249 0.13233773410320282
5.2420759201049805 7.959494590759277 0.13172689080238342
5.212038040161133 7.949751853942871 0.13117794692516327
5.186655521392822 7.9480133056640625 0.13096660375595093
5.166305065155029 7.952839374542236 0.1304996758699417
5.138167858123779 7.945570945739746 0.12999635934829712
5.116734981536865 7.949618339538574 0.12988385558128357
5.091560363769531 7.946694374084473 0.12929368019104004
5.068490028381348 7.946944236755371 0.12892040610313416
5.042476177215576 7.943534851074219 0.12868951261043549
5.0191850662231445 7.9432268142700195 0.12814819812774658
4.992074012756348 7.936747074127197 0.1276700794696808
4.976497173309326 7.949611663818359 0.1277051866054535
4.9457197189331055 7.937021732330322 0.12697207927703857
4.924802780151367 7.9401164054870605 0.1266537755727768
4.894024848937988 7.928255558013916 0.12629739940166473
4.878772735595703 7.940365791320801 0.12596383690834045
4.851124286651611 7.93331241607666 0.12568846344947815
4.83207368850708 7.939128875732422 0.1250535547733307
4.805883407592773 7.933119297027588 0.12480224668979645
4.78819465637207 7.942154884338379 0.12478220462799072
4.762120723724365 7.936105728149414 0.1239662766456604
4.74284553527832 7.941289901733398 0.12389270216226578
4.711585521697998 7.927369117736816 0.12351864576339722
4.694301128387451 7.935736656188965 0.12293394654989243
4.669610023498535 7.931511878967285 0.1227186843752861
4.64348840713501 7.925821781158447 0.12247764319181442
4.621782302856445 7.926438808441162 0.12177856266498566
4.600197792053223 7.927181243896484 0.12164094299077988
4.5784101486206055 7.928602695465088 0.12151367962360382
4.563514232635498 7.940814971923828 0.12099552154541016
4.527728080749512 7.917243957519531 0.12049151957035065
4.5132832527160645 7.930533409118652 0.12054908275604248
4.495901107788086 7.938265800476074 0.11996762454509735
4.467263698577881 7.927145957946777 0.11965341866016388
4.440878868103027 7.918701171875 0.11918915808200836
4.426877975463867 7.932274341583252 0.11889815330505371
4.400872230529785 7.9254150390625 0.11865486949682236
4.381877899169922 7.929938316345215 0.11838753521442413
4.355630874633789 7.921224594116211 0.11776969581842422
4.33747673034668 7.928276062011719 0.11773645877838135
4.318634510040283 7.932888031005859 0.11747240275144577
4.292876243591309 7.925845146179199 0.11687998473644257
4.249966621398926 7.885654449462891 0.11615897715091705
5.7946977615356445 -10.158158302307129 0.17504245042800903
5.841854095458984 -10.141351699829102 0.17542843520641327
5.877184867858887 -10.153907775878906 0.1765744984149933
5.929969787597656 -10.146306991577148 0.17733517289161682
5.954190254211426 -10.138480186462402 0.17767328023910522
6.012149333953857 -10.140047073364258 0.17860135436058044
6.038355827331543 -10.135336875915527 0.17946380376815796
6.0915961265563965 -10.1283540725708 0.18050891160964966
6.125077247619629 -10.1354398727417 0.18086719512939453
6.181933879852295 -10.133766174316406 0.18201974034309387
6.211261749267578 -10.133586883544922 0.18225130438804626
6.238613128662109 -10.130962371826172 0.1824387162923813
6.260733127593994 -10.118410110473633 0.18317708373069763
6.303020000457764 -10.139663696289062 0.18379917740821838
6.318950653076172 -10.117908477783203 0.18364447355270386
6.348818778991699 -10.11805534362793 0.18461883068084717
6.371703147888184 -10.10787296295166 0.18467555940151215
6.410943031311035 -10.123001098632812 0.1856667697429657
6.4318037033081055 -10.10859203338623 0.18591368198394775
6.461296081542969 -10.10856819152832 0.18615815043449402
6.4952569007873535 -10.114891052246094 0.18699899315834045
6.544295310974121 -10.097474098205566 0.18744513392448425
6.636673927307129 -10.100312232971191 0.1897452175617218
6.71980094909668 -10.088057518005371 0.19104480743408203
7.537127494812012 -10.033614158630371 0.20572414994239807
7.566650390625 -10.028690338134766 0.20595094561576843
7.623401641845703 -10.016708374023438 0.20712494850158691
7.672636032104492 -10.037291526794434 0.2078855335712433
7.723626136779785 -10.017096519470215 0.2089044153690338
7.756853103637695 -10.01632308959961 0.20923055708408356
7.815550804138184 -10.004796028137207 0.2104499787092209
7.888034820556641 -10.011201858520508 0.211554616689682
7.922633171081543 -10.011496543884277 0.2124149203300476
7.954474925994873 -10.008979797363281 0.21271076798439026
7.986732482910156 -10.006414413452148 0.21329140663146973
8.020526885986328 -10.005293846130371 0.214130699634552
8.058950424194336 -10.010586738586426 0.21460244059562683
8.07950496673584 -9.993144989013672 0.21543438732624054
8.116483688354492 -9.995580673217773 0.21636071801185608
8.152006149291992 -9.996861457824707 0.21675421297550201
8.205648422241211 -9.9765625 0.21784956753253937
8.245131492614746 -9.982269287109375 0.21834781765937805
8.31639575958252 -9.982625007629395 0.21991300582885742
8.343875885009766 -9.97300910949707 0.22008627653121948
