VERSION .7
FIELDS x y z
SIZE 4 4 4
TYPE F F F
COUNT 1 1 1
WIDTH 859
HEIGHT 1
VIEWPOINT 0 0 0 1 0 0 0
POINTS 859
DATA ascii
4.054046630859375 7.232030391693115 0.1994531899690628
4.032898902893066 7.23047399520874 0.1986664980649948
4.016327857971191 7.236021041870117 0.1980840563774109
3.9735910892486572 7.230621337890625 0.19646874070167542
3.9535417556762695 7.229642868041992 0.19571560621261597
3.9371328353881836 7.23631477355957 0.19615840911865234
3.911808967590332 7.225448131561279 0.19514156877994537
3.883769989013672 7.209351062774658 0.19398871064186096
6.81529426574707 -11.608467102050781 0.33051544427871704
6.91763162612915 -11.614914894104004 0.3335922658443451
7.004165172576904 -11.593795776367188 0.3367255926132202
7.101063251495361 -11.588949203491211 0.34036514163017273
7.198220729827881 -11.583412170410156 0.34402358531951904
7.264591217041016 -11.581134796142578 0.3465309739112854
7.294951915740967 -11.57610034942627 0.34684333205223083
7.3748579025268555 -11.594356536865234 0.3499957025051117
7.392624378204346 -11.569201469421387 0.3505374789237976
7.465450763702393 -11.57544231414795 0.35335829854011536
7.503100872039795 -11.580986022949219 0.3548346757888794
7.569825172424316 -11.576839447021484 0.35737067461013794
7.594508171081543 -11.562134742736816 0.35824763774871826
9.128355979919434 -11.489376068115234 0.4141184389591217
9.223752975463867 -11.460774421691895 0.4169669449329376
9.345315933227539 -11.463522911071777 0.4219060242176056
9.4231595993042 -11.460122108459473 0.42505043745040894
9.462596893310547 -11.459527015686035 0.4257669448852539
9.531609535217285 -11.444591522216797 0.42851945757865906
9.585687637329102 -11.461071968078613 0.4307928681373596
9.662961959838867 -11.45508861541748 0.43392467498779297
9.686874389648438 -11.435202598571777 0.43393227458000183
9.764659881591797 -11.429083824157715 0.4370935261249542
9.896931648254395 -11.437522888183594 0.4416459798812866
11.500335693359375 -11.326263427734375 0.49997928738594055
11.636494636535645 -11.317136764526367 0.5047786831855774
11.782654762268066 -11.316022872924805 0.5110166072845459
11.871990203857422 -11.3060941696167 0.513823390007019
11.99924087524414 -11.284283638000488 0.5182757377624512
12.139664649963379 -11.273372650146484 0.5232942700386047
14.373598098754883 -11.114128112792969 0.6051037907600403
14.555976867675781 -11.109634399414062 0.612066924571991
15.033822059631348 -11.080026626586914 0.629970908164978
15.210108757019043 -11.063069343566895 0.6367573738098145
17.827041625976562 -10.805716514587402 0.7351312637329102
21.588253021240234 -10.44168472290039 0.879412829875946
21.859163284301758 -10.40365982055664 0.8892645239830017
22.3580265045166 -10.354626655578613 0.9095861315727234
26.15201187133789 -9.914434432983398 1.0564050674438477
26.5087947845459 -9.859540939331055 1.0700225830078125
26.88530731201172 -9.80762767791748 1.0844594240188599
27.16180419921875 -9.779077529907227 1.095705270767212
27.5661678314209 -9.729339599609375 1.1113147735595703
32.28440475463867 -9.082254409790039 1.2954670190811157
32.783573150634766 -9.00066089630127 1.3152788877487183
33.30756378173828 -8.919730186462402 1.3361072540283203
33.660057067871094 -8.86237621307373 1.3487648963928223
33.83860397338867 -8.834336280822754 1.3572931289672852
20.616178512573242 -5.289703369140625 0.826522946357727
20.422460556030273 -5.10335636138916 0.8182851076126099
22.978567123413086 -4.326316833496094 0.9175015687942505
41.398162841796875 -7.525124549865723 1.6587423086166382
41.892276763916016 -7.43282413482666 1.6772719621658325
42.1569709777832 -7.389583587646484 1.6872519254684448
42.65028762817383 -7.291053771972656 1.705751895904541
43.445960998535156 -7.146262168884277 1.73843252658844
44.272430419921875 -6.996641159057617 1.7697062492370605
45.05656433105469 -6.830519199371338 1.8020857572555542
45.636390686035156 -4.774888515472412 1.8230663537979126
45.70026397705078 -4.491313457489014 1.8244922161102295
45.76194381713867 -4.30286979675293 1.8289871215820312
45.77097702026367 -4.207913875579834 1.828995704650879
45.815162658691406 -4.017473220825195 1.8300682306289673
45.842384338378906 -3.924013376235962 1.830826759338379
45.91838455200195 -3.7357895374298096 1.8359957933425903
45.97621154785156 -3.449690818786621 1.8375165462493896
46.06132507324219 -3.165010452270508 1.8428730964660645
46.00035858154297 -0.5475902557373047 1.8391002416610718
45.977848052978516 -0.4518979489803314 1.8381576538085938
45.935325622558594 -0.2580150365829468 1.836362600326538
45.8885612487793 -0.16252268850803375 1.834477424621582
45.88710403442383 -0.06449145078659058 1.8344089984893799
45.06755065917969 0.019223500043153763 1.6389163732528687
44.981231689453125 0.30197110772132874 1.635811686515808
44.9706916809082 0.3952290117740631 1.6354559659957886
44.95061111450195 0.4883742928504944 1.6347594261169434
44.93661117553711 0.5841994881629944 1.631576418876648
44.9852409362793 0.7743272185325623 1.6334474086761475
45.05215072631836 0.869002103805542 1.6359394788742065
45.09607696533203 0.9635027647018433 1.6376042366027832
44.76771545410156 1.522504448890686 1.6262086629867554
44.717979431152344 1.6137255430221558 1.6245218515396118
44.64921569824219 1.7067569494247437 1.622152328491211
44.64380645751953 1.892171859741211 1.6222279071807861
44.60676193237305 1.9860408306121826 1.6210317611694336
44.592105865478516 2.170896530151367 1.6208137273788452
44.57674789428711 2.2655794620513916 1.6177306175231934
44.53486633300781 2.544240951538086 1.6167590618133545
44.53709411621094 2.6371359825134277 1.6170364618301392
44.41801071166992 3.5672621726989746 1.6123204231262207
44.40504837036133 3.661677360534668 1.6121292114257812
44.38117599487305 3.845256805419922 1.611797571182251
44.41640090942383 3.9438912868499756 1.6133800745010376
44.37074279785156 4.128245830535889 1.609646201133728
44.35826110839844 4.219951629638672 1.6095082759857178
44.347129821777344 4.311804294586182 1.6094245910644531
44.32368087768555 4.405093669891357 1.6089109182357788
44.334075927734375 4.499055862426758 1.6096241474151611
44.321624755859375 4.593470096588135 1.6094932556152344
44.34662628173828 4.689097881317139 1.6107524633407593
44.33977508544922 4.781436443328857 1.608165979385376
44.33687210083008 4.876960754394531 1.6084346771240234
44.3397102355957 4.970420837402344 1.6089094877243042
44.31675338745117 5.0637311935424805 1.6084673404693604
44.34071350097656 5.159708499908447 1.609724521636963
44.251983642578125 5.242512226104736 1.6068309545516968
44.1937141418457 5.331335544586182 1.6051244735717773
44.17206573486328 5.421747207641602 1.6047440767288208
44.13640213012695 5.510395526885986 1.6011722087860107
44.028961181640625 5.873986721038818 1.598981499671936
44.001583099365234 5.963326930999756 1.5984336137771606
43.975826263427734 6.14851713180542 1.595711588859558
43.84446334838867 6.411423683166504 1.5923748016357422
43.74404525756836 6.866555690765381 1.5885533094406128
43.62409210205078 7.131716251373291 1.5831376314163208
43.61405563354492 7.2230329513549805 1.5832833051681519
43.54227828979492 7.492684364318848 1.58229660987854
43.53447723388672 7.584424018859863 1.5799124240875244
43.457035064697266 7.666589260101318 1.5776911973953247
43.45336151123047 7.758955478668213 1.5781400203704834
43.40007019042969 7.8451457023620605 1.576777458190918
43.383880615234375 7.935225963592529 1.5767855644226074
43.35915756225586 8.023727416992188 1.5738251209259033
43.32115173339844 8.112446784973145 1.5730708837509155
43.277610778808594 8.197287559509277 1.5721027851104736
43.25568771362305 8.288893699645996 1.5719166994094849
43.2080078125 8.37275218963623 1.5681520700454712
43.1915397644043 8.462594032287598 1.5681886672973633
43.15930938720703 8.552058219909668 1.567678689956665
43.11164093017578 8.635628700256348 1.5665634870529175
43.083194732666016 8.725700378417969 1.5635489225387573
43.04021072387695 8.810013771057129 1.5626481771469116
43.05122375488281 8.905391693115234 1.5637181997299194
42.96131134033203 8.982535362243652 1.5611436367034912
42.32929611206055 8.942112922668457 1.5361864566802979
41.842227935791016 8.9299955368042 1.5191771984100342
41.39175033569336 8.926314353942871 1.5035088062286377
40.950660705566406 8.920166015625 1.4881573915481567
40.05249786376953 8.901366233825684 1.4542968273162842
39.640560150146484 8.8961820602417 1.4400056600570679
36.409175872802734 8.81772518157959 1.3232415914535522
35.347900390625 8.796316146850586 1.2844277620315552
34.356239318847656 8.779261589050293 1.2482068538665771
33.709716796875 8.765453338623047 1.2239435911178589
33.39374923706055 8.757317543029785 1.2131032943725586
33.085044860839844 8.749780654907227 1.2025445699691772
32.79691696166992 8.74858570098877 1.1906983852386475
32.5014533996582 8.742056846618652 1.180627465248108
32.17874526977539 8.729013442993164 1.1695541143417358
31.88823127746582 8.721291542053223 1.1596503257751465
31.605300903320312 8.714444160461426 1.1479902267456055
31.286455154418945 8.69848918914795 1.1370792388916016
31.00101661682129 8.688474655151367 1.1273349523544312
30.71637535095215 8.67751407623291 1.1157095432281494
30.432981491088867 8.667672157287598 1.1060843467712402
30.17009162902832 8.660526275634766 1.0971568822860718
29.90673828125 8.65412425994873 1.0863703489303589
29.636335372924805 8.642568588256836 1.0771958827972412
29.383441925048828 8.635021209716797 1.068630576133728
29.137022018432617 8.630266189575195 1.0585018396377563
28.86348533630371 8.614439010620117 1.049211025238037
28.378190994262695 8.599922180175781 1.0310629606246948
28.160078048706055 8.597668647766113 1.0237839221954346
27.684144973754883 8.57998275756836 1.00601327419281
26.96893310546875 8.544514656066895 0.9802252650260925
26.292945861816406 8.512595176696777 0.955891489982605
25.64580535888672 8.48330307006836 0.931000292301178
25.047765731811523 8.460541725158691 0.9079917073249817
24.47196388244629 8.437816619873047 0.8874400854110718
24.109970092773438 8.426776885986328 0.8740323185920715
23.951387405395508 8.427165031433105 0.8688961863517761
23.556917190551758 8.400030136108398 0.8543509840965271
23.408000946044922 8.401721000671387 0.8495634198188782
23.213077545166016 8.387778282165527 0.8416455984115601
23.027328491210938 8.374725341796875 0.8355198502540588
22.86785888671875 8.370502471923828 0.8288930654525757
22.686115264892578 8.358976364135742 0.8229506015777588
22.50751495361328 8.346256256103516 0.8170791864395142
22.349754333496094 8.342109680175781 0.8105579018592834
22.193382263183594 8.33625602722168 0.8054948449134827
22.013957977294922 8.321029663085938 0.7981867790222168
21.866052627563477 8.318552017211914 0.7934662699699402
21.719261169433594 8.314343452453613 0.7859393954277039
21.561979293823242 8.3054780960083 0.7794582843780518
21.40418815612793 8.297249794006348 0.7743929624557495
21.236513137817383 8.282984733581543 0.7675532102584839
21.089609146118164 8.277634620666504 0.7628815174102783
20.9429931640625 8.270286560058594 0.7568210959434509
20.796894073486328 8.262521743774414 0.7521592974662781
20.505815505981445 8.247035026550293 0.74153071641922
20.069774627685547 8.218620300292969 0.7262911796569824
19.675954818725586 8.202163696289062 0.7112859487533569
18.513591766357422 8.13210391998291 0.669766366481781
18.258333206176758 8.1118803024292 0.6569214463233948
18.146373748779297 8.107271194458008 0.6534971594810486
17.901830673217773 8.088626861572266 0.6447112560272217
17.78997039794922 8.08258056640625 0.6401059627532959
17.556644439697266 8.065945625305176 0.6317459344863892
17.435564041137695 8.054179191589355 0.6279743909835815
17.323822021484375 8.047510147094727 0.6234152317047119
17.233121871948242 8.048897743225098 0.6207372546195984
17.12236213684082 8.040492057800293 0.6162050366401672
17.00464630126953 8.029595375061035 0.6114354729652405
16.895044326782227 8.020761489868164 0.6080914735794067
16.800580978393555 8.019939422607422 0.6041694283485413
16.680185317993164 8.005011558532715 0.6004351377487183
16.583473205566406 8.000981330871582 0.5964249968528748
16.48201560974121 7.995479583740234 0.5933895707130432
16.38078498840332 7.98840856552124 0.5892260074615479
16.271697998046875 7.977050304412842 0.585896372795105
16.180788040161133 7.975400924682617 0.5821338295936584
16.0919189453125 7.973146915435791 0.5795298218727112
15.983028411865234 7.961764335632324 0.5751283764839172
15.884443283081055 7.953841209411621 0.5711008906364441
15.787568092346191 7.946352005004883 0.5649968385696411
15.685799598693848 7.9371724128723145 0.5619599223136902
15.589327812194824 7.929033279418945 0.5580229163169861
15.32892894744873 7.918276786804199 0.5483770370483398
15.035867691040039 7.887032508850098 0.5386061072349548
14.135183334350586 7.836727142333984 0.5057992339134216
13.907478332519531 7.825190544128418 0.4974518418312073
13.82064151763916 7.814135551452637 0.494923859834671
13.644636154174805 7.7906365394592285 0.48503878712654114
13.592081069946289 7.7980756759643555 0.4837338924407959
13.515475273132324 7.792547225952148 0.4806572496891022
13.4249849319458 7.7775397300720215 0.4779999852180481
13.362011909484863 7.778137683868408 0.4753985106945038
13.281493186950684 7.76930046081543 0.472182959318161
13.208808898925781 7.763616561889648 0.4701704978942871
13.132926940917969 7.75574254989624 0.4671100080013275
13.06905746459961 7.755713939666748 0.4644976556301117
13.000819206237793 7.751745223999023 0.46264341473579407
12.922693252563477 7.7426300048828125 0.4595300555229187
12.859224319458008 7.740912437438965 0.4578436017036438
12.7915678024292 7.73639440536499 0.4550921618938446
12.714960098266602 7.727208137512207 0.4520435333251953
12.657130241394043 7.72807502746582 0.45055702328681946
12.588461875915527 7.72206974029541 0.4477795958518982
12.516764640808105 7.7149248123168945 0.44492658972740173
12.451437950134277 7.710359573364258 0.4431614577770233
12.383780479431152 7.705111503601074 0.44044730067253113
12.304438591003418 7.691211223602295 0.4373166561126709
12.258195877075195 7.697728157043457 0.43622925877571106
12.185362815856934 7.6883368492126465 0.43334031105041504
12.115397453308105 7.679388523101807 0.43055248260498047
11.931902885437012 7.6686506271362305 0.4222913384437561
11.7617769241333 7.6642327308654785 0.4162529408931732
11.098395347595215 7.6023712158203125 0.3923126757144928
10.929716110229492 7.5891923904418945 0.3864192068576813
10.884323120117188 7.591198921203613 0.3853708505630493
10.776836395263672 7.583895206451416 0.38108235597610474
10.72637939453125 7.581718921661377 0.3790612816810608
10.66531753540039 7.5727763175964355 0.37588584423065186
10.621222496032715 7.57466983795166 0.374885231256485
10.570183753967285 7.571411609649658 0.372842937707901
10.516409873962402 7.56693696975708 0.3707340955734253
10.449610710144043 7.551833629608154 0.3689209520816803
10.412230491638184 7.557774066925049 0.36736878752708435
10.349388122558594 7.545956134796143 0.3649464249610901
10.3014497756958 7.543796062469482 0.36302730441093445
10.252893447875977 7.540986061096191 0.36185717582702637
10.192523956298828 7.530178070068359 0.35951897501945496
10.159283638000488 7.538259506225586 0.35813429951667786
10.093937873840332 7.523261070251465 0.3556273281574249
10.063733100891113 7.533284664154053 0.35510432720184326
10.003710746765137 7.520808696746826 0.35278090834617615
9.94992446899414 7.5136823654174805 0.35068783164024353
9.913639068603516 7.518637180328369 0.34994882345199585
9.85423755645752 7.505860328674316 0.3476537764072418
9.808646202087402 7.504286766052246 0.34585538506507874
9.755614280700684 7.495859622955322 0.34378188848495483
9.734371185302734 7.5126633644104 0.3435891568660736
9.66513442993164 7.491282939910889 0.34095489978790283
9.629022598266602 7.495331287384033 0.3394838869571686
9.531827926635742 7.484352111816406 0.3364250361919403
9.477484703063965 7.473539352416992 0.33358800411224365
9.38134479522705 7.462006568908691 0.329851895570755
9.265356063842773 7.465337753295898 0.32596421241760254
9.120709419250488 7.443837642669678 0.32106801867485046
8.779996871948242 7.414731502532959 0.30919986963272095
8.748353958129883 7.420072078704834 0.3079511225223541
8.659955978393555 7.4071245193481445 0.304527223110199
8.630452156066895 7.41386079788208 0.3033507764339447
8.543196678161621 7.4016618728637695 0.30068591237068176
8.5022554397583 7.397134304046631 0.29909655451774597
8.462865829467773 7.393787384033203 0.297563761472702
8.4151611328125 7.383856296539307 0.2957645058631897
8.376446723937988 7.380708694458008 0.2949332594871521
8.348234176635742 7.387588024139404 0.29381436109542847
8.3053560256958 7.380434036254883 0.29216477274894714
8.263254165649414 7.3737664222717285 0.29055333137512207
8.224444389343262 7.370753765106201 0.2890670895576477
8.191699028015137 7.372116565704346 0.2877804934978485
8.1554536819458 7.370197772979736 0.28703564405441284
8.13222599029541 7.3808183670043945 0.28610992431640625
8.072572708129883 7.357285022735596 0.2838802635669708
8.055198669433594 7.372120380401611 0.28314006328582764
8.004212379455566 7.356929302215576 0.28123557567596436
7.975833892822266 7.361437797546387 0.280111700296402
7.917975902557373 7.339422702789307 0.27862921357154846
7.896141529083252 7.34970760345459 0.27773812413215637
7.857072353363037 7.34384298324585 0.27624285221099854
7.819151878356934 7.339746952056885 0.27480509877204895
7.768499374389648 7.3225860595703125 0.2729061543941498
7.760531902313232 7.345560073852539 0.27251747250556946
7.703217029571533 7.322560787200928 0.2710447609424591
7.684122562408447 7.334824562072754 0.27025941014289856
7.645611763000488 7.3284592628479 0.26879265904426575
7.612614154815674 7.3280863761901855 0.2675366699695587
7.575098514556885 7.322320938110352 0.2661162316799164
7.497365474700928 7.308508396148682 0.2638167142868042
7.465034484863281 7.307276248931885 0.26257407665252686
7.400089740753174 7.304973125457764 0.26010727882385254
7.359747886657715 7.295377731323242 0.25858789682388306
7.2899651527404785 7.287317276000977 0.2565745413303375
7.1853742599487305 7.273658752441406 0.2526324987411499
7.100953578948975 7.279165744781494 0.24940524995326996
6.997160911560059 7.26356840133667 0.24612657725811005
6.899547576904297 7.253822326660156 0.24247324466705322
6.848756313323975 7.260540008544922 0.240534245967865
6.817648410797119 7.258553981781006 0.2393774688243866
6.754242897033691 7.251132965087891 0.23759326338768005
6.715311527252197 7.240276336669922 0.23616383969783783
6.659275531768799 7.239907741546631 0.23463985323905945
6.6269426345825195 7.235705852508545 0.23344570398330688
6.570563793182373 7.235089302062988 0.2313445657491684
6.539678573608398 7.231175422668457 0.23018956184387207
6.513147830963135 7.231961250305176 0.2291894257068634
6.478708267211914 7.224686622619629 0.22792717814445496
6.440912246704102 7.212595462799072 0.22653251886367798
6.417663097381592 7.217536449432373 0.22566716372966766
6.390869617462158 7.2175092697143555 0.22466245293617249
6.364760875701904 7.218160152435303 0.2236831933259964
6.323182582855225 7.201951503753662 0.22276149690151215
6.305633544921875 7.212095260620117 0.22208532691001892
6.271503448486328 7.203181266784668 0.22082607448101044
6.243210792541504 7.201681613922119 0.2197890281677246
6.210904121398926 7.194526672363281 0.21859608590602875
6.1831560134887695 7.192515850067139 0.21756546199321747
6.157843112945557 7.194091320037842 0.21663673222064972
6.12968111038208 7.191345691680908 0.21560056507587433
6.1079182624816895 7.196020126342773 0.21478374302387238
6.064538955688477 7.17591667175293 0.21322259306907654
6.054882526397705 7.194721698760986 0.21282663941383362
6.003033638000488 7.164121627807617 0.21097731590270996
5.982468605041504 7.169750213623047 0.21020691096782684
5.957579135894775 7.1701273918151855 0.2092859297990799
5.935080528259277 7.1741623878479 0.20846448838710785
5.892252445220947 7.152562141418457 0.20691491663455963
5.869197845458984 7.154790878295898 0.20606163144111633
5.842650413513184 7.15352725982666 0.2051013708114624
5.817870140075684 7.153436660766602 0.20474497973918915
5.789360046386719 7.148646831512451 0.20370200276374817
5.757327079772949 7.1402153968811035 0.20255765318870544
5.735898017883301 7.1439290046691895 0.20176547765731812
5.667543888092041 7.150423526763916 0.19926734268665314
5.581592559814453 7.13365364074707 0.19615860283374786
5.4587178230285645 7.129583358764648 0.19172556698322296
5.377567768096924 7.115828037261963 0.18880867958068848
5.299839973449707 7.105402946472168 0.18602034449577332
5.276042461395264 7.105106353759766 0.18517714738845825
5.232919692993164 7.10849666595459 0.18361946940422058
5.208523273468018 7.107094764709473 0.18275772035121918
5.186923980712891 7.108526229858398 0.18198005855083466
5.15744161605835 7.099914073944092 0.18094104528427124
5.128509998321533 7.0909857749938965 0.17990759015083313
5.112112998962402 7.099303722381592 0.1793150156736374
5.085731029510498 7.094566822052002 0.1783873289823532
5.0584869384765625 7.0875773429870605 0.1774156093597412
5.032711505889893 7.082510948181152 0.1765027940273285
5.008692741394043 7.080683708190918 0.17566075921058655
4.984302997589111 7.077310562133789 0.17479151487350464
4.964451789855957 7.080300331115723 0.17408263683319092
4.940195083618164 7.077810764312744 0.1732344776391983
4.91339635848999 7.070634841918945 0.1722831279039383
4.887112140655518 7.064058780670166 0.17135071754455566
4.860920429229736 7.058367729187012 0.17043723165988922
4.8412556648254395 7.061148166656494 0.1692224144935608
4.82789945602417 7.07309627532959 0.16874554753303528
4.797049045562744 7.060230255126953 0.16767235100269318
4.776678562164307 7.061742305755615 0.16695202887058258
4.757062911987305 7.065207004547119 0.1662735939025879
4.724839210510254 7.0488786697387695 0.16513966023921967
4.70225715637207 7.046774387359619 0.1643439382314682
4.688529968261719 7.058804988861084 0.16387352347373962
4.654973030090332 7.039949417114258 0.16269539296627045
4.641666889190674 7.0515899658203125 0.16222627460956573
4.613929748535156 7.042150497436523 0.1612679660320282
4.595522403717041 7.045921802520752 0.16062195599079132
4.5640034675598145 7.030360698699951 0.15953265130519867
4.5492963790893555 7.039649963378906 0.15901729464530945
4.5222015380859375 7.029692649841309 0.15806975960731506
4.5024638175964355 7.031968116760254 0.15739427506923676
4.477284908294678 7.024702548980713 0.15651485323905945
4.466926097869873 7.040655136108398 0.15615440905094147
4.4469780921936035 7.042413711547852 0.15547406673431396
4.414673328399658 7.023497581481934 0.15434692800045013
4.405406475067139 7.041154861450195 0.15402698516845703
4.380177974700928 7.034195899963379 0.1526642143726349
4.360814571380615 7.035606861114502 0.15199266374111176
4.335634708404541 7.027508735656738 0.15111851692199707
4.304376125335693 7.0102996826171875 0.14955227077007294
4.275905132293701 6.996462345123291 0.1485665887594223
4.2619500160217285 7.006261825561523 0.14808596670627594
4.219079971313477 7.002032279968262 0.1466214507818222
4.160053253173828 7.003293037414551 0.14460529386997223
4.091249465942383 6.987133026123047 0.14225450158119202
4.049590587615967 6.9832682609558105 0.14084796607494354
4.030740261077881 6.984119892120361 0.14020371437072754
15.13672161102295 -11.066298484802246 0.535419762134552
17.599782943725586 -10.82872486114502 0.6316922307014465
17.760845184326172 -10.824974060058594 0.6383576393127441
17.972742080688477 -10.799752235412598 0.6473631858825684
18.10984230041504 -10.778590202331543 0.6467820405960083
20.65554428100586 -10.539214134216309 0.7455818057060242
21.11200523376465 -10.494258880615234 0.7638017535209656
21.200767517089844 -10.483570098876953 0.7676511406898499
21.30524444580078 -10.480266571044922 0.770663321018219
21.40231704711914 -10.471293449401855 0.7748200297355652
21.494474411010742 -10.461155891418457 0.7788291573524475
21.57878303527832 -10.446856498718262 0.7825609445571899
21.681758880615234 -10.439595222473145 0.7869372367858887
21.763959884643555 -10.42359447479248 0.789151668548584
21.958106994628906 -10.403120994567871 0.7975654602050781
22.063278198242188 -10.396940231323242 0.8020718097686768
24.586074829101562 -10.104937553405762 0.89681476354599
24.8096923828125 -10.076662063598633 0.9001046419143677
24.927675247192383 -10.062623023986816 0.9052258729934692
25.878236770629883 -9.944554328918457 0.9420214891433716
26.11493492126465 -9.911294937133789 0.9525448679924011
26.255531311035156 -9.900562286376953 0.9569000005722046
26.373750686645508 -9.882678031921387 0.9621803164482117
26.63201904296875 -9.8517484664917 0.9718154072761536
26.771076202392578 -9.840056419372559 0.9778853058815002
27.029071807861328 -9.80589771270752 0.9875497817993164
29.567331314086914 -9.479133605957031 1.0815454721450806
30.030488967895508 -9.419841766357422 1.1001225709915161
30.15326499938965 -9.387674331665039 1.1039066314697266
30.480770111083984 -9.351019859313965 1.1164144277572632
30.653703689575195 -9.332498550415039 1.123950719833374
30.80335807800293 -9.308232307434082 1.1287510395050049
30.958301544189453 -9.282952308654785 1.1356502771377563
31.109214782714844 -9.25788688659668 1.140502691268921
31.284408569335938 -9.23936939239502 1.142282485961914
31.437030792236328 -9.211501121520996 1.1470342874526978
31.611051559448242 -9.191277503967285 1.1546976566314697
31.785808563232422 -9.170595169067383 1.160383939743042
31.970687866210938 -9.1500244140625 1.1684504747390747
32.1139030456543 -9.118929862976074 1.1729893684387207
32.451202392578125 -9.067195892333984 1.18596351146698
32.61629867553711 -9.040399551391602 1.1933506727218628
32.96320343017578 -8.987238883972168 1.2067358493804932
20.407264709472656 -4.384007453918457 0.7473784685134888
20.531143188476562 -4.364772796630859 0.75288325548172
20.67472267150879 -4.350457191467285 0.7578310370445251
20.828365325927734 -4.337669372558594 0.7631313800811768
21.957984924316406 -4.524017810821533 0.8055521845817566
22.068918228149414 -4.499136924743652 0.80926114320755
22.101171493530273 -4.4579620361328125 0.8101027607917786
22.13113021850586 -4.414824485778809 0.8122149705886841
22.176334381103516 -4.376010894775391 0.8135547041893005
22.242290496826172 -4.339699745178223 0.8170005679130554
22.337308883666992 -4.310121059417725 0.8201600909233093
23.07161521911621 -4.301548004150391 0.8432899713516235
41.48240280151367 -7.464564323425293 1.5176523923873901
44.389095306396484 -6.361123085021973 1.6277788877487183
44.39177703857422 -6.267521381378174 1.6273962259292603
44.43742752075195 -6.177175045013428 1.6286134719848633
44.452857971191406 -6.085315704345703 1.6232906579971313
44.48969268798828 -5.99359655380249 1.6241652965545654
44.51628875732422 -5.903118133544922 1.6246850490570068
44.52307891845703 -5.810025215148926 1.6244887113571167
44.538536071777344 -5.715304851531982 1.6246346235275269
44.5783805847168 -5.626410484313965 1.6283742189407349
44.59175491333008 -5.534111976623535 1.6284383535385132
44.6646728515625 -5.352261066436768 1.630264401435852
44.63822555541992 -5.252389907836914 1.6288836002349854
44.6417350769043 -5.158902168273926 1.6313639879226685
44.72498321533203 -4.977743148803711 1.6336253881454468
44.72747802734375 -4.884073734283447 1.63334321975708
44.78021240234375 -4.699082374572754 1.6372835636138916
44.82090377807617 -4.609335899353027 1.6384197473526
44.849552154541016 -4.421485424041748 1.638769507408142
44.96243667602539 -4.147377967834473 1.64467453956604
45.10939407348633 -3.5867984294891357 1.6455626487731934
45.169918060302734 -3.3059885501861572 1.6469815969467163
45.089576721191406 -3.1092569828033447 1.6435565948486328
45.0816535949707 -3.014726161956787 1.6430366039276123
45.03013610839844 -2.727043390274048 1.6432561874389648
45.00101089477539 -2.6288065910339355 1.6419835090637207
45.0430793762207 -2.5374832153320312 1.6433241367340088
45.02602005004883 -2.4427988529205322 1.6425117254257202
45.05752944946289 -2.34798264503479 1.6434754133224487
45.045597076416016 -2.253638744354248 1.6428664922714233
45.04712677001953 -2.159977674484253 1.6427552700042725
45.033912658691406 -2.0629613399505615 1.6421078443527222
45.05946350097656 -1.9704371690750122 1.6428877115249634
45.06769943237305 -1.8743470907211304 1.6430394649505615
45.044410705566406 -1.779748797416687 1.642051100730896
45.057559967041016 -1.6839040517807007 1.6396716833114624
45.06505584716797 -1.5905108451843262 1.6398197412490845
45.05593490600586 -1.4965791702270508 1.6394022703170776
45.06162643432617 -1.3068106174468994 1.639393925666809
45.027103424072266 -1.212264895439148 1.638041377067566
45.059043884277344 -1.0232763290405273 1.639032006263733
45.11116409301758 -0.740753710269928 1.6407276391983032
45.11690139770508 -0.4571326971054077 1.6407973766326904
53.504302978515625 0.13058871030807495 2.3840479850769043
53.60558319091797 0.8049294352531433 2.3888235092163086
53.25274658203125 1.697188138961792 2.3739967346191406
53.24518966674805 1.8075613975524902 2.373823642730713
53.204750061035156 2.030548095703125 2.3691630363464355
53.148033142089844 2.138845682144165 2.366830587387085
53.1539306640625 2.252825975418091 2.3640871047973633
53.147804260253906 2.3630664348602295 2.364027261734009
53.11058044433594 2.4718544483184814 2.3625941276550293
53.104434967041016 2.585268497467041 2.3625612258911133
53.088294982910156 2.6949238777160645 2.3620877265930176
53.07989501953125 2.8049814701080322 2.3619308471679688
53.04435348510742 2.916710376739502 2.3606204986572266
53.00560760498047 3.0249221324920654 2.3591694831848145
52.980934143066406 3.1370766162872314 2.3583643436431885
52.928592681884766 3.244213104248047 2.3563284873962402
52.92229461669922 3.3541152477264404 2.3563520908355713
52.88949966430664 3.4654531478881836 2.3552165031433105
52.85006332397461 3.573029041290283 2.350580930709839
52.79981994628906 3.7930760383605957 2.3490350246429443
52.76993942260742 3.901019334793091 2.3480613231658936
52.702449798583984 4.119266510009766 2.3458077907562256
52.60124206542969 4.444265365600586 2.342461109161377
52.523902893066406 4.7704668045043945 2.3371171951293945
52.37099838256836 5.31145715713501 2.329407215118408
52.35731506347656 5.423054218292236 2.329308271408081
52.299312591552734 5.639762878417969 2.327763080596924
52.280487060546875 5.747511386871338 2.327449083328247
52.217010498046875 5.963203430175781 2.3256821632385254
52.16324234008789 6.066750526428223 2.3206679821014404
52.15147018432617 6.178322792053223 2.3207247257232666
52.1251335144043 6.284918308258057 2.3201279640197754
52.11193084716797 6.393106460571289 2.3201262950897217
52.066219329833984 6.500389575958252 2.3187012672424316
52.051979064941406 6.608343124389648 2.3186728954315186
52.06263732910156 6.722737789154053 2.319748640060425
52.05326843261719 6.83137845993042 2.3167855739593506
51.957279205322266 6.9284892082214355 2.3131463527679443
51.900230407714844 7.033757209777832 2.3112707138061523
51.8297119140625 7.133763790130615 2.3087828159332275
51.79352951049805 7.238369941711426 2.307835578918457
51.762847900390625 7.346815586090088 2.307161808013916
51.69532775878906 7.4467034339904785 2.3016409873962402
51.68523025512695 7.557987213134766 2.3019046783447266
51.63469696044922 7.660074234008789 2.300283908843994
51.599063873291016 7.764255046844482 2.2994086742401123
51.583526611328125 7.874642848968506 2.299459457397461
51.54618835449219 7.978439807891846 2.2985289096832275
51.480735778808594 8.190457344055176 2.2939789295196533
51.454044342041016 8.29576301574707 2.293513774871826
51.20468521118164 9.139830589294434 2.2825894355773926
51.0547981262207 9.447826385498047 2.278496503829956
51.022987365722656 9.774077415466309 2.2766342163085938
50.91135025024414 9.975151062011719 2.2734696865081787
50.88155746459961 10.078999519348145 2.2699332237243652
50.845096588134766 10.181513786315918 2.2691705226898193
50.79884719848633 10.28513240814209 2.2680811882019043
50.783634185791016 10.391806602478027 2.2683584690093994
50.721290588378906 10.491987228393555 2.263401746749878
50.6529541015625 10.58751106262207 2.2613275051116943
50.468231201171875 10.65825366973877 2.254058361053467
49.944984436035156 10.659255027770996 2.231701135635376
49.358741760253906 10.641280174255371 2.2033979892730713
48.86033630371094 10.640020370483398 2.182133913040161
48.31724548339844 10.629880905151367 2.1588873863220215
47.804534912109375 10.621136665344238 2.136960029602051
47.25370407104492 10.604732513427734 2.110384225845337
46.74758529663086 10.59309196472168 2.088759422302246
46.25323486328125 10.582033157348633 2.0676472187042236
45.743682861328125 10.568339347839355 2.04587459564209
45.28512954711914 10.561436653137207 2.0234994888305664
44.199546813964844 10.504718780517578 1.9769471883773804
43.7237434387207 10.487543106079102 1.95391845703125
42.80898666381836 10.458985328674316 1.9149593114852905
41.31755828857422 10.370282173156738 1.8485127687454224
39.99801254272461 10.306838989257812 1.7897831201553345
38.71710205078125 10.239252090454102 1.7328870296478271
37.5764045715332 10.190755844116211 1.682285189628601
36.840755462646484 10.158002853393555 1.6512219905853271
36.44614028930664 10.130623817443848 1.632187008857727
35.71757125854492 10.090344429016113 1.6014196872711182
35.377952575683594 10.073724746704102 1.5849040746688843
34.99663543701172 10.04601764678955 1.568778157234192
34.665931701660156 10.028999328613281 1.5548564195632935
34.325504302978516 10.0077543258667 1.538354516029358
34.0084228515625 9.994181632995605 1.5250974893569946
33.6918830871582 9.977161407470703 1.5118017196655273
33.38093566894531 9.960474014282227 1.4966689348220825
33.02056121826172 9.929810523986816 1.481455683708191
32.73442459106445 9.91788387298584 1.46951425075531
32.44688034057617 9.906488418579102 1.4555033445358276
32.159881591796875 9.891870498657227 1.4434983730316162
31.821687698364258 9.860177993774414 1.4292320013046265
31.528894424438477 9.84332275390625 1.4150023460388184
31.226680755615234 9.820135116577148 1.4023507833480835
30.94573974609375 9.804454803466797 1.3906707763671875
30.654626846313477 9.782292366027832 1.3765296936035156
30.36170196533203 9.758284568786621 1.364281415939331
30.0888614654541 9.741558074951172 1.3510429859161377
29.827268600463867 9.725297927856445 1.340177059173584
29.521991729736328 9.693584442138672 1.3273600339889526
29.02387809753418 9.665626525878906 1.3049122095108032
28.25555992126465 9.607507705688477 1.2712323665618896
25.752893447875977 9.426534652709961 1.1580898761749268
25.13596534729004 9.38032341003418 1.1313351392745972
24.92365264892578 9.360061645507812 1.121023178100586
24.73108673095703 9.348073959350586 1.1132564544677734
24.52887725830078 9.329862594604492 1.103418231010437
24.366466522216797 9.326014518737793 1.0969816446304321
24.183391571044922 9.315220832824707 1.0896145105361938
23.993253707885742 9.299206733703613 1.080358624458313
23.779605865478516 9.273207664489746 1.0716023445129395
23.610218048095703 9.26530647277832 1.063307523727417
23.42081069946289 9.247113227844238 1.0556384325027466
23.241634368896484 9.233805656433105 1.046919822692871
23.060348510742188 9.217235565185547 1.0396134853363037
22.89434814453125 9.206031799316406 1.0314797163009644
22.702714920043945 9.185362815856934 1.0237267017364502
22.54378890991211 9.175549507141113 1.0159473419189453
22.385313034057617 9.16681957244873 1.0096677541732788
22.227062225341797 9.155941009521484 1.0019327402114868
22.050195693969727 9.136653900146484 0.9947941899299622
21.882038116455078 9.121795654296875 0.9852204322814941
21.734952926635742 9.113470077514648 0.9780077338218689
21.575597763061523 9.099344253540039 0.9716668725013733
21.408056259155273 9.082599639892578 0.963588297367096
21.273605346679688 9.07769775390625 0.9583654999732971
20.960050582885742 9.048431396484375 0.9445520043373108
20.804779052734375 9.032669067382812 0.9370278120040894
20.38644027709961 9.003778457641602 0.9193543195724487
18.869094848632812 8.86074161529541 0.8522940278053284
18.51072883605957 8.834908485412598 0.8336295485496521
18.27720832824707 8.81815242767334 0.8235371708869934
18.132976531982422 8.795001029968262 0.8166263103485107
18.021610260009766 8.787226676940918 0.8124301433563232
17.888853073120117 8.769845008850098 0.8060698509216309
17.787256240844727 8.765868186950684 0.8023098707199097
17.666257858276367 8.751850128173828 0.7964640855789185
17.557939529418945 8.744952201843262 0.7924212217330933
17.441043853759766 8.731948852539062 0.7867690920829773
17.332033157348633 8.723726272583008 0.7826902270317078
17.203489303588867 8.703821182250977 0.7765200138092041
17.100345611572266 8.69625186920166 0.7715182304382324
16.999086380004883 8.690511703491211 0.7677722573280334
16.901323318481445 8.684820175170898 0.7630214095115662
16.7664737701416 8.660835266113281 0.7577518820762634
16.663623809814453 8.651577949523926 0.7527793645858765
16.579633712768555 8.65169906616211 0.7497813701629639
16.458065032958984 8.633042335510254 0.7439921498298645
16.357938766479492 8.623855590820312 0.7391442060470581
16.255691528320312 8.613107681274414 0.7353152632713318
16.165645599365234 8.609675407409668 0.7309668660163879
16.05002212524414 8.590898513793945 0.7265289425849915
15.872899055480957 8.58228588104248 0.715769350528717
15.770316123962402 8.569161415100098 0.7108593583106995
15.57668399810791 8.549112319946289 0.7026618123054504
15.471450805664062 8.533181190490723 0.6976318359375
15.283435821533203 8.513623237609863 0.6896947622299194
14.516593933105469 8.45022964477539 0.6570529341697693
14.246246337890625 8.4132080078125 0.6451739072799683
14.07639217376709 8.39305591583252 0.6370846629142761
14.018568992614746 8.398061752319336 0.6352443099021912
13.854642868041992 8.37934684753418 0.6284196376800537
13.78526782989502 8.376509666442871 0.6221641302108765
13.69593334197998 8.361190795898438 0.617932915687561
13.63303279876709 8.362820625305176 0.6158998608589172
13.541675567626953 8.345505714416504 0.6115807294845581
13.462729454040527 8.335463523864746 0.6078394651412964
13.395533561706543 8.333483695983887 0.6055960655212402
13.323935508728027 8.32734203338623 0.6021785140037537
13.229546546936035 8.307703971862793 0.5977696180343628
13.16579818725586 8.305817604064941 0.595655620098114
13.106633186340332 8.30656623840332 0.5928208231925964
13.034313201904297 8.299813270568848 0.5894055366516113
12.954841613769531 8.287042617797852 0.5865765810012817
12.882060050964355 8.279317855834961 0.5831558704376221
12.816085815429688 8.274548530578613 0.5800129175186157
12.734277725219727 8.259221076965332 0.5770730376243591
12.659509658813477 8.249202728271484 0.5735701322555542
12.607872009277344 8.252877235412598 0.5710847973823547
12.545193672180176 8.249102592468262 0.5690085887908936
12.463014602661133 8.23324203491211 0.5651752948760986
12.393911361694336 8.22458553314209 0.5619046092033386
12.260337829589844 8.210524559020996 0.5565099120140076
12.188492774963379 8.199100494384766 0.5531219840049744
12.077423095703125 8.198474884033203 0.5461081862449646
11.99927806854248 8.181854248046875 0.5433405041694641
11.877706527709961 8.172450065612793 0.5376270413398743
11.809205055236816 8.161490440368652 0.5352919697761536
11.336172103881836 8.120088577270508 0.5148632526397705
11.14494800567627 8.089608192443848 0.506794273853302
11.037735939025879 8.08195972442627 0.501778781414032
10.987478256225586 8.081259727478027 0.5002670884132385
10.877556800842285 8.071224212646484 0.49516016244888306
10.803093910217285 8.050786972045898 0.4917061924934387
10.763545989990234 8.056109428405762 0.49066635966300964
10.699058532714844 8.043560028076172 0.4876905381679535
10.66249942779541 8.050762176513672 0.48516154289245605
10.60871410369873 8.044770240783691 0.4826694130897522
10.562686920166016 8.045465469360352 0.4805446267127991
10.491032600402832 8.02534294128418 0.4780412018299103
10.441723823547363 8.022039413452148 0.47574737668037415
10.377717971801758 8.00816535949707 0.472807914018631
10.338730812072754 8.012367248535156 0.4709888696670532
10.277409553527832 8.000042915344238 0.46897265315055847
10.237318992614746 8.003007888793945 0.46710634231567383
10.177821159362793 7.990581035614014 0.46435627341270447
10.137346267700195 7.993865489959717 0.46250849962234497
10.071531295776367 7.975919246673584 0.4602503776550293
10.02397346496582 7.973158359527588 0.45807111263275146
9.97119426727295 7.965016841888428 0.45563340187072754
9.945399284362793 7.978276252746582 0.45444127917289734
9.874489784240723 7.95612096786499 0.45196694135665894
9.834887504577637 7.957927227020264 0.4501359462738037
9.777591705322266 7.945209503173828 0.4474973678588867
9.737308502197266 7.9470601081848145 0.4456712305545807
9.689017295837402 7.94120454788208 0.4442046582698822
9.638437271118164 7.933254718780518 0.44187653064727783
9.583066940307617 7.9220709800720215 0.43936243653297424
9.535151481628418 7.915827751159668 0.4371603727340698
9.440863609313965 7.904948711395264 0.4328552484512329
9.398064613342285 7.902345657348633 0.43090254068374634
9.249164581298828 7.876941680908203 0.42485249042510986
9.123157501220703 7.869114875793457 0.41911983489990234
8.916130065917969 7.855281829833984 0.4104795753955841
8.783513069152832 7.838022708892822 0.40520864725112915
8.651226043701172 7.818222522735596 0.39923590421676636
8.572075843811035 7.811583518981934 0.3963594138622284
8.523611068725586 7.80079984664917 0.39419063925743103
8.49537181854248 7.807412147521973 0.39292776584625244
8.452412605285645 7.8003621101379395 0.39098626375198364
8.417828559875488 7.801796913146973 0.3894546926021576
8.360616683959961 7.7810869216918945 0.3875538408756256
8.334420204162598 7.789999961853027 0.3864131569862366
8.285639762878418 7.776683330535889 0.38420429825782776
8.254175186157227 7.779445171356201 0.3828004002571106
8.209494590759277 7.770503997802734 0.3808062672615051
8.172072410583496 7.767299175262451 0.37913674116134644
8.125997543334961 7.755676746368408 0.37705907225608826
8.098715782165527 7.762755393981934 0.376552939414978
8.042521476745605 7.7409796714782715 0.3740038573741913
8.011848449707031 7.743561267852783 0.37264347076416016
7.972708225250244 7.738730430603027 0.3709206283092499
7.93799352645874 7.737091541290283 0.36937403678894043
7.889770030975342 7.723024845123291 0.3672223389148712
7.861839771270752 7.727697372436523 0.36665967106819153
7.833898067474365 7.732271671295166 0.36543190479278564
7.797510147094727 7.729299545288086 0.3638327121734619
7.7511372566223145 7.715288162231445 0.3617550730705261
7.725411415100098 7.72167444229126 0.3606347441673279
7.6799702644348145 7.709110736846924 0.35861635208129883
7.641044616699219 7.701937198638916 0.35688090324401855
7.597724914550781 7.69106388092041 0.35561612248420715
7.588578224182129 7.713757514953613 0.35527539253234863
7.5415425300598145 7.697845458984375 0.3531703054904938
7.4675211906433105 7.686769962310791 0.3499070405960083
7.434373378753662 7.68450403213501 0.3484470844268799
7.3564934730529785 7.668355464935303 0.34565770626068115
7.326752185821533 7.669158935546875 0.344359815120697
7.243631839752197 7.646355152130127 0.34067586064338684
7.160171985626221 7.6540751457214355 0.33708637952804565
7.060306549072266 7.64307165145874 0.3333691954612732
6.967769145965576 7.638686180114746 0.329365611076355
6.852114200592041 7.608325004577637 0.3243054151535034
6.799302577972412 7.613000869750977 0.32205167412757874
6.757879734039307 7.599222183227539 0.32023632526397705
6.703153133392334 7.601912975311279 0.3185299336910248
6.6688079833984375 7.594675540924072 0.3170287013053894
6.642143726348877 7.59605598449707 0.3158935308456421
6.620134353637695 7.603592872619629 0.3150106370449066
6.583385467529297 7.59314489364624 0.3133966028690338
6.544426441192627 7.579945087432861 0.3116786777973175
6.512274742126465 7.575349807739258 0.31090936064720154
6.49766731262207 7.590163707733154 0.31035345792770386
6.443617343902588 7.558732032775879 0.3079129159450531
6.4248175621032715 7.569360733032227 0.3071805238723755
6.4006266593933105 7.572657108306885 0.3061688244342804
6.367312431335449 7.5650410652160645 0.3047292232513428
6.339001178741455 7.564133167266846 0.3035435974597931
6.298196315765381 7.547201633453369 0.30173808336257935
6.275512218475342 7.552757740020752 0.3008236885070801
6.2442121505737305 7.5468950271606445 0.299474835395813
6.212716579437256 7.540646076202393 0.2981177568435669
6.181018352508545 7.534900665283203 0.29677271842956543
6.153102397918701 7.532695770263672 0.295587956905365
6.130250453948975 7.536599636077881 0.29464757442474365
6.102331638336182 7.535089492797852 0.2934862971305847
6.068157196044922 7.524765491485596 0.2925930917263031
6.044185638427734 7.526963710784912 0.29160022735595703
6.00546932220459 7.511549949645996 0.2899179458618164
5.980591297149658 7.512343406677246 0.28830304741859436
5.953550815582275 7.510320663452148 0.28716519474983215
5.92644739151001 7.509013652801514 0.2866230607032776
5.892597675323486 7.498080253601074 0.28515565395355225
5.876382827758789 7.510404586791992 0.28456398844718933
5.848699569702148 7.507071495056152 0.2833957374095917
5.813065528869629 7.493368148803711 0.2818429172039032
5.790477275848389 7.497254371643066 0.2809450030326843
5.761806488037109 7.492218971252441 0.2797297239303589
5.703731536865234 7.481696605682373 0.27728813886642456
5.6710944175720215 7.471001625061035 0.2758892774581909
5.6139302253723145 7.460719585418701 0.2734931409358978
5.6031060218811035 7.478598594665527 0.27315109968185425
5.521590709686279 7.467167377471924 0.2697584629058838
5.4427971839904785 7.458237171173096 0.2665020823478699
5.310523986816406 7.43976354598999 0.26104339957237244
5.23044490814209 7.42586088180542 0.2577320635318756
5.1553754806518555 7.417901515960693 0.25467056035995483
5.082306861877441 7.411761283874512 0.25171807408332825
5.058138370513916 7.41039514541626 0.25075608491897583
5.038134574890137 7.414095878601074 0.24997949600219727
5.009859085083008 7.405497074127197 0.24879218637943268
4.986645698547363 7.405208110809326 0.24787887930870056
4.962065696716309 7.401825428009033 0.24687591195106506
4.936222553253174 7.39738130569458 0.24583210051059723
4.914297580718994 7.397728443145752 0.24496212601661682
4.893552303314209 7.399783134460449 0.24415113031864166
4.859499931335449 7.38250732421875 0.2426983267068863
4.839944362640381 7.386141300201416 0.2419474571943283
4.818103313446045 7.386199474334717 0.24108289182186127
4.790876388549805 7.378847599029541 0.2399706095457077
4.765445709228516 7.373147010803223 0.23892709612846375
4.746247291564941 7.377956867218018 0.237159863114357
4.708117961883545 7.352171897888184 0.23548287153244019
4.6971282958984375 7.368649005889893 0.23516413569450378
4.674142837524414 7.367252826690674 0.23426789045333862
4.643322944641113 7.352359771728516 0.23295587301254272
4.623607158660889 7.354916572570801 0.2322016954421997
4.611968994140625 7.371291160583496 0.2318764477968216
4.579313278198242 7.3529887199401855 0.23047210276126862
4.559741497039795 7.355546951293945 0.2297263890504837
4.531845569610596 7.345529556274414 0.22858358919620514
4.502078533172607 7.331295490264893 0.22732354700565338
4.485842704772949 7.338967323303223 0.22674715518951416
4.466743469238281 7.342911720275879 0.22604887187480927
4.441162586212158 7.33511209487915 0.22500087320804596
4.410862445831299 7.319306373596191 0.22371254861354828
4.39255428314209 7.324260234832764 0.22305521368980408
4.376471042633057 7.331908226013184 0.22248941659927368
4.348692417144775 7.320847988128662 0.22135145962238312
4.33781099319458 7.337162971496582 0.22105179727077484
4.307785987854004 7.321027755737305 0.21977666020393372
4.290363311767578 7.327171325683594 0.2191670686006546
4.261778831481934 7.313117504119873 0.21796467900276184
