VERSION .7
FIELDS x y z
SIZE 4 4 4
TYPE F F F
COUNT 1 1 1
WIDTH 829
HEIGHT 1
VIEWPOINT 0 0 0 1 0 0 0
POINTS 829
DATA ascii
4.566998481750488 5.78363037109375 -0.009283961728215218
4.548079490661621 5.78433084487915 -0.009269659407436848
4.529233455657959 5.78502893447876 -0.009267833083868027
4.516446590423584 5.794155597686768 -0.00925506092607975
4.490175724029541 5.785171985626221 -0.009238185361027718
4.472920894622803 5.7876973152160645 -0.009227044880390167
4.466817378997803 5.805389404296875 -0.009240170009434223
4.434828281402588 5.788629055023193 -0.009198344312608242
4.424315929412842 5.800512313842773 -0.009202631190419197
4.396577835083008 5.789040565490723 -0.00916926097124815
4.390876293182373 5.806510925292969 -0.009183189831674099
4.370169162750244 5.804842948913574 -0.009165522642433643
4.359351634979248 5.81557035446167 -0.009168577380478382
4.33009147644043 5.801582336425781 -0.009131756611168385
4.318819999694824 5.812343120574951 -0.009134713560342789
4.308807373046875 5.824074745178223 -0.009139222092926502
4.277965545654297 5.808277130126953 -0.009099398739635944
4.275389671325684 5.830099582672119 -0.008691150695085526
4.251705646514893 5.823103427886963 -0.008667614310979843
4.230376243591309 5.8199567794799805 -0.008649435825645924
4.213881492614746 5.8226318359375 -0.00864004623144865
4.1916704177856445 5.817320346832275 -0.008607437834143639
4.176456451416016 5.822390556335449 -0.008601459674537182
4.160065650939941 5.825024127960205 -0.008592631667852402
4.144262790679932 5.828432559967041 -0.008584987372159958
4.124395370483398 5.826808452606201 -0.00856933742761612
4.108499050140381 5.829967975616455 -0.00856159906834364
4.088473796844482 5.827931880950928 -0.008545772172510624
4.072989463806152 5.831583499908447 -0.008538549765944481
4.056447982788086 5.833651065826416 -0.008529542945325375
4.035373687744141 5.829874038696289 -0.008510859683156013
4.023788928985596 5.838993549346924 -0.008512352593243122
4.005568504333496 5.838447093963623 -0.008499614894390106
3.9910786151885986 5.844049453735352 -0.008495267480611801
3.955878496170044 5.818396091461182 -0.008444981649518013
3.9446825981140137 5.8279032707214355 -0.00844766665250063
3.9426815509796143 5.851837635040283 -0.008470541797578335
3.9260201454162598 5.8532843589782715 -0.008461025543510914
3.8812944889068604 5.839615821838379 -0.008416743017733097
3.8640360832214355 5.839901924133301 -0.008405941538512707
3.8394691944122314 5.829796314239502 -0.008379391394555569
3.8380532264709473 5.854057312011719 -0.00840282253921032
3.8024837970733643 5.853418350219727 -0.0075506726279854774
3.7797372341156006 5.844918251037598 -0.007529556751251221
3.7681422233581543 5.854376792907715 -0.007531382609158754
3.7481753826141357 5.849995136260986 -0.007515909615904093
3.7391135692596436 5.8625993728637695 -0.007521755062043667
3.716489791870117 5.854676246643066 -0.007501113228499889
3.705352544784546 5.863990783691406 -0.007503494620323181
3.691481828689575 5.868974685668945 -0.007500492502003908
3.670663356781006 5.8636322021484375 -0.007483170833438635
3.6479694843292236 5.854357719421387 -0.007461867295205593
3.63423490524292 5.860147953033447 -0.007459279149770737
3.6279172897338867 5.877178192138672 -0.0074715381488204
3.6124961376190186 5.879457950592041 -0.007464769762009382
3.5883982181549072 5.868307113647461 -0.007440936751663685
3.5816707611083984 5.884708404541016 -0.007452293764799833
3.552746295928955 5.864553451538086 -0.007417423650622368
3.543696165084839 5.8779120445251465 -0.007424488198012114
3.5314908027648926 5.885252475738525 -0.007424488198012114
3.5146737098693848 5.884872913360596 -0.0074148946441709995
3.497905969619751 5.885320663452148 -0.007406109943985939
3.485074996948242 5.89153528213501 -0.007404944859445095
3.4570488929748535 5.872727394104004 -0.0073716784827411175
3.451240062713623 5.890811443328857 -0.007385680917650461
3.429424285888672 5.881523609161377 -0.007364797871559858
3.4153964519500732 5.886328220367432 -0.006554022431373596
3.401879072189331 5.891160488128662 -0.006540124304592609
6.4927449226379395 -12.149885177612305 0.00745142437517643
6.577503204345703 -12.124506950378418 0.007437943480908871
7.082364559173584 -12.12770938873291 0.006763008888810873
7.181155204772949 -12.121243476867676 0.006760710850358009
7.275876522064209 -12.106911659240723 0.006777922622859478
7.307873249053955 -12.101572036743164 0.006783658638596535
7.349900245666504 -12.114237785339355 0.006799480877816677
7.379788398742676 -12.106776237487793 0.006803837604820728
7.405662536621094 -12.091075897216797 0.006803854834288359
7.440271377563477 -12.091129302978516 0.00681246817111969
7.475545883178711 -12.090555191040039 0.006821058690547943
7.508256912231445 -12.087310791015625 0.006852039135992527
7.551884174346924 -12.101400375366211 0.006869051139801741
7.582766056060791 -12.093335151672363 0.006873582489788532
7.6148271560668945 -12.088610649108887 0.006879843305796385
7.6515936851501465 -12.091265678405762 0.006866375915706158
7.678619861602783 -12.076848030090332 0.006867304909974337
7.71038818359375 -12.071368217468262 0.006873279809951782
7.752396106719971 -12.081794738769531 0.006888526026159525
7.786159992218018 -12.077617645263672 0.006895646918565035
7.816238880157471 -12.069159507751465 0.006899943109601736
7.880054473876953 -12.056109428405762 0.006911413744091988
7.918480396270752 -12.060178756713867 0.0069230650551617146
7.982165336608887 -12.04628849029541 0.006934318225830793
8.095645904541016 -12.052305221557617 0.006967125926166773
8.203160285949707 -12.04803466796875 0.006994243245571852
8.850926399230957 -11.998744010925293 0.006269875913858414
8.88266372680664 -11.989607810974121 0.006274652201682329
8.954876899719238 -11.9812593460083 0.006290013901889324
8.98745346069336 -11.971471786499023 0.006294879596680403
9.071351051330566 -11.979305267333984 0.006318778730928898
9.111222267150879 -11.978742599487305 0.006303466856479645
9.182385444641113 -11.968839645385742 0.006318140774965286
9.221919059753418 -11.967390060424805 0.006327752023935318
9.254494667053223 -11.958212852478027 0.006332991179078817
9.299642562866211 -11.965167999267578 0.006346965674310923
9.331743240356445 -11.95372200012207 0.006351531948894262
9.371657371520996 -11.953585624694824 0.006361694075167179
9.406030654907227 -11.944828033447266 0.0063677201978862286
9.450960159301758 -11.950736999511719 0.006381393410265446
9.483389854431152 -11.940731048583984 0.006386444438248873
9.521862030029297 -11.936765670776367 0.006395293865352869
9.561834335327148 -11.93593978881836 0.006405290216207504
9.600954055786133 -11.93393325805664 0.006414971314370632
9.64168930053711 -11.932329177856445 0.00642518512904644
9.688407897949219 -11.939336776733398 0.006439872086048126
9.716858863830566 -11.923739433288574 0.006442180369049311
9.751856803894043 -11.91466236114502 0.006448443979024887
9.784235000610352 -11.90369701385498 0.006453393492847681
9.871198654174805 -11.906917572021484 0.006477770861238241
9.918285369873047 -11.913311958312988 0.006492477376013994
10.789908409118652 -11.856481552124023 0.005736025981605053
10.861211776733398 -11.834322929382324 0.005747382529079914
10.919713973999023 -11.848616600036621 0.005765512119978666
11.00008773803711 -11.835415840148926 0.005754284095019102
11.019709587097168 -11.807297706604004 0.005751415155827999
11.11279582977295 -11.80695629119873 0.005773933604359627
11.169254302978516 -11.816303253173828 0.005790365859866142
11.25208854675293 -11.805359840393066 0.005807754583656788
11.335217475891113 -11.792732238769531 0.005824882537126541
11.38282585144043 -11.793179512023926 0.005836967844516039
11.41655445098877 -11.777708053588867 0.005841054022312164
11.464391708374023 -11.778013229370117 0.0058530522510409355
11.520832061767578 -11.78696060180664 0.005869571585208178
11.544707298278809 -11.761059761047363 0.0058686151169240475
11.588112831115723 -11.756336212158203 0.005878179334104061
11.644918441772461 -11.76363468170166 0.005894611589610577
11.689791679382324 -11.760016441345215 0.005904696881771088
11.720996856689453 -11.742569923400879 0.005880321841686964
11.766040802001953 -11.737481117248535 0.00588995823636651
11.82352066040039 -11.745930671691895 0.0059067863039672375
11.874311447143555 -11.747527122497559 0.00592013681307435
11.964886665344238 -11.73784065246582 0.005940552335232496
12.005640029907227 -11.72902774810791 0.005948685575276613
12.096467971801758 -11.718603134155273 0.00596919609233737
12.245177268981934 -11.714343070983887 0.006006048060953617
12.818574905395508 -11.658488273620605 0.005083745811134577
12.964522361755371 -11.64315128326416 0.005112458951771259
13.117321014404297 -11.63223648071289 0.0051437560468912125
13.270952224731445 -11.620262145996094 0.005175384227186441
13.372129440307617 -11.609724998474121 0.005195727571845055
13.441914558410645 -11.621480941772461 0.004128961358219385
13.524242401123047 -11.593489646911621 0.004138935822993517
13.58315372467041 -11.595174789428711 0.004149810876697302
13.643001556396484 -11.596012115478516 0.0041605401784181595
13.687582969665527 -11.585027694702148 0.004166773054748774
13.736125946044922 -11.575878143310547 0.004173946101218462
13.798980712890625 -11.579960823059082 0.004186058882623911
13.847976684570312 -11.572148323059082 0.00419338745996356
13.906460762023926 -11.570698738098145 0.004203489050269127
13.959676742553711 -11.565998077392578 0.004212467931210995
14.00965690612793 -11.55846118927002 0.004220291506499052
14.055574417114258 -11.546009063720703 0.004226407501846552
14.10802936553955 -11.540108680725098 0.004235082305967808
14.170873641967773 -11.542513847351074 0.0042467848397791386
14.22435474395752 -11.535616874694824 0.004255501553416252
14.272290229797363 -11.52547836303711 0.0031736420933157206
14.379969596862793 -11.512718200683594 0.003155751619488001
14.4291353225708 -11.503026008605957 0.003161341417580843
14.558914184570312 -11.50654125213623 0.003179506165906787
14.630838394165039 -11.514139175415039 0.0031900303438305855
14.721953392028809 -11.485776901245117 0.003199005266651511
14.79013729095459 -11.489677429199219 0.003208919195458293
14.891653060913086 -11.468304634094238 0.002104623941704631
15.067604064941406 -11.453627586364746 0.002119373995810747
15.76613712310791 -11.369209289550781 0.0021435327362269163
15.957952499389648 -11.355729103088379 0.0009976481087505817
16.148681640625 -11.339200973510742 -0.00016596609202679247
16.33463478088379 -11.317124366760254 -0.0001672859798418358
16.468286514282227 -11.307376861572266 -0.0013537423219531775
16.53667640686035 -11.303910255432129 -0.0013573209289461374
16.592296600341797 -11.290038108825684 -0.0013600902166217566
16.657663345336914 -11.283975601196289 -0.0013634409988299012
16.72364044189453 -11.278108596801758 -0.0013669478939846158
16.794368743896484 -11.273730278015137 -0.0013706628233194351
16.841053009033203 -11.254400253295898 -0.0014067612355574965
16.909826278686523 -11.249666213989258 -0.0014105243608355522
16.99557113647461 -11.254409790039062 -0.001415550010278821
17.082876205444336 -11.261298179626465 -0.0014206484192982316
17.12055778503418 -11.233785629272461 -0.0014220761368051171
17.178359985351562 -11.220746040344238 -0.0014249983942136168
17.24853515625 -11.215584754943848 -0.001428687828592956
17.33343505859375 -11.218221664428711 -0.0014339231420308352
17.396268844604492 -11.20769214630127 -0.001437106286175549
17.46095848083496 -11.198163032531738 -0.0014406571863219142
17.523794174194336 -11.185700416564941 -0.0026777200400829315
17.593664169311523 -11.17898178100586 -0.0026848805136978626
17.725635528564453 -11.158327102661133 -0.003940996713936329
17.814655303955078 -11.162812232971191 -0.003955523017793894
17.945606231689453 -11.139892578125 -0.0039742086082696915
18.010347366333008 -11.128371238708496 -0.003983450122177601
18.249128341674805 -11.117998123168945 -0.004020697437226772
19.2948055267334 -10.990228652954102 -0.005533311050385237
19.526607513427734 -10.960256576538086 -0.006871288642287254
19.603893280029297 -10.950199127197266 -0.0068904743529856205
19.87021255493164 -10.935639381408691 -0.00830591656267643
20.028995513916016 -10.913379669189453 -0.00839135330170393
20.102529525756836 -10.899406433105469 -0.008412672206759453
20.185304641723633 -10.88855266571045 -0.008437559939920902
20.26420783996582 -10.876887321472168 -0.008461116813123226
20.344619750976562 -10.865726470947266 -0.008485240861773491
20.45111846923828 -10.866519927978516 -0.008519921451807022
20.510730743408203 -10.843673706054688 -0.00853539165109396
20.59756851196289 -10.833392143249512 -0.008561915718019009
20.692615509033203 -10.828577995300293 -0.008592050522565842
20.78018569946289 -10.81952953338623 -0.008619051426649094
20.856651306152344 -10.802817344665527 -0.008641176857054234
20.94980239868164 -10.795941352844238 -0.008670477196574211
21.034015655517578 -10.784156799316406 -0.010098997503519058
159.66294860839844 -79.7540054321289 -0.07670190930366516
159.77569580078125 -79.38429260253906 -0.08666457235813141
21.83083152770996 -10.675999641418457 -0.011825025081634521
21.9366455078125 -10.671393394470215 -0.011870360001921654
22.24028778076172 -10.646724700927734 -0.01203970517963171
22.509857177734375 -10.602352142333984 -0.01214931346476078
22.795989990234375 -10.562533378601074 -0.01226766500622034
24.016010284423828 -10.400813102722168 -0.015885740518569946
24.230009078979492 -10.372529983520508 -0.015998220071196556
24.35660171508789 -10.366966247558594 -0.01606765389442444
24.560810089111328 -10.331929206848145 -0.01617341861128807
24.676424026489258 -10.320344924926758 -0.01623549312353134
24.89044952392578 -10.286911010742188 -0.01634765975177288
25.009441375732422 -10.275379180908203 -0.016411814838647842
25.252704620361328 -10.251237869262695 -0.018206428736448288
25.35171127319336 -10.23020076751709 -0.018262416124343872
25.914844512939453 -10.14240837097168 -0.01859229803085327
26.019298553466797 -10.119295120239258 -0.018652066588401794
26.134397506713867 -10.101621627807617 -0.018719997256994247
26.266990661621094 -10.0902681350708 -0.01880049705505371
26.376136779785156 -10.067588806152344 -0.018863599747419357
26.47657012939453 -10.043025016784668 -0.018920883536338806
26.5456485748291 -10.00626277923584 -0.018910279497504234
26.52034568786621 -9.869368553161621 -0.018862441182136536
26.42989158630371 -9.709181785583496 -0.018813883885741234
26.375545501708984 -9.627143859863281 -0.018760908395051956
26.33198356628418 -9.424077033996582 -0.02034967765212059
26.272314071655273 -9.278093338012695 -0.02027297578752041
26.199140548706055 -9.191146850585938 -0.020201554521918297
18.130077362060547 -5.767309665679932 -0.013838058337569237
18.131980895996094 -5.642640590667725 -0.014939380809664726
18.113718032836914 -5.55339241027832 -0.01493668369948864
18.09601593017578 -5.50691032409668 -0.014912586659193039
18.09320831298828 -5.422906875610352 -0.014891340397298336
18.083599090576172 -5.379154682159424 -0.014874168671667576
18.07302474975586 -5.129574298858643 -0.015925541520118713
18.064470291137695 -5.08547306060791 -0.01590919680893421
18.05217933654785 -5.041605472564697 -0.015889065340161324
18.040279388427734 -4.997948169708252 -0.015869244933128357
18.045673370361328 -4.957958698272705 -0.015896353870630264
18.0438175201416 -4.917200565338135 -0.015885669738054276
18.033926010131836 -4.874324321746826 -0.015868067741394043
18.025775909423828 -4.830825328826904 -0.015820147469639778
18.019868850708008 -4.789183616638184 -0.01580633968114853
18.01995849609375 -4.7491936683654785 -0.015797598287463188
18.02286148071289 -4.70880651473999 -0.015791375190019608
18.42341423034668 -4.772638320922852 -0.016136672347784042
18.090656280517578 -4.6452202796936035 -0.01583184488117695
18.073835372924805 -4.600942611694336 -0.015809813514351845
18.066226959228516 -4.559104919433594 -0.01579573191702366
18.051490783691406 -4.5143914222717285 -0.015774274244904518
18.04949188232422 -4.474113464355469 -0.015764368698000908
18.061931610107422 -4.396540641784668 -0.0157590564340353
18.034372329711914 -4.3502092361450195 -0.016828004270792007
18.47488021850586 -4.333748817443848 -0.017248054966330528
18.49628257751465 -4.2566680908203125 -0.01724865660071373
18.962234497070312 -4.32248592376709 -0.01767793670296669
23.776527404785156 -4.845732688903809 -0.022057445719838142
21.08266258239746 -4.157545566558838 -0.01952839083969593
21.077987670898438 -4.019129753112793 -0.02077377401292324
21.197235107421875 -3.996297597885132 -0.020883994176983833
21.351543426513672 -3.978175163269043 -0.02102806605398655
23.425342559814453 -4.264038562774658 -0.023057684302330017
23.387556076049805 -4.205563545227051 -0.023011604323983192
23.353313446044922 -4.149394989013672 -0.023008186370134354
23.317394256591797 -4.093114852905273 -0.022964153438806534
23.299457550048828 -4.038679122924805 -0.022937985137104988
23.27372169494629 -3.9844868183135986 -0.02290455624461174
23.236669540405273 -3.928488254547119 -0.022860027849674225
23.201269149780273 -3.8715806007385254 -0.02281682938337326
23.174421310424805 -3.8176870346069336 -0.024177653715014458
23.13907241821289 -3.7611098289489746 -0.021308887749910355
23.100133895874023 -3.7055933475494385 -0.02126583456993103
23.070579528808594 -3.6517608165740967 -0.02123168483376503
22.996307373046875 -3.5407965183258057 -0.022531071677803993
22.94865608215332 -3.4847230911254883 -0.0224771648645401
22.93256378173828 -3.432176351547241 -0.022454265505075455
22.918106079101562 -3.3814029693603516 -0.02243291586637497
22.880342483520508 -3.3272926807403564 -0.022389305755496025
22.84836196899414 -3.2728543281555176 -0.02235116809606552
22.799541473388672 -3.2175912857055664 -0.022296540439128876
22.76087188720703 -3.16255784034729 -0.02225215546786785
22.724153518676758 -3.109402656555176 -0.02224740944802761
22.718292236328125 -3.0605480670928955 -0.02223561517894268
22.68720245361328 -3.0070669651031494 -0.022198930382728577
22.628114700317383 -2.9514660835266113 -0.02213471755385399
22.56446647644043 -2.799013137817383 -0.023405209183692932
22.488676071166992 -2.6461684703826904 -0.023308629170060158
22.429014205932617 -2.4962596893310547 -0.021852711215615273
22.216388702392578 -1.9549229145050049 -0.021632304415106773
22.209583282470703 -1.9065577983856201 -0.02162160724401474
22.160715103149414 -1.8083800077438354 -0.02288680151104927
22.141475677490234 -1.760563850402832 -0.022862914949655533
22.134971618652344 -1.7137929201126099 -0.022852806374430656
22.093822479248047 -1.6631709337234497 -0.022806312888860703
22.081003189086914 -1.6161308288574219 -0.022789616137742996
22.043041229248047 -1.5660185813903809 -0.022746780887246132
22.008893966674805 -1.5176960229873657 -0.02270813100039959
22.011430740356445 -1.4719822406768799 -0.02274412102997303
22.00258445739746 -1.424184799194336 -0.022731786593794823
21.97197914123535 -1.3764225244522095 -0.022697027772665024
21.96105194091797 -1.329991340637207 -0.021303748711943626
21.9202938079834 -1.2805306911468506 -0.021261345595121384
21.92379379272461 -1.2350890636444092 -0.02129862830042839
21.88050079345703 -1.1870688199996948 -0.022554965689778328
21.85975456237793 -1.139149785041809 -0.022531406953930855
21.84955406188965 -1.0931578874588013 -0.02251831442117691
21.828990936279297 -1.045385718345642 -0.02249475196003914
21.810869216918945 -0.9991565942764282 -0.02247382141649723
21.777265548706055 -0.9523344039916992 -0.022437121719121933
21.763456344604492 -0.9051542282104492 -0.022420834749937057
21.7561092376709 -0.8596261739730835 -0.022411571815609932
21.71952247619629 -0.8130415678024292 -0.022371817380189896
21.713197708129883 -0.7663590908050537 -0.022363482043147087
21.688257217407227 -0.7204186916351318 -0.02233617566525936
21.666215896606445 -0.6283524036407471 -0.02231055125594139
21.630414962768555 -0.582391619682312 -0.022308386862277985
21.605716705322266 -0.49067968130111694 -0.023563645780086517
21.5899658203125 -0.4454616606235504 -0.02354530431330204
21.582950592041016 -0.35442641377449036 -0.023535791784524918
21.537273406982422 -0.21825535595417023 -0.02344823069870472
21.494165420532227 -0.08268584311008453 -0.023399878293275833
26.48636817932129 0.008039155974984169 0.18774791061878204
26.43813705444336 0.06450260430574417 0.1874065399169922
26.393600463867188 0.11916649341583252 0.18709222972393036
26.368959426879883 0.1738213300704956 0.186919704079628
26.320831298828125 0.284317284822464 0.18658530712127686
26.03217887878418 0.7724213600158691 0.18310706317424774
25.86871910095215 1.039475917816162 0.18198050558567047
25.753841400146484 1.1986016035079956 0.1812225729227066
25.68668556213379 1.2489017248153687 0.18076811730861664
25.54505729675293 1.3498737812042236 0.17981047928333282
25.483016967773438 1.3996310234069824 0.17939400672912598
25.40984344482422 1.502971887588501 0.17741014063358307
25.332233428955078 1.5511410236358643 0.1768910139799118
25.288288116455078 1.601174235343933 0.17656469345092773
25.298810958862305 1.6560665369033813 0.17666195333003998
25.191974639892578 1.701582431793213 0.17594076693058014
25.151479721069336 1.7528294324874878 0.17726454138755798
25.124319076538086 1.8033353090286255 0.17709864675998688
25.05354118347168 1.8505218029022217 0.17513565719127655
25.027549743652344 1.902367115020752 0.17498183250427246
24.977291107177734 1.950687289237976 0.17465834319591522
24.926441192626953 1.9987671375274658 0.17433135211467743
24.907323837280273 2.050793409347534 0.17422829568386078
24.84852409362793 2.0978760719299316 0.17384670674800873
24.844751358032227 2.14953351020813 0.17385099828243256
24.78063201904297 2.1972880363464355 0.17343482375144958
24.755075454711914 2.2468068599700928 0.1732882857322693
24.716415405273438 2.2965433597564697 0.1730102300643921
24.674673080444336 2.3443222045898438 0.1727520376443863
24.6258487701416 2.3912994861602783 0.17244474589824677
24.58799171447754 2.4406137466430664 0.1722157895565033
24.536996841430664 2.486983299255371 0.17189468443393707
24.51885414123535 2.5366010665893555 0.1718040108680725
24.4672908782959 2.584064245223999 0.1714809685945511
24.429109573364258 2.631303548812866 0.16979269683361053
24.348583221435547 2.726409435272217 0.16931162774562836
24.30443000793457 2.7725460529327393 0.16904418170452118
24.241960525512695 2.868891954421997 0.16869191825389862
24.198060989379883 2.914669990539551 0.1684694141149521
24.10625457763672 3.006617784500122 0.1679171919822693
24.077503204345703 3.0538289546966553 0.16776041686534882
23.987957000732422 3.145134687423706 0.16722805798053741
23.8637752532959 3.2815821170806885 0.16650287806987762
23.759632110595703 3.4196276664733887 0.16445784270763397
23.661165237426758 3.5574252605438232 0.16392800211906433
23.566267013549805 3.6447136402130127 0.16337591409683228
23.532602310180664 3.6909573078155518 0.16319650411605835
23.460243225097656 3.7794787883758545 0.16280227899551392
23.433534622192383 3.8265116214752197 0.16267335414886475
23.368505477905273 3.917001962661743 0.16233523190021515
23.319229125976562 3.9585111141204834 0.1620500534772873
23.24344253540039 4.0464277267456055 0.16027957201004028
23.215234756469727 4.0911712646484375 0.16014355421066284
23.170082092285156 4.132848262786865 0.1598910540342331
23.167484283447266 4.1834306716918945 0.15993407368659973
23.117658615112305 4.223989009857178 0.15965041518211365
23.06610107421875 4.264092445373535 0.1593555063009262
23.045085906982422 4.311099529266357 0.15927362442016602
22.999923706054688 4.352069854736328 0.1590244174003601
22.923084259033203 4.388272762298584 0.1585579812526703
22.856412887573242 4.424699306488037 0.15816032886505127
22.85101890563965 4.472872257232666 0.15680432319641113
22.828275680541992 4.519076824188232 0.15667469799518585
22.79399299621582 4.561466217041016 0.15650491416454315
22.81830596923828 4.615640640258789 0.1567360758781433
22.738021850585938 4.649944305419922 0.15625353157520294
22.645610809326172 4.680025577545166 0.15568633377552032
22.46866798400879 4.692137241363525 0.1545361429452896
22.333797454833984 4.713746070861816 0.15367718040943146
22.1771297454834 4.728812217712402 0.1526665836572647
22.021480560302734 4.744788646697998 0.15166471898555756
21.844058990478516 4.754016876220703 0.15051087737083435
21.69635772705078 4.769089698791504 0.14956052601337433
21.541048049926758 4.783175468444824 0.14856021106243134
21.384883880615234 4.795085906982422 0.14628839492797852
21.251630783081055 4.811585426330566 0.14544539153575897
21.128068923950195 4.831042766571045 0.1446700245141983
20.972190856933594 4.841219425201416 0.1436711996793747
20.703725814819336 4.8711748123168945 0.1419713795185089
20.581329345703125 4.887511253356934 0.13994647562503815
20.168550491333008 4.9236321449279785 0.1373475342988968
19.788354873657227 4.962836742401123 0.13493338227272034
19.165056228637695 5.020939350128174 0.13103556632995605
18.8316593170166 5.060317039489746 0.12897059321403503
18.608457565307617 5.084463119506836 0.12758706510066986
18.487285614013672 5.0926079750061035 0.12682870030403137
18.264467239379883 5.114081382751465 0.12435354292392731
18.15387725830078 5.124928951263428 0.12367480248212814
18.031824111938477 5.130898475646973 0.12291533499956131
17.93316650390625 5.143110275268555 0.1223156675696373
17.829696655273438 5.15464973449707 0.1216842383146286
17.72171974182129 5.1633076667785645 0.12102045863866806
17.61022186279297 5.171660423278809 0.12033451348543167
17.498098373413086 5.178199768066406 0.11964242905378342
17.390487670898438 5.185659885406494 0.11897943913936615
17.314083099365234 5.203146934509277 0.11853151768445969
17.19051742553711 5.204933166503906 0.11775964498519897
17.091609954833984 5.213761329650879 0.11715688556432724
16.990598678588867 5.222616195678711 0.11654046922922134
16.90340232849121 5.234230041503906 0.11493584513664246
16.7952880859375 5.239003658294678 0.11427512019872665
16.718408584594727 5.254206657409668 0.11382725089788437
16.606700897216797 5.2569899559021 0.11314095556735992
16.51036262512207 5.265324592590332 0.11256130784749985
16.41476058959961 5.272388458251953 0.11198341846466064
16.343412399291992 5.286942005157471 0.11157073080539703
16.247676849365234 5.294310092926025 0.1109945997595787
16.161239624023438 5.303267478942871 0.11047905683517456
16.05165672302246 5.304261684417725 0.10980525612831116
15.955366134643555 5.310245513916016 0.10928133130073547
15.8812837600708 5.322251796722412 0.10884837061166763
15.798920631408691 5.331142902374268 0.1083601713180542
15.701177597045898 5.335519313812256 0.10776731371879578
15.622051239013672 5.344848155975342 0.10727276653051376
15.468986511230469 5.365327835083008 0.10637534409761429
15.358304023742676 5.362699031829834 0.10569065064191818
15.206027030944824 5.381451606750488 0.10479752719402313
14.972369194030762 5.404940128326416 0.10341877490282059
14.728693962097168 5.421875 0.10103799402713776
14.489194869995117 5.437383651733398 0.09962775558233261
14.1066312789917 5.463440895080566 0.09736134856939316
14.039405822753906 5.471895217895508 0.0970287099480629
13.894368171691895 5.481929302215576 0.09618178755044937
13.830937385559082 5.491049766540527 0.0958244726061821
13.740456581115723 5.4881911277771 0.09527698159217834
13.67495059967041 5.494959831237793 0.0949011892080307
13.622762680053711 5.507791519165039 0.09461972117424011
13.541752815246582 5.507788181304932 0.09413748234510422
13.471735954284668 5.512852668762207 0.09373192489147186
13.412565231323242 5.521161079406738 0.09339942783117294
13.331751823425293 5.520303726196289 0.092917300760746
13.260201454162598 5.523863315582275 0.09250008314847946
13.186186790466309 5.52517032623291 0.09206391125917435
13.12435245513916 5.531332969665527 0.09171204268932343
13.069570541381836 5.5411272048950195 0.09141115844249725
13.002095222473145 5.544405460357666 0.09099578857421875
12.954376220703125 5.556766510009766 0.09074394404888153
12.87522029876709 5.5544753074646 0.09027064591646194
12.818242073059082 5.561500549316406 0.0899517759680748
12.758686065673828 5.568050384521484 0.089616559445858
12.700331687927246 5.5739874839782715 0.08928770571947098
12.625021934509277 5.572235107421875 0.08883986622095108
12.582817077636719 5.585729122161865 0.08862593024969101
12.498496055603027 5.579373836517334 0.08730241656303406
12.454659461975098 5.590855121612549 0.08793294429779053
12.373876571655273 5.586357116699219 0.08744707703590393
12.327482223510742 5.596262454986572 0.0872010663151741
12.267157554626465 5.600488662719727 0.08685853332281113
12.200910568237305 5.600870132446289 0.08647239953279495
12.145190238952637 5.605860233306885 0.08615906536579132
12.087647438049316 5.610629081726074 0.08583544939756393
12.034164428710938 5.616211891174316 0.08553804457187653
11.982488632202148 5.622406959533691 0.08525406569242477
11.915261268615723 5.621926784515381 0.08483856916427612
11.876649856567383 5.633896350860596 0.0846467837691307
11.819286346435547 5.636761665344238 0.08432033658027649
11.750053405761719 5.634559631347656 0.083913154900074
11.710392951965332 5.6454854011535645 0.08371218293905258
11.597965240478516 5.6515793800354 0.08231264352798462
11.534488677978516 5.650322437286377 0.08194557577371597
11.439804077148438 5.663802623748779 0.08144015073776245
11.268774032592773 5.667609691619873 0.08047551661729813
11.134269714355469 5.687943458557129 0.08127369731664658
10.959768295288086 5.685961723327637 0.08026004582643509
10.872396469116211 5.698873043060303 0.07979480922222137
10.830106735229492 5.706207275390625 0.07957302033901215
10.732378959655762 5.711773872375488 0.07902880012989044
10.665047645568848 5.705186367034912 0.07862250506877899
10.627253532409668 5.713388919830322 0.07843160629272461
10.572999000549316 5.712534427642822 0.07811817526817322
10.531970977783203 5.719443321228027 0.07790551334619522
10.486673355102539 5.723079681396484 0.0776582658290863
10.44316577911377 5.727493762969971 0.07740378379821777
10.396543502807617 5.730824947357178 0.07714755088090897
10.352961540222168 5.73486852645874 0.07621020823717117
10.300765037536621 5.7347235679626465 0.07661601901054382
10.25235652923584 5.735674858093262 0.07564687728881836
10.197178840637207 5.7326459884643555 0.07532740384340286
10.152207374572754 5.735917091369629 0.07508576661348343
10.121478080749512 5.746318340301514 0.07494671642780304
10.089099884033203 5.755654811859131 0.07479489594697952
10.035245895385742 5.753358364105225 0.07448624074459076
9.986554145812988 5.7530341148376465 0.07560138404369354
9.932512283325195 5.750173091888428 0.07528488337993622
9.89652156829834 5.756792068481445 0.07510276138782501
9.849928855895996 5.757101535797119 0.07483921200037003
9.821979522705078 5.768928050994873 0.07472044229507446
9.760761260986328 5.760247707366943 0.07434596866369247
9.744091987609863 5.777729034423828 0.07430966198444366
9.680655479431152 5.7680792808532715 0.07391974329948425
9.655414581298828 5.780246257781982 0.07381798326969147
9.59393310546875 5.770517826080322 0.07343947142362595
9.553919792175293 5.774257659912109 0.07322824001312256
9.515238761901855 5.777894496917725 0.07302339375019073
9.492252349853516 5.791704177856445 0.07294121384620667
9.428046226501465 5.7794342041015625 0.0725400298833847
9.403729438781738 5.791409492492676 0.07244495302438736
9.348252296447754 5.784802436828613 0.07209448516368866
9.302309036254883 5.7831244468688965 0.07185110449790955
9.285717964172363 5.799561500549316 0.071796715259552
9.24285888671875 5.800255298614502 0.0715612918138504
9.18882942199707 5.7929840087890625 0.07123593986034393
9.165650367736816 5.804986476898193 0.07114949077367783
9.086738586425781 5.808770656585693 0.07072612643241882
9.00988483428955 5.813235282897949 0.07160910218954086
8.959972381591797 5.807401657104492 0.07130768895149231
8.88473129272461 5.811915397644043 0.07090345025062561
8.775132179260254 5.819321155548096 0.07031957060098648
8.673216819763184 5.830568313598633 0.0697949007153511
8.590408325195312 5.827576637268066 0.06930802017450333
8.56019401550293 5.833056926727295 0.06916183233261108
8.515138626098633 5.82900857925415 0.06828568875789642
8.487020492553711 5.835683822631836 0.06815735995769501
8.464728355407715 5.847006320953369 0.06807779520750046
8.426605224609375 5.846560955047607 0.06786904484033585
8.384611129760742 5.843237400054932 0.06762833893299103
8.340432167053223 5.838937759399414 0.06737294048070908
8.311366081237793 5.844348907470703 0.06723547726869583
8.271195411682129 5.841790676116943 0.06700875610113144
8.257772445678711 5.85876989364624 0.0670003741979599
8.226479530334473 5.862290859222412 0.0668448805809021
8.18025016784668 5.854981422424316 0.06656859070062637
8.156946182250977 5.864673614501953 0.06768996268510818
8.10611343383789 5.853702068328857 0.06736905127763748
8.084280967712402 5.864232063293457 0.0672912523150444
8.033473014831543 5.852879047393799 0.06696965545415878
8.015674591064453 5.865413188934326 0.06692247837781906
7.9892497062683105 5.872303009033203 0.06680583953857422
7.954899787902832 5.872541427612305 0.06662071496248245
7.917548656463623 5.870391845703125 0.06640995293855667
7.899181842803955 5.882945537567139 0.06636093556880951
7.856879234313965 5.876848220825195 0.06610779464244843
7.836559772491455 5.887777805328369 0.06604288518428802
7.79404354095459 5.88117790222168 0.06578721106052399
7.77500057220459 5.892189979553223 0.06572921574115753
7.725667953491211 5.880807399749756 0.06541832536458969
7.705528259277344 5.890793800354004 0.06535129249095917
7.67350959777832 5.891587257385254 0.06518307328224182
7.658912658691406 5.906407833099365 0.06516554206609726
7.612358093261719 5.895759105682373 0.0648578405380249
7.582086563110352 5.897526264190674 0.06470434367656708
7.549598693847656 5.898184776306152 0.06453423202037811
7.538213729858398 5.914523601531982 0.06454142928123474
7.462055206298828 5.9057087898254395 0.06353756785392761
7.427912712097168 5.9037981033325195 0.06391417235136032
7.359349250793457 5.900045394897461 0.06411337852478027
7.347891807556152 5.915950775146484 0.064119853079319
7.295628070831299 5.924686431884766 0.06388077884912491
7.244015693664551 5.907761096954346 0.06353631615638733
7.222599506378174 5.9160308837890625 0.06345946341753006
7.194667339324951 5.918143272399902 0.06332127004861832
7.134184837341309 5.918941020965576 0.06300780922174454
7.121617794036865 5.933509349822998 0.06300516426563263
7.044168472290039 5.919416904449463 0.06254084408283234
7.023401737213135 5.927590847015381 0.06246801093220711
6.978731155395508 5.939681053161621 0.06228978559374809
6.942210674285889 5.934196949005127 0.06207667663693428
6.912026882171631 5.933284759521484 0.0619167685508728
6.894748687744141 5.943347930908203 0.061872199177742004
6.859694957733154 5.9387006759643555 0.06167161092162132
6.84237813949585 5.948616027832031 0.06162668392062187
6.800516128540039 5.937045097351074 0.06136059761047363
6.787164688110352 5.950986862182617 0.06135403364896774
6.749433517456055 5.942723751068115 0.06112496927380562
6.7237372398376465 5.945625305175781 0.061539314687252045
6.703997611999512 5.953026294708252 0.061471596360206604
6.6773834228515625 5.954222679138184 0.0613410510122776
6.64445686340332 5.9503703117370605 0.06115509942173958
6.617375373840332 5.950929641723633 0.06101946905255318
6.595157146453857 5.955750465393066 0.06092836335301399
6.576145648956299 5.964115142822266 0.06087024137377739
6.54210901260376 5.958056449890137 0.06066963076591492
6.531770706176758 5.973484516143799 0.06068829074501991
6.4922637939453125 5.962872505187988 0.060439497232437134
6.474022388458252 5.97093391418457 0.060384973883628845
6.443609714508057 5.968388557434082 0.060219548642635345
6.416562557220459 5.968143939971924 0.06008286774158478
6.390728950500488 5.968899726867676 0.059957295656204224
6.3727850914001465 5.977659225463867 0.059907976537942886
6.330536365509033 5.962794780731201 0.05962749198079109
6.323323726654053 5.980813026428223 0.05967618152499199
6.28165340423584 5.966856002807617 0.059403304010629654
6.261765956878662 5.972752571105957 0.05933218449354172
6.242978572845459 5.980334281921387 0.05927443876862526
6.223923683166504 5.986918926239014 0.059211861342191696
6.1920952796936035 5.981091499328613 0.0590272918343544
6.1778669357299805 5.992891311645508 0.058998484164476395
6.154547214508057 5.9951300621032715 0.05889438837766647
6.127157211303711 5.993280410766602 0.05876611918210983
6.095407962799072 5.987757682800293 0.058583859354257584
6.073030471801758 5.9905900955200195 0.05848846212029457
6.0520195960998535 5.994694232940674 0.05840573459863663
6.038583278656006 6.006996154785156 0.05839932709932327
5.992535591125488 5.9859819412231445 0.0580744594335556
5.9564208984375 6.000234603881836 0.057968489825725555
5.918028354644775 5.986354827880859 0.05771632120013237
5.889590740203857 6.007987022399902 0.05768444016575813
5.851202011108398 5.993656635284424 0.05743085592985153
5.840738773345947 6.008564472198486 0.05745398625731468
5.804269790649414 5.995892524719238 0.0572173036634922
5.78143835067749 5.997161865234375 0.0571151077747345
5.767457962036133 6.008294582366943 0.05710369721055031
5.7486796379089355 6.0136613845825195 0.05704062432050705
5.69875955581665 6.011927127838135 0.0567963607609272
5.676783561706543 6.013689041137695 0.056701138615608215
5.623588562011719 6.007823944091797 0.056422434747219086
5.61086893081665 6.01993989944458 0.05642338842153549
5.59014368057251 6.022733211517334 0.05634055659174919
5.5659661293029785 6.021698951721191 0.05623633787035942
5.546618461608887 6.026523590087891 0.056170858442783356
5.530832290649414 6.034475803375244 0.05613783374428749
5.484256744384766 6.008645057678223 0.05579214543104172
5.486241340637207 6.036667823791504 0.05594269931316376
5.460055828094482 6.032961368560791 0.055803168565034866
5.432250499725342 6.027332305908203 0.05563359707593918
5.409745693206787 6.028205871582031 0.05553452670574188
5.396744728088379 6.038882732391357 0.05552908033132553
5.370954513549805 6.035904884338379 0.055396609008312225
5.346712589263916 6.033849716186523 0.05527584254741669
5.335882186889648 6.046862602233887 0.05529307201504707
5.309032917022705 6.042383670806885 0.05514846369624138
5.290267467498779 6.0463056564331055 0.05508410930633545
5.268714904785156 6.046948432922363 0.054990220814943314
5.25458288192749 6.056804180145264 0.05497737601399422
5.229302883148193 6.052995681762695 0.0548444427549839
5.200809001922607 6.045327186584473 0.05467705428600311
5.181612014770508 6.049102783203125 0.05461123213171959
5.158823490142822 6.047856330871582 0.05450277030467987
5.134721755981445 6.045690536499023 0.0543847531080246
5.11384391784668 6.046514987945557 0.05429638922214508
5.105929851531982 6.062628746032715 0.054345738142728806
5.079824447631836 6.057828426361084 0.054205071181058884
5.073550701141357 6.075932502746582 0.054755717515945435
5.039275169372559 6.060404300689697 0.05452181398868561
5.025737762451172 6.070456027984619 0.05451488494873047
4.998854160308838 6.063556671142578 0.05436035990715027
4.984011173248291 6.0719122886657715 0.054339732974767685
4.958876609802246 6.066940784454346 0.054202787578105927
4.937778949737549 6.066778182983398 0.05410965159535408
4.918832302093506 6.069940090179443 0.0540442056953907
4.898515224456787 6.0705790519714355 0.05395904555916786
4.878932952880859 6.072051525115967 0.053881920874118805
4.857421875 6.071798801422119 0.05378766357898712
4.839547634124756 6.075257301330566 0.053729116916656494
4.823113918304443 6.080477714538574 0.053686801344156265
4.7920145988464355 6.067849636077881 0.05348487198352814
4.77499532699585 6.072163105010986 0.05343538522720337
4.746283054351807 6.088245868682861 0.0534004308283329
4.711744785308838 6.069877624511719 0.053154099732637405
4.6973490715026855 6.078094005584717 0.05313744768500328
4.677517414093018 6.078461647033691 0.053055617958307266
4.671877384185791 6.097270488739014 0.05313488095998764
4.640247821807861 6.08286190032959 0.052923236042261124
4.612584590911865 6.072690963745117 0.05275139585137367
4.59583044052124 6.076772212982178 0.052703697234392166
4.591440677642822 6.098000526428223 0.0528021901845932
4.561495304107666 6.084465503692627 0.05305454507470131
4.551802158355713 6.098615646362305 0.05309271439909935
4.5355353355407715 6.10322380065918 0.05305059999227524
4.512014865875244 6.097965717315674 0.052923765033483505
4.494843482971191 6.101978302001953 0.05287504568696022
4.4835286140441895 6.113142967224121 0.052890319377183914
4.448681354522705 6.092859268188477 0.052633289247751236
4.437400817871094 6.103987216949463 0.05264979973435402
4.412855625152588 6.096785068511963 0.05250858515501022
4.404365062713623 6.112483024597168 0.05256233736872673
4.384645462036133 6.111838340759277 0.05247817188501358
4.351683139801025 6.092545509338379 0.052235689014196396
4.336392879486084 6.098641872406006 0.05220809951424599
4.3328728675842285 6.120545387268066 0.052318017929792404
4.308262825012207 6.112642288208008 0.05217429995536804
4.289228916168213 6.113327503204346 0.0521017350256443
4.266225337982178 6.107458114624023 0.05197635665535927
4.262082099914551 6.129354953765869 0.05208481475710869
4.23506498336792 6.1175689697265625 0.05191032588481903
4.218003749847412 6.120022773742676 0.05185685306787491
4.197005748748779 6.117482662200928 0.051758717745542526
4.182072639465332 6.122914791107178 0.05173110589385033
4.161399841308594 6.11987829208374 0.05163270980119705
4.151625633239746 6.13364315032959 0.0516861230134964
4.132168769836426 6.132272720336914 0.05160180851817131
4.110475063323975 6.1274800300598145 0.05148978531360626
4.088309288024902 6.1226677894592285 0.05137621983885765
4.078347682952881 6.135279655456543 0.05141080915927887
4.051815032958984 6.123678207397461 0.051241062581539154
4.044435501098633 6.140199184417725 0.051745228469371796
4.003819465637207 6.106082439422607 0.051387887448072433
4.006157398223877 6.138204097747803 0.05158580467104912
3.982250690460205 6.129326343536377 0.0514414943754673
3.9721872806549072 6.141696929931641 0.05147620663046837
3.9389994144439697 6.119008541107178 0.051215752959251404
3.931365728378296 6.1350860595703125 0.05128168314695358
3.89481782913208 6.134772777557373 0.05114157125353813
3.8776988983154297 6.13591194152832 0.05108378827571869
3.86959171295166 6.152146339416504 0.051149770617485046
3.845705032348633 6.142415523529053 0.05100276321172714
3.8266761302948 6.140316486358643 0.05091935023665428
3.7998037338256836 6.126313209533691 0.050735678523778915
3.794306516647339 6.14588737487793 0.050832513719797134
3.757660150527954 6.1442670822143555 0.050687581300735474
3.7389094829559326 6.142208576202393 0.05103319138288498
3.729741096496582 6.1567206382751465 0.051087211817502975
3.7053234577178955 6.145153999328613 0.05092742294073105
3.697324275970459 6.160763263702393 0.0509929284453392
3.6783287525177 6.158892631530762 0.05091249942779541
3.6663756370544434 6.1679182052612305 0.050924062728881836
3.638406991958618 6.149886608123779 0.05071260780096054
3.6291911602020264 6.164320945739746 0.05076739937067032
3.6012837886810303 6.146055698394775 0.05055612698197365
3.591827154159546 6.159184455871582 0.05060238763689995
3.5729944705963135 6.157077789306641 0.05052221938967705
3.55486798286438 6.155229568481445 0.05044645071029663
3.541382312774658 6.162238121032715 0.05044138431549072
3.532564163208008 6.176527976989746 0.05049806833267212
3.5102851390838623 6.167235851287842 0.05036253482103348
3.4965102672576904 6.1736741065979 0.05035415664315224
3.4768450260162354 6.168770790100098 0.050255194306373596
3.4677958488464355 6.183535575866699 0.05031513422727585
3.4483487606048584 6.178903579711914 0.0506388396024704
3.4386541843414307 6.1916913986206055 0.05068497732281685
3.4050352573394775 6.16213321685791 0.0503837987780571
3.398106336593628 6.179854393005371 0.05047037824988365
3.3831536769866943 6.183016777038574 0.050439007580280304
3.3593177795410156 6.170722007751465 0.05028058588504791
3.346176862716675 6.177074432373047 0.05069221556186676
3.3302338123321533 6.178221702575684 0.050656553357839584
6.904313564300537 -12.114782333374023 0.12156646698713303
6.998016357421875 -12.101710319519043 0.12187430262565613
7.514011383056641 -12.098176002502441 0.12331608682870865
7.61178731918335 -12.08542251586914 0.12367117404937744
7.688793659210205 -12.094433784484863 0.12409387528896332
7.720076560974121 -12.088162422180176 0.12419362366199493
7.784404277801514 -12.076467514038086 0.12440918385982513
7.823633670806885 -12.082193374633789 0.12463510781526566
7.880378723144531 -12.058213233947754 0.12472888082265854
7.917981147766113 -12.05946159362793 0.1249164342880249
7.956213474273682 -12.063053131103516 0.12512429058551788
7.981173515319824 -12.046387672424316 0.12512297928333282
8.032146453857422 -12.067300796508789 0.1255183070898056
8.056845664978027 -12.05007553100586 0.1255127340555191
8.101152420043945 -12.062094688415527 0.125812828540802
8.12748908996582 -12.045675277709961 0.1258220672607422
8.153824806213379 -12.030739784240723 0.12584270536899567
8.203756332397461 -12.04895305633545 0.126216322183609
8.22941780090332 -12.032892227172852 0.12622633576393127
8.263175010681152 -12.028558731079102 0.12636075913906097
8.337660789489746 -12.028179168701172 0.1267244517803192
8.37585735321045 -12.029842376708984 0.12692497670650482
8.441085815429688 -12.015300750732422 0.12714532017707825
8.553936004638672 -12.014644622802734 0.1277051419019699
8.657694816589355 -11.99998950958252 0.12812533974647522
8.767919540405273 -11.993144035339355 0.1286384016275406
9.33885669708252 -11.964296340942383 0.13049301505088806
9.55538272857666 -11.929378509521484 0.131412073969841
9.594597816467285 -11.926076889038086 0.13160106539726257
9.634522438049316 -11.924908638000488 0.13180869817733765
9.680107116699219 -11.930595397949219 0.13209350407123566
9.713114738464355 -11.919188499450684 0.13219615817070007
9.753331184387207 -11.91790771484375 0.132406547665596
9.791516304016113 -11.91403579711914 0.13258878886699677
9.839128494262695 -11.920007705688477 0.13288897275924683
9.872544288635254 -11.91002082824707 0.13300564885139465
9.903712272644043 -11.89584732055664 0.13308323919773102
9.990473747253418 -11.8992338180542 0.1335841417312622
10.031659126281738 -11.896631240844727 0.13379479944705963
10.070626258850098 -11.892634391784668 0.1339849978685379
10.11025619506836 -11.88931655883789 0.13418351113796234
10.151719093322754 -11.88656997680664 0.13439686596393585
10.18320083618164 -11.873409271240234 0.13446031510829926
10.27057933807373 -11.873771667480469 0.13495294749736786
10.390625953674316 -11.860986709594727 0.13554783165454865
10.424492835998535 -11.849942207336426 0.13566824793815613
10.51183032989502 -11.848230361938477 0.13615448772907257
10.63976764678955 -11.841635704040527 0.13589975237846375
11.465670585632324 -11.780766487121582 0.1403091847896576
11.546006202697754 -11.763779640197754 0.14068475365638733
11.597546577453613 -11.76734447479248 0.1410149335861206
11.685758590698242 -11.757392883300781 0.14148427546024323
11.743684768676758 -11.765339851379395 0.14188136160373688
11.78386402130127 -11.756658554077148 0.1420714557170868
11.826756477355957 -11.750579833984375 0.14229419827461243
11.875814437866211 -11.749054908752441 0.14258235692977905
11.92381763458252 -11.747642517089844 0.14286546409130096
11.966171264648438 -11.740531921386719 0.14305265247821808
12.022493362426758 -11.745532989501953 0.14342600107192993
12.054336547851562 -11.72780990600586 0.1435147374868393
12.104705810546875 -11.728017807006836 0.14382438361644745
12.154614448547363 -11.726176261901855 0.14411978423595428
12.213337898254395 -11.733953475952148 0.1445266455411911
12.237516403198242 -11.707053184509277 0.14451661705970764
