VERSION .7
FIELDS x y z
SIZE 4 4 4
TYPE F F F
COUNT 1 1 1
WIDTH 843
HEIGHT 1
VIEWPOINT 0 0 0 1 0 0 0
POINTS 843
DATA ascii
6.374151229858398 7.799430847167969 0.07986550033092499
6.3528032302856445 7.806314468383789 0.07975029945373535
6.31280517578125 7.790188789367676 0.07946893572807312
6.301821231842041 7.810627460479736 0.07949469238519669
6.268163204193115 7.801985740661621 0.07927767187356949
6.242820739746094 7.80361270904541 0.07915088534355164
6.228009223937988 7.819223403930664 0.07912768423557281
6.203328609466553 7.821487903594971 0.0790066048502922
6.152927398681641 7.79207181930542 0.0785750299692154
6.136128902435303 7.804041385650635 0.07855463773012161
6.110630035400391 7.8048906326293945 0.07839752733707428
6.081472873687744 7.801928997039795 0.0782351866364479
6.064660549163818 7.813747882843018 0.07817360013723373
6.041007041931152 7.816768169403076 0.07807954400777817
6.010677337646484 7.8118977546691895 0.0778777003288269
5.994512557983398 7.824430465698242 0.07785268127918243
5.957759857177734 7.810036659240723 0.0776035264134407
5.934485912322998 7.814027309417725 0.0774700790643692
5.90665340423584 7.810980796813965 0.07732653617858887
5.891983509063721 7.825342655181885 0.07728896290063858
5.862127304077148 7.820340633392334 0.07712661474943161
5.837921619415283 7.821817874908447 0.07698721438646317
5.803508281707764 7.810462951660156 0.07676974684000015
5.798962116241455 7.838268756866455 0.07685809582471848
5.76077938079834 7.820610523223877 0.07659206539392471
5.744381427764893 7.833277702331543 0.07653193920850754
5.714595317840576 7.826666831970215 0.07637113332748413
5.690546035766602 7.827846527099609 0.07621759921312332
5.667324542999268 7.830962181091309 0.07613391429185867
5.644836902618408 7.834066390991211 0.07604421675205231
5.610713958740234 7.82188606262207 0.0757865384221077
5.5889058113098145 7.825721263885498 0.07570162415504456
5.5624871253967285 7.823064804077148 0.07553467154502869
5.550355434417725 7.841357707977295 0.07557887583971024
5.505930423736572 7.812926292419434 0.0751814991235733
5.492854595184326 7.828885555267334 0.07521487027406693
5.4754815101623535 7.83962869644165 0.07516208291053772
5.452185153961182 7.840886116027832 0.07505593448877335
5.410191059112549 7.815104961395264 0.07469329982995987
5.406376361846924 7.8452911376953125 0.07484308630228043
5.345460891723633 7.826278209686279 0.07442193478345871
5.322190284729004 7.827999114990234 0.07429397106170654
5.278442859649658 7.834412574768066 0.07303024083375931
5.248147487640381 7.824437618255615 0.07283374667167664
5.204075813293457 7.8298115730285645 0.07264090329408646
5.187025547027588 7.83939790725708 0.07317179441452026
5.1385178565979 7.837613582611084 0.0729181095957756
5.117532253265381 7.841043472290039 0.07280094921588898
5.072662353515625 7.844273567199707 0.07263905555009842
5.00942325592041 7.854332447052002 0.07236890494823456
4.95596981048584 7.843183517456055 0.07203837484121323
4.933784008026123 7.844135761260986 0.07194405049085617
4.894787311553955 7.855284214019775 0.07182317972183228
4.863067150115967 7.840646266937256 0.07157127559185028
4.8232269287109375 7.84996223449707 0.07143445312976837
4.803552150726318 7.854502201080322 0.07136312872171402
4.77405309677124 7.843800067901611 0.07115652412176132
4.761218070983887 7.8593902587890625 0.07119598239660263
4.744294166564941 7.868315696716309 0.07115275412797928
4.716897964477539 7.86074161529541 0.07099063694477081
4.685119152069092 7.844699859619141 0.07073710858821869
4.6765947341918945 7.867467403411865 0.07084240019321442
4.647759437561035 7.857058048248291 0.07063708454370499
4.628076076507568 7.8610310554504395 0.07057195156812668
4.597327709197998 7.845998764038086 0.07034160941839218
4.583588600158691 7.860935688018799 0.07036793231964111
4.5591840744018555 7.856571197509766 0.0702158510684967
4.547694206237793 7.874366283416748 0.07027286291122437
4.516044616699219 7.858214855194092 0.07005740702152252
4.492871284484863 7.855647087097168 0.06991376727819443
4.47566032409668 7.8644232749938965 0.06990332901477814
4.458285331726074 7.871915817260742 0.0698496624827385
4.4365553855896 7.8715972900390625 0.06976740807294846
4.411454677581787 7.866233825683594 0.06960088759660721
4.392329216003418 7.87043571472168 0.06956075876951218
4.370769023895264 7.870138168334961 0.06943938136100769
4.352856636047363 7.877485275268555 0.06942159682512283
4.334239959716797 7.882390975952148 0.06934067606925964
4.299280643463135 7.857388973236084 0.06906908005475998
4.281863689422607 7.865412712097168 0.06901414692401886
4.263362884521484 7.870276927947998 0.06897980719804764
21.798524856567383 0.005431202705949545 0.16099868714809418
21.789541244506836 0.05075601488351822 0.16095411777496338
21.76888656616211 0.09588301926851273 0.1607879251241684
21.779207229614258 0.1423458606004715 0.16081549227237701
21.716594696044922 0.2784740924835205 0.16030354797840118
21.721845626831055 0.36882442235946655 0.15910470485687256
21.40401840209961 1.7599618434906006 0.1544772833585739
21.392101287841797 1.8497140407562256 0.15430280566215515
21.390491485595703 1.8943042755126953 0.1532382369041443
21.375438690185547 1.9837325811386108 0.15316680073738098
21.367868423461914 2.0277631282806396 0.15302519500255585
21.354970932006836 2.1173205375671387 0.15297284722328186
21.326202392578125 2.1591684818267822 0.15280020236968994
21.307628631591797 2.24798321723938 0.15279941260814667
20.757884979248047 3.7917566299438477 0.14710618555545807
20.725500106811523 3.8303027153015137 0.14692741632461548
20.654279708862305 3.907166004180908 0.14657601714134216
20.644258499145508 3.9496612548828125 0.14641429483890533
20.579418182373047 4.027170658111572 0.14491459727287292
20.549678802490234 4.065646171569824 0.14476479589939117
20.517066955566406 4.149057865142822 0.14452141523361206
20.433746337890625 4.266092300415039 0.14401836693286896
19.642356872558594 5.588118076324463 0.13747000694274902
19.591716766357422 5.663005352020264 0.13605335354804993
19.569034576416016 5.700477600097656 0.13598766922950745
19.521520614624023 5.775936603546143 0.1356334239244461
19.4986572265625 5.813205242156982 0.1355573832988739
19.451793670654297 5.888545513153076 0.13518960773944855
19.358749389648438 5.993484973907471 0.13315732777118683
18.20438575744629 7.094133377075195 0.12032584846019745
17.89583396911621 7.103801250457764 0.11848610639572144
17.693288803100586 7.109801292419434 0.11623065173625946
17.612472534179688 7.119812488555908 0.11569167673587799
17.429311752319336 7.131312847137451 0.11458491533994675
17.317453384399414 7.12753438949585 0.11386518180370331
17.126195907592773 7.133307456970215 0.1117214560508728
16.853960037231445 7.144580841064453 0.1101284772157669
14.428897857666016 7.257131099700928 0.09140601754188538
14.222861289978027 7.265892028808594 0.08938001096248627
14.01827335357666 7.272863388061523 0.08829966932535172
13.873112678527832 7.2718658447265625 0.08751583099365234
13.824727058410645 7.283114910125732 0.08723148703575134
13.694549560546875 7.288378715515137 0.0856165885925293
13.620818138122559 7.285450458526611 0.0852801501750946
13.498384475708008 7.293241024017334 0.08462018519639969
13.309720039367676 7.299774169921875 0.08276648074388504
11.600563049316406 7.382011413574219 0.07087771594524384
11.4619779586792 7.395466327667236 0.06941434741020203
11.304342269897461 7.394820690155029 0.06792309880256653
11.202254295349121 7.395590305328369 0.06743645668029785
11.154487609863281 7.397338390350342 0.06722437590360641
11.062431335449219 7.403554916381836 0.06678715348243713
11.027892112731934 7.413620948791504 0.0659015104174614
10.94224739074707 7.42314338684082 0.06550848484039307
10.792542457580566 7.421084880828857 0.0647834986448288
10.637490272521973 7.413390636444092 0.0633586123585701
9.497303009033203 7.484583854675293 0.05490830913186073
9.376957893371582 7.485780239105225 0.05438634008169174
9.25493335723877 7.484110355377197 0.05321796238422394
9.150814056396484 7.495546340942383 0.0527859702706337
9.074277877807617 7.4969329833984375 0.05250415578484535
9.039407730102539 7.4997406005859375 0.051686763763427734
8.96781063079834 7.504327297210693 0.05140996724367142
8.925827980041504 7.500743865966797 0.05121901258826256
8.859209060668945 7.5086445808410645 0.05095120519399643
8.813834190368652 7.501672744750977 0.05013902485370636
8.760140419006348 7.519820213317871 0.049933601170778275
8.647584915161133 7.518137454986572 0.049466587603092194
7.833611965179443 7.567708969116211 0.04394073784351349
7.730350971221924 7.562480449676514 0.04416725039482117
7.636033535003662 7.5647406578063965 0.04320669174194336
7.541562557220459 7.5656819343566895 0.042279526591300964
7.48491096496582 7.57236385345459 0.0420968160033226
7.46009635925293 7.5786519050598145 0.041990384459495544
7.441049098968506 7.5907464027404785 0.04196019470691681
7.396529197692871 7.577645301818848 0.04178750142455101
7.379413604736328 7.591562747955322 0.04111175239086151
7.309191703796387 7.582958221435547 0.040863122791051865
7.279679298400879 7.583774089813232 0.04078041762113571
7.219563961029053 7.584829330444336 0.04053850099444389
7.189621448516846 7.584829807281494 0.04046887904405594
7.096634864807129 7.581629276275635 0.0395389050245285
6.368405342102051 7.627614974975586 0.03547532111406326
6.2852702140808105 7.624970436096191 0.034641534090042114
6.205434799194336 7.625341892242432 0.034397125244140625
6.173844337463379 7.6187639236450195 0.03427567705512047
6.157516002655029 7.631829738616943 0.03366609662771225
6.1255340576171875 7.624569416046143 0.03354445844888687
6.09070348739624 7.613520622253418 0.03344695642590523
6.071953296661377 7.623410701751709 0.03339478373527527
6.057062149047852 7.637182712554932 0.03338855877518654
6.0131378173828125 7.61420202255249 0.03320767730474472
5.9946064949035645 7.6241655349731445 0.03259406238794327
5.978463649749756 7.636194229125977 0.032587550580501556
5.952412128448486 7.635509967803955 0.03248545527458191
5.892856597900391 7.625125885009766 0.0323057547211647
5.8793230056762695 7.641237735748291 0.0322771891951561
5.819767475128174 7.629199981689453 0.03155920282006264
5.746732711791992 7.633399486541748 0.031333569437265396
5.6741790771484375 7.636467456817627 0.030584990978240967
5.602522373199463 7.639891147613525 0.03039121814072132
5.529693126678467 7.64084529876709 0.029637103900313377
5.179524898529053 7.653335094451904 0.027088075876235962
5.1046037673950195 7.645745277404785 0.026362188160419464
5.089738368988037 7.657905101776123 0.026360511779785156
5.035110950469971 7.645301818847656 0.026181573048233986
5.017859935760498 7.6536993980407715 0.02617448754608631
4.999701976776123 7.661586761474609 0.025601010769605637
4.977575302124023 7.662376403808594 0.025538813322782516
4.94641637802124 7.649172306060791 0.02543051540851593
4.926739692687988 7.654494762420654 0.02541465312242508
4.910686492919922 7.664454460144043 0.025359857827425003
4.884735107421875 7.658955097198486 0.02527914196252823
4.852033615112305 7.643587589263916 0.02520701289176941
4.842944622039795 7.664374351501465 0.024684665724635124
4.817424774169922 7.6591997146606445 0.024593815207481384
4.791632175445557 7.654363632202148 0.024560077115893364
4.768484592437744 7.652714252471924 0.024480529129505157
4.743671894073486 7.64918851852417 0.02444334514439106
4.7188591957092285 7.644551753997803 0.02436371147632599
4.705821990966797 7.659006595611572 0.023822613060474396
4.678414344787598 7.650934219360352 0.023769106715917587
4.638509750366211 7.657951354980469 0.02366265468299389
4.6183085441589355 7.660428524017334 0.023636657744646072
4.5710577964782715 7.654777526855469 0.022984864190220833
4.555163383483887 7.664247512817383 0.022984864190220833
4.5050225257873535 7.653085231781006 0.02282894402742386
4.487826347351074 7.660191059112549 0.02282126061618328
4.421216011047363 7.656447410583496 0.02213980257511139
7.17456579208374 -9.989316940307617 0.06335493177175522
8.941874504089355 -9.869351387023926 0.07705428451299667
9.048171997070312 -9.86136531829834 0.07828519493341446
9.157394409179688 -9.855310440063477 0.0787455290555954
9.33896541595459 -9.841477394104004 0.08033071458339691
9.444925308227539 -9.82864761352539 0.08080051094293594
10.79565143585205 -9.738378524780273 0.08961349725723267
10.96352481842041 -9.724778175354004 0.09042301774024963
11.048295021057129 -9.717143058776855 0.0916895642876625
11.101272583007812 -9.722951889038086 0.09198836982250214
11.186300277709961 -9.71448040008545 0.09241270273923874
11.265552520751953 -9.700383186340332 0.09279531985521317
11.311975479125977 -9.699548721313477 0.09306357800960541
11.442852973937988 -9.687612533569336 0.09454454481601715
11.590389251708984 -9.688089370727539 0.09535657614469528
13.177519798278809 -9.54670524597168 0.10449564456939697
13.223288536071777 -9.538081169128418 0.10476874560117722
13.323616027832031 -9.525403022766113 0.10525964945554733
13.389015197753906 -9.530234336853027 0.10565924644470215
13.490236282348633 -9.516940116882324 0.10619428753852844
13.538861274719238 -9.509225845336914 0.10648791491985321
13.589584350585938 -9.501564025878906 0.10672415792942047
13.632027626037598 -9.489182472229004 0.10691773891448975
13.683980941772461 -9.48325252532959 0.10724170506000519
13.810535430908203 -9.485109329223633 0.10795772820711136
13.859171867370605 -9.476177215576172 0.10915233939886093
13.969733238220215 -9.465753555297852 0.10976159572601318
14.147435188293457 -9.456937789916992 0.11074678599834442
14.303921699523926 -9.431910514831543 0.11159957945346832
14.486490249633789 -9.422163009643555 0.11259160935878754
15.766902923583984 -9.293169021606445 0.12193401902914047
15.843367576599121 -9.292766571044922 0.12235486507415771
15.971273422241211 -9.278837203979492 0.1231141909956932
16.034408569335938 -9.2698335647583 0.1234525591135025
16.166988372802734 -9.257095336914062 0.12425403296947479
16.248567581176758 -9.257844924926758 0.1246926411986351
16.30112075805664 -9.24295711517334 0.12503814697265625
16.358612060546875 -9.230746269226074 0.12535081803798676
16.442358016967773 -9.231823921203613 0.1269785612821579
16.50910758972168 -9.22421932220459 0.12733618915081024
16.561384201049805 -9.207136154174805 0.1276087909936905
16.614316940307617 -9.191404342651367 0.12795424461364746
16.710777282714844 -9.199529647827148 0.1285284161567688
16.778249740600586 -9.19010066986084 0.12888796627521515
16.850496292114258 -9.184188842773438 0.12935249507427216
16.92951774597168 -9.181741714477539 0.12980744242668152
17.006732940673828 -9.176733016967773 0.130247101187706
17.057836532592773 -9.158578872680664 0.13057076930999756
17.2110595703125 -9.147677421569824 0.13144585490226746
17.280893325805664 -9.138853073120117 0.13302665948867798
17.422391891479492 -9.119998931884766 0.13382244110107422
17.520875930786133 -9.12527847290039 0.13448616862297058
17.7324275970459 -9.094202995300293 0.13574275374412537
19.084728240966797 -8.9422025680542 0.14516600966453552
19.175058364868164 -8.936046600341797 0.14689843356609344
19.349428176879883 -8.918313980102539 0.14795060455799103
19.43212127685547 -8.907584190368652 0.14852085709571838
19.6053466796875 -8.887264251708984 0.14955779910087585
19.700836181640625 -8.88131332397461 0.150218203663826
19.787200927734375 -8.86943531036377 0.15073814988136292
19.877601623535156 -8.860464096069336 0.1512792706489563
19.963661193847656 -8.849210739135742 0.15178827941417694
20.064617156982422 -8.842726707458496 0.15249745547771454
20.245994567871094 -8.822410583496094 0.15358154475688934
20.344829559326172 -8.813897132873535 0.15418246388435364
20.433883666992188 -8.802159309387207 0.15481752157211304
20.532756805419922 -8.79279613494873 0.1553906351327896
20.627178192138672 -8.782620429992676 0.15597185492515564
20.731035232543945 -8.776065826416016 0.156608447432518
20.825305938720703 -8.763561248779297 0.15726803243160248
20.910388946533203 -8.748331069946289 0.15778881311416626
20.923538208007812 -8.702771186828613 0.15781381726264954
20.93738555908203 -8.656197547912598 0.15786516666412354
20.961252212524414 -8.6151762008667 0.15805774927139282
20.99462890625 -8.577922821044922 0.15955200791358948
21.026887893676758 -8.538818359375 0.1610335260629654
21.049388885498047 -8.497113227844238 0.16114918887615204
21.059106826782227 -8.44876480102539 0.16124752163887024
21.113662719726562 -8.368998527526855 0.16154754161834717
21.18075180053711 -8.241896629333496 0.16198250651359558
21.217164993286133 -8.153349876403809 0.16218799352645874
21.262279510498047 -8.017646789550781 0.1624893844127655
21.310949325561523 -7.883335113525391 0.16282358765602112
21.3515682220459 -7.79629373550415 0.16304683685302734
21.4163818359375 -7.667720317840576 0.16353970766067505
21.471782684326172 -7.535606861114502 0.1639603078365326
21.47470474243164 -7.4852399826049805 0.16659070551395416
21.515907287597656 -7.449468612670898 0.1668369024991989
21.517047882080078 -7.399895668029785 0.16685998439788818
21.53957748413086 -7.356319427490234 0.16699975728988647
21.55971908569336 -7.313180446624756 0.16713522374629974
21.623729705810547 -7.23349142074585 0.16766881942749023
21.632678985595703 -7.186605453491211 0.1677362322807312
21.63336181640625 -7.135651111602783 0.16774985194206238
21.63331413269043 -7.085793972015381 0.167750284075737
21.6627254486084 -7.045683860778809 0.16806979477405548
21.702388763427734 -7.007452011108398 0.16831494867801666
21.720186233520508 -6.963362693786621 0.16843461990356445
21.709596633911133 -6.908956527709961 0.1683967262506485
21.745838165283203 -6.870728015899658 0.16863909363746643
21.742778778076172 -6.820168972015381 0.16864392161369324
21.753917694091797 -6.77275276184082 0.16881392896175385
21.76983642578125 -6.728085041046143 0.1689460575580597
21.815139770507812 -6.69252347946167 0.16927245259284973
21.828773498535156 -6.645819187164307 0.16939890384674072
21.839874267578125 -6.599608421325684 0.16949860751628876
21.85687828063965 -6.555277347564697 0.16963142156600952
21.8786678314209 -6.510903835296631 0.169888436794281
21.88959312438965 -6.4647369384765625 0.16999176144599915
21.92046546936035 -6.4230780601501465 0.17152047157287598
21.939924240112305 -6.379268169403076 0.1729855239391327
21.929231643676758 -6.326833724975586 0.17293591797351837
21.992555618286133 -6.294243812561035 0.17211243510246277
21.9727725982666 -6.2392778396606445 0.17201320827007294
22.007734298706055 -6.1998820304870605 0.17239049077033997
22.016679763793945 -6.151666641235352 0.17247232794761658
22.027509689331055 -6.105441570281982 0.17261022329330444
22.055870056152344 -6.064043998718262 0.17284303903579712
22.07982635498047 -6.019927501678467 0.17304813861846924
22.100788116455078 -5.976397514343262 0.1732158213853836
22.139381408691406 -5.886889934539795 0.17357651889324188
22.167530059814453 -5.845147609710693 0.17382532358169556
22.16652488708496 -5.794266223907471 0.17389577627182007
22.208301544189453 -5.755977153778076 0.17431753873825073
22.229265213012695 -5.712208271026611 0.17452093958854675
22.25200653076172 -5.667405128479004 0.17472201585769653
22.260896682739258 -5.6205034255981445 0.17484638094902039
22.279741287231445 -5.57465934753418 0.17503611743450165
22.299734115600586 -5.530513286590576 0.1752288043498993
22.329370498657227 -5.488701343536377 0.17549481987953186
22.39325714111328 -5.404501914978027 0.17616665363311768
22.364286422729492 -5.3483076095581055 0.17735765874385834
22.3928279876709 -5.30470085144043 0.17761141061782837
22.481895446777344 -5.227236747741699 0.17836245894432068
22.49213409423828 -5.179111003875732 0.1785029172897339
21.965068817138672 -5.009771347045898 0.16656571626663208
21.926773071289062 -4.951784133911133 0.16623280942440033
21.863712310791016 -4.8898797035217285 0.16571244597434998
21.83075714111328 -4.834878444671631 0.16550478339195251
21.869876861572266 -4.794638156890869 0.1656762957572937
21.8686466217041 -4.746826648712158 0.1655009686946869
21.849822998046875 -4.695200443267822 0.16530835628509521
21.862085342407227 -4.649082183837891 0.16543614864349365
21.874155044555664 -4.556755065917969 0.1658492237329483
21.854660034179688 -4.504087448120117 0.16566094756126404
22.37461280822754 -4.562747955322266 0.17586815357208252
22.352153778076172 -4.460317611694336 0.1756051778793335
21.835298538208008 -4.310000419616699 0.1633007824420929
21.83570671081543 -4.261719703674316 0.16309157013893127
21.82586669921875 -4.212719440460205 0.1628226935863495
21.813186645507812 -4.163337707519531 0.16270945966243744
21.81856346130371 -4.116156101226807 0.1627746820449829
21.851612091064453 -4.027164936065674 0.1644890159368515
21.83930206298828 -3.978053331375122 0.16438913345336914
21.831369400024414 -3.929736614227295 0.1643751859664917
21.834352493286133 -3.8822195529937744 0.16423027217388153
21.83255958557129 -3.7884087562561035 0.16305872797966003
21.875629425048828 -3.6543679237365723 0.16375623643398285
21.857961654663086 -3.6035215854644775 0.16321706771850586
21.79236602783203 -3.4985005855560303 0.16202983260154724
21.774185180664062 -3.3553075790405273 0.16176030039787292
21.781280517578125 -3.2162721157073975 0.16167455911636353
21.787527084350586 -3.077362060546875 0.16261816024780273
21.84088706970215 -2.991222620010376 0.16339632868766785
21.83609390258789 -2.9443278312683105 0.16225622594356537
22.25389862060547 -2.9052672386169434 0.1723095327615738
22.239423751831055 -2.856452226638794 0.1721697747707367
21.850704193115234 -2.7130558490753174 0.16316495835781097
21.86290740966797 -2.668513536453247 0.1632028967142105
21.83994483947754 -2.5724103450775146 0.16296535730361938
21.872617721557617 -2.530250072479248 0.16318413615226746
21.856006622314453 -2.4810245037078857 0.16340583562850952
21.862157821655273 -2.4357807636260986 0.16343802213668823
21.896512985229492 -2.39361310005188 0.16429172456264496
22.201627731323242 -2.378965377807617 0.17146749794483185
22.182056427001953 -2.330317974090576 0.16999846696853638
22.18682289123535 -2.284165859222412 0.16998602449893951
22.16847038269043 -2.2345404624938965 0.1698170155286789
22.189680099487305 -2.1901726722717285 0.1699075996875763
22.185569763183594 -2.1419217586517334 0.16983292996883392
22.157306671142578 -2.0927927494049072 0.1696072816848755
22.15244483947754 -2.045961856842041 0.16951517760753632
22.139968872070312 -1.997119665145874 0.16940927505493164
22.13385772705078 -1.9502708911895752 0.1693045198917389
22.130290985107422 -1.8560675382614136 0.16796289384365082
22.132610321044922 -1.8100175857543945 0.16792844235897064
22.125938415527344 -1.7156987190246582 0.16779662668704987
22.139915466308594 -1.6705689430236816 0.16785965859889984
22.1229248046875 -1.575616717338562 0.16768592596054077
22.097246170043945 -1.4342267513275146 0.1661735624074936
21.986127853393555 -0.7328531742095947 0.163654625415802
21.936412811279297 -0.5931638479232788 0.16330470144748688
21.91355323791504 -0.4547044336795807 0.163097083568573
21.84815788269043 -0.31584376096725464 0.16260233521461487
21.8648681640625 -0.2707030475139618 0.16153329610824585
21.843503952026367 -0.22387941181659698 0.16137830913066864
21.84061050415039 -0.17841282486915588 0.16133733093738556
21.82658576965332 -0.13300135731697083 0.1612541228532791
21.82213020324707 -0.08646566420793533 0.1611735075712204
21.803970336914062 -0.041036222130060196 0.16107407212257385
26.26233673095703 0.004940197337418795 0.41019290685653687
26.23990249633789 0.11544415354728699 0.4098525643348694
26.205957412719727 0.16981032490730286 0.40789270401000977
26.192447662353516 0.27990755438804626 0.407747745513916
26.220247268676758 0.33475592732429504 0.40820008516311646
26.123228073120117 0.7178075313568115 0.40667468309402466
26.079505920410156 0.770901083946228 0.40600937604904175
26.042970657348633 0.8239161372184753 0.40402528643608093
26.05034637451172 0.933983325958252 0.40413492918014526
26.02743911743164 0.9872477650642395 0.40383630990982056
25.99165153503418 1.0955283641815186 0.4034186005592346
25.982250213623047 1.1491507291793823 0.4031536877155304
25.58152961730957 2.7525744438171387 0.3938210606575012
25.55060386657715 2.9118459224700928 0.39360466599464417
25.512189865112305 3.0700552463531494 0.39326798915863037
25.495807647705078 3.177067995071411 0.39177724719047546
25.475799560546875 3.2282769680023193 0.3915611803531647
25.479598999023438 3.3378448486328125 0.39163732528686523
25.447811126708984 3.38741135597229 0.3912564516067505
25.435373306274414 3.4948346614837646 0.39128515124320984
25.438095092773438 3.549009084701538 0.3914135992527008
24.456132888793945 5.15886116027832 0.377132773399353
24.386354446411133 5.30448579788208 0.37638023495674133
24.304588317871094 5.446943759918213 0.37409472465515137
24.239112854003906 5.539581298828125 0.3734606206417084
24.21537971496582 5.587057590484619 0.37324225902557373
24.144588470458984 5.677926063537598 0.3724055886268616
22.792644500732422 7.2660064697265625 0.3506108522415161
22.63873863220215 7.3740410804748535 0.34837374091148376
22.56618881225586 7.507646560668945 0.3459058105945587
22.478404998779297 7.583731651306152 0.3446633219718933
22.416595458984375 7.614726543426514 0.3438110947608948
17.845518112182617 7.741580963134766 0.2762327194213867
17.55084991455078 7.745211601257324 0.2723314166069031
17.271390914916992 7.751971244812012 0.26745927333831787
17.069759368896484 7.748006820678711 0.26482507586479187
14.088951110839844 7.803384780883789 0.22057892382144928
13.780041694641113 7.822444438934326 0.21583345532417297
13.571223258972168 7.8171210289001465 0.2123824656009674
13.381114959716797 7.8200578689575195 0.21002958714962006
11.505696296691895 7.875311374664307 0.1830914467573166
11.336638450622559 7.864709377288818 0.1811092495918274
11.192105293273926 7.86912202835083 0.17873536050319672
11.11115550994873 7.882339954376221 0.17789334058761597
10.965007781982422 7.88275146484375 0.17628751695156097
10.821171760559082 7.883003234863281 0.17387507855892181
10.67403507232666 7.8790059089660645 0.1722530722618103
9.485847473144531 7.903432846069336 0.1560165286064148
9.377893447875977 7.913895606994629 0.15428988635540009
9.255925178527832 7.911128520965576 0.15300606191158295
9.149426460266113 7.92017936706543 0.1512605845928192
9.076732635498047 7.924366474151611 0.1505568027496338
9.035497665405273 7.921469688415527 0.15014716982841492
8.966116905212402 7.92767333984375 0.14880071580410004
8.849766731262207 7.924483776092529 0.14763154089450836
8.734186172485352 7.920485496520996 0.14578434824943542
8.634666442871094 7.929727554321289 0.14485511183738708
7.700316429138184 7.954653739929199 0.13421109318733215
7.607019901275635 7.9577789306640625 0.13272878527641296
7.523680686950684 7.970314025878906 0.13204896450042725
7.4552764892578125 7.964781284332275 0.13077610731124878
7.420821666717529 7.961020469665527 0.1304633468389511
7.360055446624756 7.962802886962891 0.1299397349357605
7.333469867706299 7.967146396636963 0.12970750033855438
7.270354270935059 7.965640544891357 0.1285155564546585
7.239043235778809 7.964466571807861 0.1282283216714859
7.173022270202637 7.958915710449219 0.12760774791240692
7.146682262420654 7.962855339050293 0.12737809121608734
7.099152088165283 7.977227687835693 0.12646755576133728
6.29252290725708 7.96797513961792 0.11783938854932785
6.218443870544434 7.9767656326293945 0.11672850698232651
6.143021583557129 7.983014106750488 0.11616373807191849
6.087950229644775 7.980702877044678 0.11514288932085037
6.057605743408203 7.9752516746521 0.11484622955322266
6.001380920410156 7.97063684463501 0.11434784531593323
5.983022689819336 7.98072624206543 0.11430224031209946
5.949546813964844 7.971436977386475 0.11395712941884995
5.931116104125977 7.9813032150268555 0.11331084370613098
5.903500080108643 7.978673458099365 0.11310205608606339
5.8782572746276855 7.980093955993652 0.11290222406387329
5.844173431396484 7.9684600830078125 0.11256835609674454
5.811796188354492 7.958893775939941 0.11223644763231277
5.794318675994873 7.97059440612793 0.11218328773975372
5.773149013519287 7.976284980773926 0.11151794344186783
5.74552059173584 7.972894668579102 0.1112760454416275
5.728109359741211 7.984578609466553 0.11121302843093872
5.6746110916137695 7.9807538986206055 0.1107952743768692
5.59611177444458 7.97605562210083 0.10961644351482391
5.090465068817139 7.981462478637695 0.10381346195936203
5.012490749359131 7.969270706176758 0.10264314711093903
4.946651458740234 7.975407123565674 0.1022389680147171
4.888177871704102 7.9928765296936035 0.10145404934883118
4.864972114562988 7.992212772369385 0.10128774493932724
4.829090118408203 7.971491813659668 0.10087349265813828
4.818011283874512 7.990573883056641 0.10096916556358337
4.790217876434326 7.981956958770752 0.10069718956947327
4.769620895385742 7.986186981201172 0.10059928894042969
4.746272563934326 7.984752178192139 0.09992155432701111
4.727328777313232 7.991635799407959 0.09983550757169724
4.696010589599609 7.9764204025268555 0.09954167157411575
4.6735453605651855 7.97614049911499 0.09938039630651474
4.64743185043335 7.970494747161865 0.0991571918129921
4.626884937286377 7.973235130310059 0.09905914217233658
4.605861186981201 7.975150108337402 0.09841057658195496
4.587800979614258 7.983142375946045 0.09835007041692734
4.557352066040039 7.968389511108398 0.09805502742528915
4.5428466796875 7.982547760009766 0.09806670993566513
4.518550395965576 7.978325366973877 0.09787000715732574
4.469950199127197 7.970606803894043 0.09698380529880524
4.449803352355957 7.973422050476074 0.09687589854001999
4.411993980407715 7.9845075607299805 0.09673549234867096
4.385781764984131 7.976127624511719 0.0964985191822052
4.34158182144165 7.975109100341797 0.09572012722492218
4.329992294311523 7.993276119232178 0.0957784354686737
7.828662872314453 -9.945531845092773 0.17298957705497742
9.406494140625 -9.830604553222656 0.19194354116916656
9.532047271728516 -9.837261199951172 0.19406893849372864
9.613748550415039 -9.83833122253418 0.19493363797664642
9.707254409790039 -9.809880256652832 0.19568093121051788
9.827231407165527 -9.807039260864258 0.19774749875068665
9.952973365783691 -9.808415412902832 0.19907522201538086
11.479429244995117 -9.677752494812012 0.21748679876327515
11.611955642700195 -9.665253639221191 0.21896353363990784
11.70535945892334 -9.659839630126953 0.22087447345256805
11.760895729064941 -9.664712905883789 0.22158823907375336
11.846809387207031 -9.652017593383789 0.22249986231327057
11.886022567749023 -9.642997741699219 0.22286729514598846
11.970121383666992 -9.627917289733887 0.22373588383197784
12.129828453063965 -9.631416320800781 0.22567705810070038
13.688806533813477 -9.486597061157227 0.2444513738155365
13.863748550415039 -9.479376792907715 0.2465699017047882
13.97823715209961 -9.47269058227539 0.24794387817382812
14.027120590209961 -9.462224960327148 0.24847206473350525
14.094937324523926 -9.465471267700195 0.2493634670972824
14.145662307739258 -9.4557523727417 0.24992136657238007
14.201165199279785 -9.450273513793945 0.2505896985530853
14.252744674682617 -9.441981315612793 0.2511780261993408
14.308988571166992 -9.435322761535645 0.2528471350669861
14.381563186645508 -9.440415382385254 0.2537822425365448
14.433494567871094 -9.431703567504883 0.25434058904647827
14.477907180786133 -9.416651725769043 0.2548612654209137
14.541916847229004 -9.415399551391602 0.2556203305721283
14.611088752746582 -9.417139053344727 0.25654488801956177
14.727004051208496 -9.404373168945312 0.257881224155426
14.912095069885254 -9.391119003295898 0.26019665598869324
15.088443756103516 -9.370149612426758 0.26231908798217773
16.655811309814453 -9.215688705444336 0.283935010433197
16.86247444152832 -9.192051887512207 0.28653573989868164
16.946636199951172 -9.191102027893066 0.2876357436180115
17.016286849975586 -9.18315315246582 0.2885551154613495
17.08162498474121 -9.172693252563477 0.28934454917907715
17.166004180908203 -9.170889854431152 0.2904176414012909
17.236677169799805 -9.162641525268555 0.2924309968948364
17.313457489013672 -9.15615177154541 0.29345351457595825
17.374845504760742 -9.142526626586914 0.29419463872909546
17.462373733520508 -9.14228343963623 0.29539427161216736
17.512577056884766 -9.121033668518066 0.29593896865844727
17.600582122802734 -9.12040901184082 0.2971077859401703
17.677978515625 -9.114027976989746 0.2981623113155365
17.742860794067383 -9.099632263183594 0.29892292618751526
17.812042236328125 -9.088399887084961 0.2997707426548004
17.89153480529785 -9.082213401794434 0.30087047815322876
17.977323532104492 -9.077593803405762 0.3019868731498718
18.062814712524414 -9.073691368103027 0.3030858635902405
18.200668334960938 -9.047151565551758 0.30486249923706055
18.284128189086914 -9.041366577148438 0.30593734979629517
18.436603546142578 -9.020334243774414 0.30910879373550415
18.52129364013672 -9.014182090759277 0.3101988136768341
18.6871395111084 -8.99775505065918 0.31241557002067566
18.75583839416504 -8.982935905456543 0.3132787346839905
18.93380355834961 -8.970337867736816 0.3156646192073822
19.971782684326172 -8.85280990600586 0.33063310384750366
20.22946548461914 -8.815291404724121 0.33404266834259033
20.422513961791992 -8.79865550994873 0.3378879427909851
20.516796112060547 -8.787443161010742 0.3391324281692505
20.70022201538086 -8.763021469116211 0.3416597247123718
20.801372528076172 -8.754982948303223 0.3430210053920746
20.889869689941406 -8.741244316101074 0.34426116943359375
20.98842430114746 -8.729844093322754 0.3455869257450104
21.09020233154297 -8.7208833694458 0.34694933891296387
21.183425903320312 -8.70791244506836 0.3481799364089966
21.27709197998047 -8.6934175491333 0.349434494972229
21.380033493041992 -8.683746337890625 0.35090720653533936
21.459455490112305 -8.664081573486328 0.3519378900527954
21.58806037902832 -8.662505149841309 0.35369208455085754
21.661630630493164 -8.63987922668457 0.35465285181999207
21.777658462524414 -8.632280349731445 0.35630956292152405
21.886451721191406 -8.622893333435059 0.3577897548675537
21.973915100097656 -8.60462760925293 0.3589455187320709
22.08865737915039 -8.595272064208984 0.36048558354377747
22.1784610748291 -8.577263832092285 0.36176252365112305
22.285236358642578 -8.56387710571289 0.3631989061832428
22.407459259033203 -8.557520866394043 0.36489394307136536
22.506622314453125 -8.541828155517578 0.3662254512310028
22.611412048339844 -8.526471138000488 0.367653489112854
22.732511520385742 -8.518296241760254 0.3693983554840088
22.836326599121094 -8.503104209899902 0.3735944926738739
22.963943481445312 -8.494900703430176 0.37539035081863403
23.0690860748291 -8.479413032531738 0.3768137991428375
23.164043426513672 -8.459702491760254 0.3781607449054718
23.306564331054688 -8.45545768737793 0.3801758587360382
23.40216064453125 -8.43513298034668 0.3814670741558075
23.749343872070312 -8.391952514648438 0.38635411858558655
24.097698211669922 -8.345010757446289 0.3911767899990082
24.469528198242188 -8.301870346069336 0.39642319083213806
24.711135864257812 -8.267956733703613 0.3997567594051361
24.833797454833984 -8.251733779907227 0.40153026580810547
25.074169158935547 -8.214509963989258 0.4049123227596283
25.297861099243164 -8.1699800491333 0.40798792243003845
25.356914520263672 -8.130983352661133 0.4088072180747986
25.446969985961914 -8.041831016540527 0.412943571805954
25.45998764038086 -7.986263275146484 0.4130193591117859
25.485942840576172 -7.936350345611572 0.4132609963417053
25.477434158325195 -7.8756422996521 0.4130009114742279
25.512922286987305 -7.8270416259765625 0.4134691059589386
25.551259994506836 -7.780725002288818 0.4139358103275299
25.577373504638672 -7.730714321136475 0.41420745849609375
25.604829788208008 -7.679458141326904 0.4144923686981201
25.64061164855957 -7.632128715515137 0.4149039387702942
25.660846710205078 -7.580219745635986 0.4151049554347992
25.66648292541504 -7.522409439086914 0.4150625169277191
25.710037231445312 -7.477171421051025 0.41571563482284546
25.732608795166016 -7.424254894256592 0.41594699025154114
25.75680160522461 -7.373266696929932 0.4161900281906128
25.785602569580078 -7.323650360107422 0.41652509570121765
25.78915023803711 -7.265263080596924 0.41647249460220337
25.8150691986084 -7.214670658111572 0.41676613688468933
25.83277130126953 -7.161856174468994 0.4170413315296173
25.866979598999023 -7.111871242523193 0.4174436330795288
25.87924575805664 -7.057512283325195 0.41755226254463196
25.90163230895996 -7.005901336669922 0.4177999496459961
25.915691375732422 -6.950325012207031 0.4179217517375946
25.946500778198242 -6.900903224945068 0.41829854249954224
25.969463348388672 -6.849338531494141 0.4185824394226074
26.00269889831543 -6.798726558685303 0.42062556743621826
26.013877868652344 -6.7440056800842285 0.4207318127155304
26.03064727783203 -6.6890411376953125 0.42089006304740906
26.052448272705078 -6.637039661407471 0.42115068435668945
26.082759857177734 -6.58715295791626 0.42153558135032654
26.082408905029297 -6.527824401855469 0.4214599132537842
26.156978607177734 -6.372020244598389 0.422524631023407
26.1705322265625 -6.317820072174072 0.4226868152618408
26.168317794799805 -6.25815486907959 0.4224763810634613
26.194087982177734 -6.206880569458008 0.4228422939777374
26.239133834838867 -6.100961208343506 0.42353659868240356
26.262313842773438 -6.0489325523376465 0.4238489270210266
22.892446517944336 -5.121425628662109 0.3645724058151245
22.88860511779785 -5.069248199462891 0.3643273115158081
22.867307662963867 -5.014772415161133 0.3624846637248993
22.849258422851562 -4.910050392150879 0.3618782162666321
22.844432830810547 -4.859440326690674 0.36127182841300964
22.789691925048828 -4.79830265045166 0.3604311943054199
22.886676788330078 -4.767768859863281 0.3631982207298279
23.509273529052734 -4.846587657928467 0.3828287124633789
23.459821701049805 -4.785538673400879 0.3821057379245758
23.564836502075195 -4.754671573638916 0.3837004601955414
23.549646377563477 -4.70076847076416 0.38349485397338867
23.59108543395996 -4.656658172607422 0.3841869831085205
23.61663246154785 -4.61080265045166 0.3845914602279663
22.994218826293945 -4.439687728881836 0.36370453238487244
22.7740535736084 -4.346816062927246 0.36196911334991455
22.942476272583008 -4.329549312591553 0.3643122911453247
22.873247146606445 -4.267353057861328 0.3614213168621063
22.75172233581543 -4.19448709487915 0.35988572239875793
22.806913375854492 -4.155660629272461 0.36061957478523254
22.86635398864746 -4.116125106811523 0.3614143133163452
22.90216636657715 -4.024430274963379 0.3608909249305725
22.924213409423828 -3.977919816970825 0.3611163794994354
22.66960906982422 -3.885215997695923 0.35746249556541443
22.837459564208984 -3.865213632583618 0.3607523441314697
22.83502960205078 -3.814725875854492 0.359343022108078
22.785804748535156 -3.7578299045562744 0.358558714389801
22.977149963378906 -3.740424633026123 0.36133885383605957
22.681211471557617 -3.594266891479492 0.35573291778564453
22.67563247680664 -3.543823719024658 0.3568447232246399
22.67306900024414 -3.4951577186584473 0.35668960213661194
22.668115615844727 -3.4462509155273438 0.3565085232257843
22.6605167388916 -3.395664691925049 0.35628315806388855
23.95145606994629 -3.333820343017578 0.37495285272598267
24.518075942993164 -3.254267454147339 0.3833047151565552
25.763648986816406 -2.980475664138794 0.4015684723854065
26.634153366088867 -2.911487102508545 0.42619630694389343
26.622390747070312 -2.854306936264038 0.4259621202945709
26.60868263244629 -2.7395389080047607 0.4240969121456146
26.61394691467285 -2.6842782497406006 0.4240582287311554
26.565826416015625 -2.566453456878662 0.4232005476951599
26.564964294433594 -2.510739326477051 0.4231397211551666
26.564424514770508 -2.4534449577331543 0.42301785945892334
26.53834342956543 -2.395504951477051 0.4225553274154663
26.531177520751953 -2.339362144470215 0.4223928451538086
26.522098541259766 -2.2814743518829346 0.422181099653244
26.510347366333008 -2.22505259513855 0.4204183518886566
26.511316299438477 -2.169605255126953 0.42189693450927734
26.522762298583984 -2.113647937774658 0.4204825162887573
26.47260093688965 -2.0543744564056396 0.41970133781433105
26.47014808654785 -1.9987974166870117 0.41958919167518616
26.478410720825195 -1.9426777362823486 0.4196622371673584
26.499685287475586 -1.8889589309692383 0.4199369251728058
26.495187759399414 -1.8317595720291138 0.4198228716850281
26.47423553466797 -1.7751168012619019 0.4194485545158386
26.459522247314453 -1.7188488245010376 0.41912561655044556
26.463703155517578 -1.6624915599822998 0.41900306940078735
26.460783004760742 -1.6071869134902954 0.4187924265861511
26.450531005859375 -1.549858570098877 0.4185868203639984
26.429237365722656 -1.4935832023620605 0.4182012677192688
26.402618408203125 -1.3256229162216187 0.41611331701278687
26.404706954956055 -1.1593631505966187 0.41449934244155884
26.343461990356445 -0.1606578379869461 0.4114852249622345
25.07908821105957 0.009184237569570541 0.31734511256217957
25.06786346435547 0.061200957745313644 0.31717783212661743
25.007295608520508 0.16637180745601654 0.3164716362953186
24.99298858642578 0.21814502775669098 0.3163050413131714
24.951570510864258 0.3228776752948761 0.3145374059677124
24.934917449951172 0.37441712617874146 0.3143457770347595
24.931041717529297 0.4276311993598938 0.31434720754623413
24.94920539855957 0.4797343611717224 0.31464138627052307
24.815933227539062 0.8940266966819763 0.31294581294059753
24.793874740600586 0.9448753595352173 0.31123948097229004
24.760509490966797 0.9964587688446045 0.31088146567344666
24.751157760620117 1.0475335121154785 0.313419371843338
24.738475799560547 1.098550796508789 0.31329551339149475
24.707521438598633 1.1499460935592651 0.3129798471927643
24.697376251220703 1.2009621858596802 0.3128397464752197
24.704072952270508 1.2540714740753174 0.31291553378105164
24.66851806640625 1.303596019744873 0.3125273585319519
24.64887237548828 1.3539775609970093 0.31231504678726196
24.633329391479492 1.4570831060409546 0.310676246881485
24.600502014160156 1.506496787071228 0.3103436827659607
24.593124389648438 1.5586656332015991 0.31036633253097534
24.596845626831055 1.610276699066162 0.3104751706123352
24.582853317260742 1.6619880199432373 0.310179203748703
24.571292877197266 1.7124367952346802 0.31009986996650696
24.544252395629883 1.7618610858917236 0.3098163604736328
24.527713775634766 1.8132292032241821 0.309651643037796
24.50774574279785 1.9141771793365479 0.3081195652484894
24.49980926513672 1.966103196144104 0.30804717540740967
24.44134521484375 2.1161344051361084 0.30735766887664795
24.431535720825195 2.2189865112304688 0.30730295181274414
24.3890380859375 2.3698065280914307 0.31095612049102783
24.369577407836914 2.4715583324432373 0.310837060213089
24.359066009521484 2.5215728282928467 0.31077131628990173
24.33833122253418 2.6230695247650146 0.310507595539093
24.293394088745117 2.8240320682525635 0.3088301718235016
24.24836540222168 3.077122688293457 0.308503657579422
24.224376678466797 3.280122995376587 0.30712127685546875
24.1822452545166 3.327040195465088 0.30659496784210205
24.155702590942383 3.3744800090789795 0.30635395646095276
24.145645141601562 3.4241745471954346 0.30632689595222473
24.133930206298828 3.47512149810791 0.3130779266357422
24.12672233581543 3.525204658508301 0.31307950615882874
24.084442138671875 3.5714728832244873 0.31250983476638794
24.06603240966797 3.619917631149292 0.31239742040634155
24.087629318237305 3.674299478530884 0.3127080202102661
24.04027557373047 3.7196438312530518 0.31083643436431885
23.999345779418945 3.7643227577209473 0.3104217052459717
23.9968204498291 3.816349983215332 0.31034407019615173
23.975915908813477 3.8641738891601562 0.3101605772972107
23.933977127075195 3.9083895683288574 0.3096984326839447
23.844575881958008 3.996959686279297 0.30740436911582947
23.825950622558594 4.044687747955322 0.30724242329597473
23.76222038269043 4.136899948120117 0.30654990673065186
23.697845458984375 4.176379203796387 0.30588167905807495
23.617177963256836 4.264791488647461 0.30510517954826355
23.515657424926758 4.399289131164551 0.3027063012123108
23.440797805786133 4.537986755371094 0.3019455075263977
23.27438735961914 4.811610698699951 0.3071208894252777
23.208436965942383 4.899983882904053 0.30642417073249817
23.178525924682617 4.943934440612793 0.3061656951904297
23.14177703857422 5.038083076477051 0.30459535121917725
23.120458602905273 5.0837178230285645 0.30433031916618347
23.053529739379883 5.170877933502197 0.3037230372428894
23.008628845214844 5.210980415344238 0.30327337980270386
22.982141494750977 5.306831359863281 0.3017326593399048
22.926237106323242 5.344059944152832 0.3011757731437683
22.901588439941406 5.389921188354492 0.3009030222892761
22.856481552124023 5.429388999938965 0.30047136545181274
22.846216201782227 5.477177143096924 0.3004578649997711
22.80143928527832 5.5178608894348145 0.29872918128967285
22.787899017333984 5.56466817855835 0.29858773946762085
22.75080680847168 5.605780124664307 0.3008929491043091
22.729843139648438 5.652029991149902 0.30075275897979736
22.694425582885742 5.693371295928955 0.300325870513916
22.684206008911133 5.740871429443359 0.2989838421344757
22.623754501342773 5.776909351348877 0.2984105944633484
22.599441528320312 5.820799350738525 0.2982250452041626
22.55495262145996 5.860631942749023 0.29770636558532715
22.5518741607666 5.909818172454834 0.29776832461357117
22.461179733276367 5.987253189086914 0.29551538825035095
22.376176834106445 6.115515232086182 0.29476502537727356
22.28155517578125 6.24045467376709 0.29265424609184265
21.732818603515625 6.831723690032959 0.2829606533050537
21.605329513549805 6.941189289093018 0.28132376074790955
21.499935150146484 7.05674409866333 0.27871593832969666
21.42719841003418 7.132967948913574 0.27777597308158875
21.35667610168457 7.158755302429199 0.2769680619239807
21.275598526000977 7.231387138366699 0.2746809720993042
21.269472122192383 7.278675079345703 0.27466365694999695
21.28113555908203 7.332035541534424 0.2747502326965332
21.24882698059082 7.371622085571289 0.27439388632774353
21.181779861450195 7.397741794586182 0.272350937128067
21.15924644470215 7.440526008605957 0.27202901244163513
21.036008834838867 7.446374893188477 0.27063170075416565
20.899911880493164 7.447040557861328 0.26771387457847595
20.768848419189453 7.450283050537109 0.2662312090396881
20.65843391418457 7.459192276000977 0.26371681690216064
20.56903076171875 7.4751973152160645 0.26263219118118286
20.414196014404297 7.468240737915039 0.26087695360183716
20.30672836303711 7.476835250854492 0.2595924735069275
20.164020538330078 7.47184419631958 0.25798356533050537
19.808168411254883 7.483229637145996 0.2527003288269043
19.452804565429688 7.4890594482421875 0.2473592907190323
17.016504287719727 7.55535888671875 0.21346980333328247
16.74309539794922 7.560326099395752 0.21052460372447968
16.57402229309082 7.568173408508301 0.20765449106693268
16.47402000427246 7.563864707946777 0.206599161028862
16.406532287597656 7.574141979217529 0.20584549009799957
16.303274154663086 7.568764686584473 0.20476649701595306
16.220598220825195 7.57133674621582 0.20281493663787842
16.13321876525879 7.57136344909668 0.2019168734550476
16.040206909179688 7.5695672035217285 0.20088785886764526
15.960212707519531 7.572353363037109 0.1970365047454834
15.897454261779785 7.583034992218018 0.1953338384628296
15.80356216430664 7.579731464385986 0.19439241290092468
15.730412483215332 7.584840297698975 0.1935901790857315
15.506476402282715 7.597377777099609 0.19035664200782776
15.256953239440918 7.5944318771362305 0.1868065595626831
13.127323150634766 7.6373820304870605 0.1557130515575409
12.992719650268555 7.632489204406738 0.1544550061225891
12.944279670715332 7.640209197998047 0.15311351418495178
12.837158203125 7.650061130523682 0.15214040875434875
12.756131172180176 7.637691497802734 0.15054377913475037
12.703822135925293 7.643285751342773 0.15005235373973846
12.644216537475586 7.6432061195373535 0.14691676199436188
