VERSION .7
FIELDS x y z
SIZE 4 4 4
TYPE F F F
COUNT 1 1 1
WIDTH 854
HEIGHT 1
VIEWPOINT 0 0 0 1 0 0 0
POINTS 854
DATA ascii
6.5547990798950195 7.887534141540527 0.18192514777183533
6.527608394622803 7.8884453773498535 0.18100464344024658
6.500959873199463 7.890111446380615 0.18034955859184265
6.4731059074401855 7.889609336853027 0.17940756678581238
6.448304653167725 7.89311408996582 0.17893357574939728
6.413599014282227 7.884563446044922 0.1778113842010498
6.3861188888549805 7.8841471672058105 0.17688365280628204
6.364977836608887 7.891861915588379 0.17638170719146729
6.323883056640625 7.8748884201049805 0.17508679628372192
6.303859710693359 7.883408546447754 0.17474186420440674
6.269171714782715 7.8738603591918945 0.17362390458583832
6.243278980255127 7.875419616699219 0.17275334894657135
6.2239274978637695 7.884954452514648 0.17230409383773804
6.192471504211426 7.879266262054443 0.17128175497055054
6.171513557434082 7.886230945587158 0.17091339826583862
6.129636287689209 7.866688251495361 0.1696016788482666
6.107114791870117 7.87202262878418 0.1688297539949417
6.086068153381348 7.8789896965026855 0.16833679378032684
6.0485687255859375 7.86412239074707 0.16714489459991455
6.022458553314209 7.864493370056152 0.16664355993270874
6.003366947174072 7.873748779296875 0.166444331407547
5.971667766571045 7.865975856781006 0.1654151976108551
5.945565223693848 7.8660359382629395 0.1649143397808075
5.920300006866455 7.866886615753174 0.16407015919685364
5.892307281494141 7.863602638244629 0.16314639151096344
5.8647637367248535 7.861390113830566 0.16224431991577148
5.83060359954834 7.8499298095703125 0.1613931953907013
5.816837787628174 7.86605167388916 0.1612362265586853
5.785017013549805 7.857470512390137 0.1602153778076172
5.764317989349365 7.863482475280762 0.1594984233379364
5.7370924949646 7.861111164093018 0.1586100459098816
5.7071638107299805 7.854676246643066 0.15787895023822784
5.680304527282715 7.851923942565918 0.15735319256782532
5.6529130935668945 7.848917007446289 0.15646275877952576
5.6241536140441895 7.843653202056885 0.15553292632102966
5.609474182128906 7.857563018798828 0.15498816967010498
5.574522972106934 7.843585014343262 0.15412427484989166
5.547807693481445 7.840801239013672 0.15360891819000244
5.526343822479248 7.844944000244141 0.15287922322750092
5.501791000366211 7.8452324867248535 0.15207305550575256
5.471549034118652 7.83705472946167 0.151108056306839
5.443994522094727 7.832165718078613 0.1502133011817932
5.422666549682617 7.837152481079102 0.14973407983779907
5.390657901763916 7.82554817199707 0.14906951785087585
5.37299108505249 7.834653854370117 0.1486789584159851
5.341363430023193 7.824318885803223 0.14768767356872559
5.319462776184082 7.827068328857422 0.14695316553115845
5.302403450012207 7.837932586669922 0.1463664472103119
5.2658562660217285 7.818820953369141 0.14580534398555756
5.24338436126709 7.820432186126709 0.14505699276924133
5.225844860076904 7.830384254455566 0.14445984363555908
5.1979146003723145 7.823647975921631 0.14356282353401184
5.175358295440674 7.824878692626953 0.14281536638736725
5.153750419616699 7.828503608703613 0.14210805296897888
5.127994537353516 7.8246870040893555 0.1418449878692627
5.104280471801758 7.8238677978515625 0.14106783270835876
5.078804016113281 7.821278095245361 0.14025560021400452
5.052075386047363 7.815577507019043 0.13939721882343292
5.010534763336182 7.823385238647461 0.13802428543567657
4.98264741897583 7.815506458282471 0.1374792903661728
4.95110559463501 7.802753925323486 0.13672733306884766
4.932888984680176 7.809823036193848 0.13610735535621643
4.917840003967285 7.821900844573975 0.135575532913208
4.886471748352051 7.808981895446777 0.13460826873779297
4.862889766693115 7.807277679443359 0.13384291529655457
4.83758544921875 7.802687644958496 0.13337072730064392
4.812739372253418 7.799769401550293 0.1328061819076538
4.792621612548828 7.8033552169799805 0.13213881850242615
4.76807975769043 7.7996439933776855 0.1315704733133316
4.731799602508545 7.777585029602051 0.13047203421592712
4.725526332855225 7.803696632385254 0.13018794357776642
4.694716453552246 7.789679050445557 0.12957026064395905
4.671915531158447 7.789011001586914 0.12884002923965454
4.644002914428711 7.779025077819824 0.12796242535114288
4.630378723144531 7.793985366821289 0.1277105063199997
4.604006767272949 7.786348342895508 0.1268763542175293
4.5826497077941895 7.787067413330078 0.12618088722229004
4.56082820892334 7.78800106048584 0.12548747658729553
4.536006450653076 7.782607078552246 0.12503091990947723
4.51029109954834 7.7759623527526855 0.12422293424606323
4.487122535705566 7.7738037109375 0.12348899245262146
22.045085906982422 9.188539505004883 0.8107588291168213
21.606691360473633 9.165667533874512 0.7949973344802856
17.229822158813477 8.944507598876953 0.6385917663574219
16.925209045410156 8.921895980834961 0.6282014846801758
16.73078727722168 8.909648895263672 0.6207572221755981
16.64811134338379 8.910017013549805 0.6176740527153015
16.452428817749023 8.894622802734375 0.6113520860671997
16.369243621826172 8.893597602844238 0.6089469194412231
16.183473587036133 8.881144523620605 0.6022924184799194
15.918035507202148 8.86613941192627 0.5926861763000488
13.513278007507324 8.723775863647461 0.5076888799667358
13.331829071044922 8.725866317749023 0.5009730458259583
13.202461242675781 8.720129013061523 0.49651235342025757
13.122882843017578 8.707435607910156 0.4936257004737854
13.050458908081055 8.698440551757812 0.49062058329582214
12.984731674194336 8.694748878479004 0.4884718060493469
12.941970825195312 8.705069541931152 0.48696404695510864
12.861295700073242 8.68962287902832 0.48423463106155396
12.807708740234375 8.69332504272461 0.48291414976119995
12.735139846801758 8.682729721069336 0.48048335313796997
12.675951957702637 8.680961608886719 0.4783603549003601
12.606842041015625 8.67325210571289 0.47608307003974915
12.55677604675293 8.677253723144531 0.4743056297302246
12.365438461303711 8.660392761230469 0.46728140115737915
12.186386108398438 8.649687767028809 0.46073636412620544
12.003425598144531 8.63425064086914 0.4546099901199341
10.56618881225586 8.548188209533691 0.4042511582374573
10.520285606384277 8.547879219055176 0.4023558497428894
10.421035766601562 8.539703369140625 0.39909905195236206
10.382145881652832 8.544553756713867 0.39747774600982666
10.323271751403809 8.532512664794922 0.3959084153175354
10.280372619628906 8.533025741577148 0.39412519335746765
10.227895736694336 8.526019096374512 0.39198848605155945
10.187921524047852 8.529006958007812 0.39163482189178467
10.148470878601074 8.532502174377441 0.3903197646141052
10.091400146484375 8.520328521728516 0.38848626613616943
10.04381275177002 8.516328811645508 0.38653653860092163
10.001516342163086 8.516843795776367 0.3851138949394226
9.948026657104492 8.507384300231934 0.3834261894226074
9.911587715148926 8.511898040771484 0.38190338015556335
9.858622550964355 8.50265884399414 0.38007235527038574
9.824899673461914 8.509605407714844 0.3791467547416687
9.77706527709961 8.503747940063477 0.3771894574165344
9.724942207336426 8.494559288024902 0.3753933906555176
9.674459457397461 8.486333847045898 0.37382054328918457
9.633854866027832 8.486156463623047 0.37214750051498413
9.582730293273926 8.477133750915527 0.3703896999359131
9.552947998046875 8.486602783203125 0.3696180284023285
9.46973705291748 8.484304428100586 0.3662247657775879
9.418487548828125 8.473688125610352 0.3649222254753113
9.324365615844727 8.460331916809082 0.36111488938331604
9.29552936553955 8.469405174255371 0.36021310091018677
8.563544273376465 8.416007995605469 0.3352828621864319
8.446324348449707 8.405841827392578 0.33129996061325073
8.360099792480469 8.390403747558594 0.32857781648635864
8.330096244812012 8.395064353942871 0.3273599445819855
8.2474365234375 8.382068634033203 0.3244944214820862
8.21418285369873 8.382999420166016 0.32343590259552
8.139104843139648 8.376657485961914 0.32130295038223267
8.10889720916748 8.380295753479004 0.32036495208740234
8.06672477722168 8.372427940368652 0.3186945915222168
8.02966022491455 8.368646621704102 0.3172072768211365
7.995808124542236 8.368057250976562 0.31655529141426086
7.951286315917969 8.357131004333496 0.31479412317276
7.93723726272583 8.377108573913574 0.3142206072807312
7.894339561462402 8.36716079711914 0.3125186860561371
7.844532489776611 8.349414825439453 0.31124013662338257
7.82449197769165 8.36279296875 0.3104333281517029
7.7849955558776855 8.355886459350586 0.30886831879615784
7.749252796173096 8.35261058807373 0.3074492812156677
7.709944725036621 8.3449068069458 0.306576132774353
7.691583633422852 8.360795974731445 0.3058616518974304
7.640827178955078 8.340293884277344 0.3038400113582611
7.617467880249023 8.349516868591309 0.30290916562080383
7.576201438903809 8.339996337890625 0.30197593569755554
7.550010681152344 8.34589958190918 0.3009343445301056
7.515251636505127 8.342208862304688 0.29955241084098816
7.476129531860352 8.334516525268555 0.298018217086792
7.445351600646973 8.33493709564209 0.29748016595840454
7.412039756774902 8.33238410949707 0.2961582839488983
7.370572090148926 8.32149600982666 0.29453200101852417
7.342411518096924 8.324442863464355 0.29423943161964417
7.275976657867432 8.319488525390625 0.29189467430114746
7.241058349609375 8.31431770324707 0.2907778322696686
7.175304889678955 8.309216499328613 0.288604736328125
7.136726379394531 8.299701690673828 0.28708451986312866
7.086762428283691 8.311745643615723 0.28540146350860596
7.0425825119018555 8.295136451721191 0.2840604782104492
6.98586893081665 8.298519134521484 0.2821086049079895
6.964130401611328 8.308032989501953 0.281272292137146
6.792092323303223 8.277775764465332 0.27520257234573364
6.709475994110107 8.282730102539062 0.2726575434207916
6.610005855560303 8.265639305114746 0.26917359232902527
6.525073528289795 8.266060829162598 0.26680582761764526
6.469548225402832 8.266443252563477 0.2650502622127533
6.430321216583252 8.252174377441406 0.2635178565979004
6.411295413970947 8.263067245483398 0.2630532681941986
6.37449836730957 8.251348495483398 0.26161685585975647
6.346806526184082 8.251469612121582 0.2609442472457886
6.31523323059082 8.245773315429688 0.2597149908542633
6.291956901550293 8.251206398010254 0.25883543491363525
6.259402275085449 8.244571685791016 0.25782936811447144
6.228446006774902 8.239655494689941 0.25663530826568604
6.196596622467041 8.232983589172363 0.25577786564826965
6.173239707946777 8.238107681274414 0.2549029588699341
6.144377708435059 8.235563278198242 0.25379693508148193
6.1128106117248535 8.229459762573242 0.25283145904541016
6.095658779144287 8.242045402526855 0.2522028684616089
6.067648887634277 8.240300178527832 0.2515130043029785
6.027742385864258 8.222421646118164 0.24995557963848114
6.00515604019165 8.227363586425781 0.2491041123867035
5.976895332336426 8.224847793579102 0.24827133119106293
5.954960823059082 8.231165885925293 0.24746137857437134
5.920965194702148 8.220458030700684 0.24614650011062622
5.898104190826416 8.224655151367188 0.24590516090393066
5.868435859680176 8.219888687133789 0.24501806497573853
5.83787727355957 8.213492393493652 0.2438460737466812
5.808155059814453 8.207691192626953 0.24307331442832947
5.787476539611816 8.215214729309082 0.24231982231140137
5.757267951965332 8.208882331848145 0.2411637008190155
5.735062122344971 8.213423728942871 0.24033519625663757
5.6986236572265625 8.198073387145996 0.23916447162628174
5.677863597869873 8.204906463623047 0.23877480626106262
5.651125907897949 8.203243255615234 0.23777015507221222
5.619606971740723 8.194258689880371 0.23656044900417328
5.594992637634277 8.19477367401123 0.23563367128372192
5.572981834411621 8.19967269897461 0.2348300963640213
5.538962364196777 8.186532974243164 0.23375505208969116
5.5206499099731445 8.196062088012695 0.2334611713886261
5.490821838378906 8.189054489135742 0.23232856392860413
5.461860179901123 8.182948112487793 0.23122867941856384
5.439658164978027 8.186424255371094 0.2304072380065918
5.409294605255127 8.17857837677002 0.2292618453502655
5.384214401245117 8.177489280700684 0.22855530679225922
5.33491849899292 8.17739200592041 0.22709134221076965
5.314752101898193 8.183541297912598 0.22635945677757263
5.258263111114502 8.171695709228516 0.22446462512016296
5.229779243469238 8.1646146774292 0.22337965667247772
5.180915832519531 8.163824081420898 0.22216850519180298
5.15899658203125 8.166696548461914 0.2213646024465561
5.131751537322998 8.162130355834961 0.22035443782806396
5.112270832061768 8.168718338012695 0.21965691447257996
5.083144187927246 8.159783363342285 0.21854567527770996
5.061317443847656 8.163551330566406 0.21835629642009735
5.03792667388916 8.163603782653809 0.2174919843673706
5.015871524810791 8.165732383728027 0.21668586134910583
4.977133750915527 8.14161491394043 0.2151803970336914
4.960113525390625 8.151739120483398 0.2145925760269165
4.937244415283203 8.152202606201172 0.21375279128551483
4.908613204956055 8.14414119720459 0.21268558502197266
4.882241725921631 8.138540267944336 0.21227407455444336
4.837411880493164 8.141338348388672 0.21065707504749298
4.813127517700195 8.138880729675293 0.20975738763809204
4.783661842346191 8.128637313842773 0.20865368843078613
4.768867492675781 8.142106056213379 0.2081683874130249
4.737541198730469 8.12724781036377 0.20731011033058167
4.721203804016113 8.13913345336914 0.20700785517692566
4.696079254150391 8.13466739654541 0.20607230067253113
4.670751094818115 8.129709243774414 0.2053544819355011
4.641059875488281 8.118131637573242 0.20423990488052368
4.622587203979492 8.12490463256836 0.20359748601913452
4.597153186798096 8.11981201171875 0.20265814661979675
4.575273513793945 8.121126174926758 0.2022242397069931
4.5423150062561035 8.10189437866211 0.20094338059425354
4.531517505645752 8.122562408447266 0.20065145194530487
4.505194187164307 8.115620613098145 0.1999015510082245
4.478834629058838 8.107738494873047 0.1989130675792694
4.456269264221191 8.107765197753906 0.19811439514160156
4.439045429229736 8.11628246307373 0.19753210246562958
4.413818359375 8.110089302062988 0.19693541526794434
4.388519287109375 8.104792594909668 0.19601556658744812
4.359598636627197 8.091438293457031 0.1949123591184616
43.598323822021484 0.011656743474304676 1.472745418548584
43.56080627441406 0.10305707156658173 1.4714808464050293
43.534385681152344 0.19498351216316223 1.470598816871643
43.46887969970703 0.46797770261764526 1.4668134450912476
42.98683547973633 2.0884885787963867 1.4517951011657715
42.91157913208008 2.266016960144043 1.4479358196258545
42.875999450683594 2.3543741703033447 1.446897029876709
42.82219696044922 2.531348466873169 1.4454259872436523
42.76246643066406 2.7976927757263184 1.4429733753204346
42.74449920654297 2.8866126537323 1.440950632095337
42.71107482910156 2.9750256538391113 1.44003164768219
42.69639587402344 3.06404972076416 1.4397506713867188
42.66230392456055 3.152223587036133 1.4388223886489868
42.623451232910156 3.328277111053467 1.4369723796844482
42.61316680908203 3.418076753616333 1.4368650913238525
42.57236099243164 3.5953099727630615 1.4343719482421875
42.52805709838867 3.680467367172241 1.4331340789794922
42.50623321533203 3.8589987754821777 1.433548927307129
42.46650695800781 4.124720573425293 1.4314424991607666
42.131446838378906 5.167085647583008 1.4188976287841797
42.07711410522461 5.429133415222168 1.4172005653381348
42.00175476074219 5.688076019287109 1.4142394065856934
41.926456451416016 5.857791423797607 1.411534309387207
41.85143280029297 5.935880661010742 1.4074468612670898
41.797786712646484 6.019384384155273 1.4060771465301514
41.69859313964844 6.093454360961914 1.4031596183776855
41.60022735595703 6.16826868057251 1.3993017673492432
41.529327392578125 6.247462749481201 1.397353172302246
41.481075286865234 6.328261852264404 1.3945794105529785
41.435630798339844 6.41033411026001 1.3935039043426514
41.38288497924805 6.491735458374023 1.3921831846237183
41.33806228637695 6.5736165046691895 1.3901618719100952
41.28083801269531 6.653974533081055 1.3871302604675293
41.232540130615234 6.734008312225342 1.3859708309173584
41.15440368652344 6.899312496185303 1.3833341598510742
41.027950286865234 7.143572807312012 1.3789942264556885
40.85415267944336 7.378226280212402 1.3721448183059692
40.260658264160156 8.324030876159668 1.3493692874908447
40.14487838745117 8.476542472839355 1.3441649675369263
40.108909606933594 8.555929183959961 1.3435559272766113
40.02655029296875 8.714759826660156 1.3395121097564697
39.960567474365234 8.787290573120117 1.3379132747650146
39.91160202026367 8.865949630737305 1.3368972539901733
39.874271392822266 8.944526672363281 1.3337655067443848
39.827720642089844 9.021912574768066 1.3328404426574707
39.76395034790039 9.095836639404297 1.3313498497009277
39.72379684448242 9.173441886901855 1.3290977478027344
39.683807373046875 9.253544807434082 1.3274707794189453
39.62641906738281 9.326910018920898 1.3261878490447998
39.607452392578125 9.410210609436035 1.3246852159500122
39.54054641723633 9.482619285583496 1.3221585750579834
39.36076736450195 9.525930404663086 1.3167799711227417
39.08729934692383 9.546630859375 1.3052527904510498
38.68684387207031 9.535480499267578 1.289727807044983
38.30839920043945 9.526571273803711 1.2762935161590576
37.94098663330078 9.521312713623047 1.2638014554977417
37.57075881958008 9.511322021484375 1.2521288394927979
36.85417175292969 9.495246887207031 1.2272391319274902
36.491310119628906 9.48255443572998 1.2157996892929077
35.502532958984375 9.46427059173584 1.1825648546218872
32.21302032470703 9.39056396484375 1.0717322826385498
31.383995056152344 9.363354682922363 1.0403987169265747
30.839710235595703 9.3425874710083 1.0209176540374756
30.596805572509766 9.338366508483887 1.0135166645050049
30.354080200195312 9.333187103271484 1.0053656101226807
30.101299285888672 9.32589340209961 0.9964685440063477
29.854660034179688 9.317423820495605 0.988201379776001
29.611190795898438 9.310903549194336 0.9796352386474609
29.374343872070312 9.303457260131836 0.9724321365356445
29.146278381347656 9.297821044921875 0.964796245098114
28.930538177490234 9.297136306762695 0.9571729898452759
28.70179557800293 9.289383888244629 0.9502396583557129
28.481351852416992 9.284122467041016 0.9417498111724854
28.24673080444336 9.273702621459961 0.9346342086791992
28.042423248291016 9.271135330200195 0.9278141260147095
27.83684539794922 9.269182205200195 0.9205676317214966
27.633520126342773 9.265225410461426 0.9144768714904785
27.413814544677734 9.254890441894531 0.9060713052749634
27.18695831298828 9.243047714233398 0.8992205858230591
26.994380950927734 9.2401123046875 0.892809271812439
26.57741928100586 9.222611427307129 0.878574013710022
26.383878707885742 9.216840744018555 0.8717609643936157
25.9746150970459 9.196792602539062 0.8557614684104919
25.771427154541016 9.185079574584961 0.8486709594726562
25.38640785217285 9.16853141784668 0.8366167545318604
24.8181209564209 9.140066146850586 0.8171591758728027
24.275798797607422 9.115747451782227 0.7989908456802368
23.756084442138672 9.091400146484375 0.7821954488754272
23.431964874267578 9.080038070678711 0.7712332010269165
23.26146697998047 9.070170402526855 0.7653143405914307
22.947032928466797 9.059082984924316 0.7547086477279663
22.78799819946289 9.051002502441406 0.7495119571685791
22.468992233276367 9.034038543701172 0.738783597946167
22.32181167602539 9.028717041015625 0.733660101890564
22.169179916381836 9.021522521972656 0.7287009954452515
22.009292602539062 9.01034927368164 0.7231762409210205
21.854068756103516 8.999800682067871 0.7169222831726074
21.730302810668945 9.003172874450684 0.7126145362854004
21.569236755371094 8.988929748535156 0.7073880434036255
21.43106460571289 8.9841890335083 0.7026054859161377
21.285682678222656 8.976156234741211 0.6979112029075623
21.15924835205078 8.974603652954102 0.6935162544250488
21.002498626708984 8.961105346679688 0.6884621381759644
20.87541961669922 8.958135604858398 0.6840556859970093
20.737545013427734 8.949975967407227 0.6796069741249084
20.59130096435547 8.93908977508545 0.6746014356613159
20.47333526611328 8.938416481018066 0.6708121299743652
20.209396362304688 8.924704551696777 0.6620383262634277
20.068119049072266 8.912127494812012 0.6580143570899963
19.809219360351562 8.897216796875 0.6494218111038208
19.680866241455078 8.889577865600586 0.6445095539093018
19.439603805541992 8.878487586975098 0.636509358882904
19.071517944335938 8.855698585510254 0.6242004036903381
18.16873550415039 8.810992240905762 0.5929796695709229
18.056930541992188 8.803634643554688 0.589932382106781
17.864459991455078 8.803106307983398 0.5828918814659119
17.733882904052734 8.784546852111816 0.5787531137466431
17.528179168701172 8.774774551391602 0.5720433592796326
17.43661880493164 8.774238586425781 0.5684558153152466
17.329587936401367 8.766304969787598 0.5655689239501953
17.231094360351562 8.761953353881836 0.5617726445198059
17.128419876098633 8.754526138305664 0.559016227722168
17.025632858276367 8.747912406921387 0.5551010370254517
16.934574127197266 8.74559497833252 0.552722692489624
16.844358444213867 8.743329048156738 0.5492098331451416
16.730573654174805 8.729687690734863 0.5449538826942444
16.639938354492188 8.7263765335083 0.5425903797149658
16.552913665771484 8.725874900817871 0.5392162799835205
16.45235824584961 8.716545104980469 0.5365287065505981
16.342926025390625 8.702049255371094 0.5324167609214783
16.271005630493164 8.708417892456055 0.5293048620223999
16.17318344116211 8.699286460876465 0.5267091393470764
16.080856323242188 8.693472862243652 0.5231829285621643
15.98558235168457 8.68537712097168 0.520675003528595
15.896356582641602 8.679673194885254 0.5172478556632996
15.801803588867188 8.671916961669922 0.5147724151611328
15.717838287353516 8.668326377868652 0.5115258693695068
15.633377075195312 8.664105415344238 0.5086963772773743
15.538981437683105 8.655232429504395 0.5058002471923828
15.463881492614746 8.655496597290039 0.5028569102287292
15.383528709411621 8.65324878692627 0.500836968421936
15.219148635864258 8.644610404968262 0.4949350357055664
15.13272476196289 8.63785171508789 0.49230140447616577
14.972757339477539 8.629603385925293 0.4872094392776489
14.339056015014648 8.588879585266113 0.4661203622817993
14.11882209777832 8.578023910522461 0.4586864113807678
14.032798767089844 8.566141128540039 0.45586445927619934
13.894760131835938 8.562407493591309 0.4515498876571655
13.832051277160645 8.563419342041016 0.44909602403640747
13.750648498535156 8.553254127502441 0.44665032625198364
13.679826736450195 8.549078941345215 0.44433411955833435
13.611503601074219 8.545710563659668 0.4417075514793396
13.53990364074707 8.540685653686523 0.4395850896835327
13.457953453063965 8.528535842895508 0.4369131326675415
13.408748626708984 8.536404609680176 0.43550917506217957
13.335180282592773 8.529657363891602 0.4331226944923401
13.264527320861816 8.523303985595703 0.4304376244544983
13.202323913574219 8.522790908813477 0.42862647771835327
13.140583992004395 8.522066116333008 0.4266200661659241
13.072668075561523 8.516611099243164 0.4240359663963318
12.990903854370117 8.502928733825684 0.4216007888317108
12.930160522460938 8.501550674438477 0.4196264147758484
12.873472213745117 8.503279685974121 0.417425274848938
12.790462493896484 8.487065315246582 0.4149434566497803
12.729026794433594 8.484399795532227 0.4129529595375061
12.672077178955078 8.485153198242188 0.4107545018196106
12.609357833862305 8.481546401977539 0.40949827432632446
12.548330307006836 8.478372573852539 0.4075242280960083
12.499094009399414 8.484052658081055 0.40559059381484985
12.43463134765625 8.478042602539062 0.40370839834213257
12.364591598510742 8.468602180480957 0.40145769715309143
12.299247741699219 8.461832046508789 0.39900028705596924
12.228089332580566 8.450316429138184 0.39690399169921875
12.18067741394043 8.455623626708984 0.39539238810539246
12.045900344848633 8.436796188354492 0.3909079134464264
12.013184547424316 8.451761245727539 0.3898787498474121
11.886100769042969 8.437409400939941 0.3851237893104553
11.72351360321045 8.433334350585938 0.37980177998542786
11.599388122558594 8.418397903442383 0.37605124711990356
11.440185546875 8.413161277770996 0.3708621859550476
11.277107238769531 8.40297794342041 0.36556267738342285
11.2325439453125 8.406500816345215 0.36435365676879883
11.17381477355957 8.39942741394043 0.362354040145874
11.1219482421875 8.397035598754883 0.3607251048088074
11.05746078491211 8.384430885314941 0.3583495616912842
11.004777908325195 8.381152153015137 0.356883704662323
10.954354286193848 8.379140853881836 0.35497599840164185
10.909010887145996 8.38039779663086 0.35355859994888306
10.844467163085938 8.367298126220703 0.35120224952697754
10.80605697631836 8.373909950256348 0.35019904375076294
10.744300842285156 8.361795425415039 0.3482542037963867
10.704620361328125 8.367280960083008 0.34671032428741455
10.642679214477539 8.354913711547852 0.3449469208717346
10.606661796569824 8.362910270690918 0.34352654218673706
10.555329322814941 8.358427047729492 0.34193190932273865
10.498144149780273 8.348649024963379 0.3398207426071167
10.445215225219727 8.342636108398438 0.33835673332214355
10.40869140625 8.349311828613281 0.33724546432495117
10.356704711914062 8.343624114990234 0.3353191018104553
10.306870460510254 8.339215278625488 0.3334619104862213
10.260932922363281 8.337339401245117 0.3322175443172455
10.207069396972656 8.329428672790527 0.3305540084838867
10.152521133422852 8.320480346679688 0.32855069637298584
10.119840621948242 8.328862190246582 0.32725125551223755
10.075518608093262 8.328144073486328 0.3260725736618042
10.019660949707031 8.317438125610352 0.3248293399810791
9.970949172973633 8.312639236450195 0.32271409034729004
9.928990364074707 8.312644004821777 0.32160311937332153
9.864154815673828 8.293646812438965 0.3195881247520447
9.834551811218262 8.304278373718262 0.31841057538986206
9.744196891784668 8.297906875610352 0.31551530957221985
9.689560890197754 8.286752700805664 0.31383949518203735
9.608833312988281 8.288031578063965 0.3108026087284088
9.565289497375488 8.285152435302734 0.3096456527709961
9.474081039428711 8.276240348815918 0.3065837025642395
9.431221008300781 8.273368835449219 0.30498558282852173
9.390401840209961 8.273124694824219 0.30347248911857605
9.338266372680664 8.261675834655762 0.30204227566719055
9.254706382751465 8.257492065429688 0.2992439270019531
9.215547561645508 8.256965637207031 0.2977752983570099
9.130807876586914 8.250627517700195 0.29540592432022095
8.999669075012207 8.235491752624512 0.2905970811843872
8.966089248657227 8.239411354064941 0.2894863486289978
8.923771858215332 8.235359191894531 0.2879399359226227
8.878406524658203 8.22767448425293 0.28702569007873535
8.836004257202148 8.222925186157227 0.2854739725589752
8.79294204711914 8.21757698059082 0.2839084267616272
8.751861572265625 8.213274002075195 0.282399445772171
8.721519470214844 8.21929931640625 0.2812448740005493
8.667786598205566 8.203298568725586 0.28007006645202637
8.638607025146484 8.210127830505371 0.27895647287368774
8.593012809753418 8.201408386230469 0.27731695771217346
8.549356460571289 8.193714141845703 0.275732159614563
8.520441055297852 8.200386047363281 0.27463266253471375
8.475016593933105 8.191219329833984 0.2737242877483368
8.445775985717773 8.19692611694336 0.27261102199554443
8.41109561920166 8.198233604431152 0.2713378369808197
8.37437915802002 8.196403503417969 0.2699873447418213
8.32508659362793 8.182052612304688 0.2682315409183502
8.288847923278809 8.181319236755371 0.2671951353549957
8.256875038146973 8.183658599853516 0.2664314806461334
8.212117195129395 8.173543930053711 0.2648329436779022
8.175703048706055 8.171748161315918 0.26351022720336914
8.134089469909668 8.163968086242676 0.2620086669921875
8.11207103729248 8.176124572753906 0.2614259123802185
8.070090293884277 8.16824722290039 0.2603527009487152
8.040447235107422 8.172487258911133 0.2588244080543518
7.991858005523682 8.157493591308594 0.25726526975631714
7.960849761962891 8.159646987915039 0.2561178207397461
7.922328948974609 8.154339790344238 0.25473248958587646
7.890711784362793 8.156195640563965 0.2535756230354309
7.850405693054199 8.148303031921387 0.2524041533470154
7.817430019378662 8.14824104309082 0.2512041926383972
7.779333114624023 8.142890930175781 0.25026005506515503
7.746109962463379 8.141875267028809 0.24904882907867432
7.7040581703186035 8.131790161132812 0.24756085872650146
7.6748127937316895 8.135269165039062 0.2464912235736847
7.630853176116943 8.122374534606934 0.2452068030834198
7.593960762023926 8.117786407470703 0.24389755725860596
7.563332557678223 8.118751525878906 0.24277931451797485
7.499433517456055 8.118444442749023 0.24088242650032043
7.468897819519043 8.11912727355957 0.2397671341896057
7.431839942932129 8.113560676574707 0.23872697353363037
7.3968915939331055 8.10912799835205 0.23747457563877106
7.367869853973389 8.111055374145508 0.23641344904899597
7.333301544189453 8.107732772827148 0.23559825122356415
7.2993879318237305 8.103979110717773 0.23438036441802979
7.27300500869751 8.1084623336792 0.2334069311618805
7.227143287658691 8.092042922973633 0.2318265438079834
7.200863838195801 8.096373558044434 0.23046040534973145
7.134316444396973 8.089903831481934 0.228101909160614
7.09129524230957 8.074837684631348 0.22700199484825134
7.067109107971191 8.082053184509277 0.22612608969211578
7.039007186889648 8.08370590209961 0.2251092493534088
7.010621547698975 8.085317611694336 0.22408977150917053
6.979825973510742 8.084238052368164 0.22325539588928223
6.944218635559082 8.07681941986084 0.22200196981430054
6.913058280944824 8.074804306030273 0.22089740633964539
6.887875556945801 8.079872131347656 0.2199884057044983
6.851607799530029 8.071195602416992 0.21911007165908813
6.816742897033691 8.064376831054688 0.2178916335105896
6.782498359680176 8.058326721191406 0.21669501066207886
6.763775825500488 8.070014953613281 0.21624243259429932
6.719215393066406 8.051725387573242 0.21472671627998352
6.703658103942871 8.067054748535156 0.21412429213523865
6.67100715637207 8.061739921569824 0.2129775583744049
6.636320114135742 8.054791450500488 0.2117820829153061
6.60443639755249 8.050074577331543 0.21104741096496582
6.574701309204102 8.048834800720215 0.2100103497505188
6.53793478012085 8.037810325622559 0.20873627066612244
6.5091423988342285 8.03642463684082 0.20796436071395874
6.479576110839844 8.034954071044922 0.2069389820098877
6.447788238525391 8.029579162597656 0.20506340265274048
6.427493095397949 8.03841781616211 0.20432023704051971
6.393951416015625 8.031586647033691 0.20355302095413208
6.363699436187744 8.027717590332031 0.20249271392822266
6.337430953979492 8.028749465942383 0.20156264305114746
6.306891441345215 8.025251388549805 0.20051309466362
6.273038864135742 8.016361236572266 0.19934271275997162
6.243135929107666 8.012749671936035 0.19855104386806488
6.219995498657227 8.017923355102539 0.19773440062999725
6.185334205627441 8.007499694824219 0.1965426504611969
6.161171913146973 8.011536598205566 0.19570088386535645
6.123808860778809 7.997241020202637 0.19442600011825562
6.108090400695801 8.011099815368652 0.19421178102493286
6.0760650634765625 8.00450325012207 0.19312360882759094
6.045943260192871 7.999237060546875 0.19208043813705444
6.017847061157227 7.996907711029053 0.19110970199108124
5.9942498207092285 8.000666618347168 0.19028756022453308
5.9617509841918945 7.99179744720459 0.18941158056259155
5.913342475891113 7.996955871582031 0.18772746622562408
5.888401985168457 7.9978928565979 0.18685604631900787
5.858863830566406 7.9934821128845215 0.18585526943206787
5.82921838760376 7.9877471923828125 0.18483605980873108
5.796507835388184 7.9776387214660645 0.18408584594726562
5.770105361938477 7.977080821990967 0.18269555270671844
5.742339134216309 7.973486423492432 0.18173998594284058
5.690321445465088 7.971840858459473 0.17995861172676086
5.669413089752197 7.977506160736084 0.17922300100326538
5.639575004577637 7.971529006958008 0.1782214641571045
5.615478038787842 7.972507476806641 0.1773870289325714
5.583732604980469 7.962483882904053 0.17631202936172485
5.56081485748291 7.965949058532715 0.1758916974067688
5.532466411590576 7.960485458374023 0.174925297498703
5.512949466705322 7.967634201049805 0.17423895001411438
5.475925922393799 7.950369358062744 0.1730157732963562
5.456656455993652 7.957693099975586 0.17257137596607208
5.431980609893799 7.957058906555176 0.1717245727777481
5.40745735168457 7.957590103149414 0.17089895904064178
5.378574371337891 7.950526714324951 0.1699211299419403
5.353038787841797 7.949317932128906 0.16906537115573883
5.327306747436523 7.946649551391602 0.16818903386592865
5.307251930236816 7.952364921569824 0.1674928069114685
5.268988132476807 7.931674957275391 0.1662382185459137
5.255225658416748 7.946687698364258 0.16574227809906006
5.22607421875 7.9383625984191895 0.16476181149482727
5.198922157287598 7.933969974517822 0.16386064887046814
5.174406051635742 7.93241548538208 0.16337841749191284
5.150012016296387 7.93135404586792 0.1620841771364212
5.12164306640625 7.924259185791016 0.16114141047000885
5.095927715301514 7.920478343963623 0.1602749526500702
5.084267616271973 7.938932418823242 0.15985560417175293
5.053947448730469 7.92841100692749 0.15885478258132935
5.025047779083252 7.919284820556641 0.1578902006149292
4.998815536499023 7.915268898010254 0.15702535212039948
4.978860855102539 7.920027732849121 0.15668949484825134
4.952903747558594 7.915144443511963 0.15581905841827393
4.928311347961426 7.913387298583984 0.15500791370868683
4.907995223999023 7.917333602905273 0.15431667864322662
4.876435279846191 7.902997016906738 0.15327242016792297
4.857335567474365 7.9098052978515625 0.15263624489307404
4.826294422149658 7.895955562591553 0.15161073207855225
4.801727294921875 7.893607139587402 0.15080416202545166
4.785375118255615 7.903619766235352 0.15046337246894836
4.762304306030273 7.902482509613037 0.1496904045343399
4.730023384094238 7.886980056762695 0.14864325523376465
4.71365213394165 7.896786689758301 0.14808163046836853
4.689288139343262 7.893143177032471 0.14726988971233368
4.660063743591309 7.882248878479004 0.1463216245174408
4.633105754852295 7.873904228210449 0.14543044567108154
4.618610858917236 7.886669635772705 0.1449306160211563
4.594799041748047 7.884585380554199 0.1441550850868225
4.571610450744629 7.882350921630859 0.1433837115764618
4.537602424621582 7.861258506774902 0.14227548241615295
5.579816818237305 -10.554956436157227 0.1978006362915039
5.62129545211792 -10.526824951171875 0.19916999340057373
5.647345066070557 -10.522061347961426 0.20003482699394226
5.697851181030273 -10.510626792907715 0.201725035905838
5.728794097900391 -10.514639854431152 0.20320814847946167
5.753835201263428 -10.508634567260742 0.20405474305152893
5.801246643066406 -10.542625427246094 0.20568466186523438
5.830745220184326 -10.543447494506836 0.20667599141597748
5.852471351623535 -10.530473709106445 0.20739726722240448
5.887399673461914 -10.541742324829102 0.2085958868265152
5.94025182723999 -10.531938552856445 0.2106645703315735
5.965427398681641 -10.525468826293945 0.21152019500732422
5.99992561340332 -10.534408569335938 0.21269571781158447
6.024129867553711 -10.525461196899414 0.21350976824760437
6.05341911315918 -10.52501106262207 0.21450068056583405
6.089409351348877 -10.536931991577148 0.21574434638023376
6.119494438171387 -10.537862777709961 0.21676915884017944
6.145382881164551 -10.531160354614258 0.2176431119441986
6.171504020690918 -10.525686264038086 0.21898797154426575
6.2045207023620605 -10.531265258789062 0.22012344002723694
6.235412120819092 -10.532768249511719 0.2211759090423584
6.257834434509277 -10.5201997756958 0.22193491458892822
6.288582801818848 -10.522132873535156 0.22299808263778687
6.323052406311035 -10.529243469238281 0.22418272495269775
6.347527980804443 -10.519899368286133 0.2250162959098816
6.410312652587891 -10.524077415466309 0.22718295454978943
6.437067031860352 -10.51823616027832 0.2281007468700409
6.469491004943848 -10.522112846374512 0.2292305827140808
6.4997663497924805 -10.521480560302734 0.2302694320678711
6.527627944946289 -10.51713752746582 0.23122966289520264
6.55576229095459 -10.512845993041992 0.23219795525074005
6.590254783630371 -10.519475936889648 0.2334015965461731
6.615201950073242 -10.510189056396484 0.2342621237039566
6.640560150146484 -10.501214981079102 0.23513197898864746
6.676875114440918 -10.509733200073242 0.23639549314975739
6.705230712890625 -10.506135940551758 0.23738813400268555
6.7321977615356445 -10.499422073364258 0.2383195459842682
6.751791954040527 -10.481490135192871 0.23899143934249878
6.822442054748535 -10.494382858276367 0.2414666712284088
6.8537092208862305 -10.49420166015625 0.24255746603012085
6.915773391723633 -10.492447853088379 0.24472102522850037
6.9410600662231445 -10.48340129852295 0.24561402201652527
7.039393424987793 -10.488080978393555 0.24907085299491882
7.0956621170043945 -10.476295471191406 0.2510420083999634
7.133411407470703 -10.485101699829102 0.25238215923309326
7.191810607910156 -10.475804328918457 0.25443726778030396
7.255365371704102 -10.473573684692383 0.2563712000846863
7.284074783325195 -10.468542098999023 0.25739625096321106
7.35137939453125 -10.47093391418457 0.25977689027786255
7.378715515136719 -10.463628768920898 0.26075518131256104
7.444808006286621 -10.463509559631348 0.2631014585494995
7.48295783996582 -10.471059799194336 0.26446613669395447
7.532560348510742 -10.447181701660156 0.2662346363067627
7.574864387512207 -10.460027694702148 0.2677507698535919
7.6355390548706055 -10.450878143310547 0.2694393992424011
7.672316551208496 -10.454788208007812 0.27043768763542175
7.7355499267578125 -10.449220657348633 0.2727128863334656
7.768800258636475 -10.447919845581055 0.2739022970199585
7.792573928833008 -10.434074401855469 0.2747618556022644
7.830655097961426 -10.43980598449707 0.27613767981529236
7.862457275390625 -10.435686111450195 0.2772723436355591
7.898359775543213 -10.43819808959961 0.27857014536857605
7.936539649963379 -10.442744255065918 0.2799410820007324
7.964898109436035 -10.434513092041016 0.28096804022789
7.995055198669434 -10.4290771484375 0.28158679604530334
8.026763916015625 -10.424764633178711 0.2824123501777649
8.064983367919922 -10.429037094116211 0.28379011154174805
8.102291107177734 -10.432470321655273 0.2851490080356598
8.124661445617676 -10.415788650512695 0.2859664559364319
8.171396255493164 -10.430475234985352 0.28765004873275757
8.201497077941895 -10.424264907836914 0.28843602538108826
8.236233711242676 -10.422523498535156 0.2896861433982849
8.262630462646484 -10.41143798828125 0.29066672921180725
8.296252250671387 -10.409368515014648 0.29189959168434143
8.330224990844727 -10.406307220458984 0.29312682151794434
8.369380950927734 -10.41086483001709 0.2945585250854492
8.409744262695312 -10.415945053100586 0.29602286219596863
8.432124137878418 -10.398923873901367 0.29636526107788086
8.48221206665039 -10.416433334350586 0.29818546772003174
8.511314392089844 -10.40720272064209 0.29925596714019775
8.548717498779297 -10.408272743225098 0.30062463879585266
8.576849937438965 -10.398452758789062 0.30135226249694824
8.610207557678223 -10.393583297729492 0.30256640911102295
8.64686393737793 -10.393850326538086 0.3039238452911377
8.679474830627441 -10.389123916625977 0.30513715744018555
8.720769882202148 -10.39334774017334 0.3066369891166687
8.748315811157227 -10.382345199584961 0.3076742887496948
8.825469970703125 -10.38483715057373 0.3095064163208008
8.863428115844727 -10.385747909545898 0.31058481335639954
8.889335632324219 -10.37115478515625 0.31155073642730713
8.93169116973877 -10.376913070678711 0.312783420085907
8.96564769744873 -10.372749328613281 0.31405651569366455
9.00543212890625 -10.3739013671875 0.3155108094215393
9.03738784790039 -10.367176055908203 0.31671804189682007
9.118246078491211 -10.371423721313477 0.31970515847206116
9.148283004760742 -10.362146377563477 0.32084426283836365
9.183860778808594 -10.357763290405273 0.32165247201919556
9.215926170349121 -10.350576400756836 0.3225316107273102
9.253305435180664 -10.349234580993652 0.32393699884414673
9.296409606933594 -10.352849960327148 0.32551848888397217
9.337523460388184 -10.355326652526855 0.32706117630004883
9.371872901916504 -10.350151062011719 0.3283592462539673
9.455220222473145 -10.35422134399414 0.33146363496780396
9.482215881347656 -10.339841842651367 0.33164483308792114
9.52676773071289 -10.344740867614746 0.3333014249801636
9.556057929992676 -10.333431243896484 0.3344348669052124
9.630636215209961 -10.326488494873047 0.3372448682785034
9.683778762817383 -10.340368270874023 0.3392183184623718
9.707560539245605 -10.321480751037598 0.33909720182418823
9.760116577148438 -10.334304809570312 0.34070801734924316
9.781244277954102 -10.313217163085938 0.34155726432800293
9.833831787109375 -10.324899673461914 0.3431556224822998
9.8626127243042 -10.312183380126953 0.3442839980125427
9.91351318359375 -10.321171760559082 0.3461652994155884
9.955218315124512 -10.321632385253906 0.3472205400466919
9.989676475524902 -10.314437866210938 0.348552942276001
10.026092529296875 -10.307882308959961 0.3499305248260498
10.068358421325684 -10.308448791503906 0.3511912524700165
10.106440544128418 -10.303812026977539 0.35264143347740173
10.139775276184082 -10.294477462768555 0.35393089056015015
10.18729305267334 -10.29987907409668 0.3551914393901825
10.23867416381836 -10.307693481445312 0.3571026921272278
10.264724731445312 -10.291116714477539 0.3578033447265625
10.314467430114746 -10.298158645629883 0.3596805930137634
10.345327377319336 -10.284933090209961 0.3608807325363159
10.396478652954102 -10.292974472045898 0.3628140687942505
10.433233261108398 -10.286579132080078 0.3637043833732605
10.479829788208008 -10.288463592529297 0.36545872688293457
10.516748428344727 -10.281936645507812 0.36654233932495117
10.553266525268555 -10.273637771606445 0.36795228719711304
10.597354888916016 -10.273811340332031 0.3696444630622864
10.642229080200195 -10.274559020996094 0.3713662624359131
10.679217338562012 -10.26628303527832 0.37225013971328735
10.725950241088867 -10.26846694946289 0.37349581718444824
10.763466835021973 -10.26165771484375 0.37496647238731384
10.814270973205566 -10.266084671020508 0.3765226900577545
10.851533889770508 -10.258729934692383 0.37799015641212463
10.933086395263672 -10.248977661132812 0.38060060143470764
10.979531288146973 -10.249792098999023 0.38203009963035583
11.019773483276367 -10.243391036987305 0.38358908891677856
11.072355270385742 -10.249520301818848 0.3855976462364197
11.154670715332031 -10.238824844360352 0.3882506489753723
11.195565223693848 -10.233634948730469 0.3894933760166168
11.240560531616211 -10.230775833129883 0.39122501015663147
11.278375625610352 -10.222478866577148 0.3927331566810608
11.33252239227295 -10.228800773620605 0.39424723386764526
11.36205768585205 -10.211498260498047 0.3950785994529724
11.410907745361328 -10.212675094604492 0.3969753384590149
11.463443756103516 -10.21692943572998 0.39900362491607666
11.50412654876709 -10.209175109863281 0.40059608221054077
11.546577453613281 -10.204092979431152 0.40133970975875854
11.605450630187988 -10.213308334350586 0.4035917818546295
11.63983154296875 -10.19952392578125 0.404971718788147
11.68345832824707 -10.194969177246094 0.40670233964920044
11.733899116516113 -10.194912910461426 0.40807193517684937
11.775604248046875 -10.18834114074707 0.40973639488220215
11.832134246826172 -10.194395065307617 0.4115443825721741
11.868000030517578 -10.181201934814453 0.4124131202697754
11.92170524597168 -10.184404373168945 0.41450029611587524
12.01168441772461 -10.174081802368164 0.41767948865890503
12.069290161132812 -10.179935455322266 0.41932839155197144
12.109312057495117 -10.17026138305664 0.42094147205352783
12.197319030761719 -10.157380104064941 0.4240756034851074
12.26024055480957 -10.165504455566406 0.4258909821510315
12.304479598999023 -10.159170150756836 0.4276677072048187
12.353887557983398 -10.156423568725586 0.42923304438591003
12.39364242553711 -10.145315170288086 0.43084874749183655
12.451883316040039 -10.149909019470215 0.4325289726257324
12.500593185424805 -10.145242691040039 0.43445006012916565
12.54863166809082 -10.141108512878418 0.435982882976532
12.600091934204102 -10.139545440673828 0.43802595138549805
12.64483642578125 -10.131123542785645 0.4392203688621521
12.697393417358398 -10.13003921508789 0.44091588258743286
12.747940063476562 -10.126644134521484 0.4429258704185486
12.791915893554688 -10.117583274841309 0.4441002905368805
12.85133171081543 -10.121295928955078 0.44643449783325195
12.896236419677734 -10.11286735534668 0.44786185026168823
12.94848918914795 -10.109748840332031 0.45033377408981323
12.996248245239258 -10.10369873046875 0.4518706202507019
13.052040100097656 -10.102412223815918 0.45345979928970337
13.09852409362793 -10.094995498657227 0.45535483956336975
13.191658973693848 -10.07850456237793 0.45812755823135376
13.259269714355469 -10.086652755737305 0.4607656002044678
13.36140251159668 -10.075796127319336 0.4638576805591583
13.416332244873047 -10.073612213134766 0.46606335043907166
13.4600248336792 -10.061527252197266 0.46785813570022583
13.51780891418457 -10.061062812805176 0.46976423263549805
13.621786117553711 -10.049581527709961 0.47334569692611694
13.676416397094727 -10.046123504638672 0.4751451015472412
13.735803604125977 -10.04464340209961 0.47687479853630066
13.799189567565918 -10.047111511230469 0.47939127683639526
13.849533081054688 -10.039856910705566 0.48104745149612427
13.904008865356445 -10.034106254577637 0.48260700702667236
13.951122283935547 -10.024144172668457 0.48456835746765137
14.012932777404785 -10.024018287658691 0.4866211414337158
14.06853199005127 -10.018938064575195 0.48823148012161255
14.121870994567871 -10.012821197509766 0.49041852355003357
14.173334121704102 -10.004663467407227 0.4927554130554199
14.240802764892578 -10.00728988647461 0.4958488941192627
14.286260604858398 -9.994498252868652 0.49712395668029785
14.339414596557617 -9.986641883850098 0.498882532119751
14.403219223022461 -9.986754417419434 0.5008029341697693
14.466964721679688 -9.986047744750977 0.5033642053604126
14.519643783569336 -9.977198600769043 0.5051121711730957
14.582672119140625 -9.976020812988281 0.5070109367370605
14.648557662963867 -9.97601318359375 0.5096561312675476
14.70128345489502 -9.966533660888672 0.5114120244979858
14.756571769714355 -9.958864212036133 0.5130372643470764
14.824453353881836 -9.959168434143066 0.5153231024742126
14.879854202270508 -9.951634407043457 0.5176249146461487
14.935877799987793 -9.943787574768066 0.519278883934021
14.996869087219238 -9.938742637634277 0.5213346481323242
15.065701484680176 -9.939425468444824 0.524110734462738
15.119508743286133 -9.928632736206055 0.5256800651550293
15.195133209228516 -9.933223724365234 0.5282620191574097
15.241795539855957 -9.91811752319336 0.5295976996421814
15.30824089050293 -9.915395736694336 0.5318518280982971
15.373483657836914 -9.91242790222168 0.5345213413238525
15.43467903137207 -9.906072616577148 0.5363671183586121
15.492522239685059 -9.897061347961426 0.5383277535438538
15.624624252319336 -9.889849662780762 0.5444221496582031
15.693790435791016 -9.8872652053833 0.5465496182441711
15.812532424926758 -9.869294166564941 0.55106121301651
15.871175765991211 -9.860188484191895 0.5528415441513062
16.019153594970703 -9.85886287689209 0.5576949715614319
16.343027114868164 -9.823142051696777 0.5688419342041016
16.420724868774414 -9.823515892028809 0.5720045566558838
16.555633544921875 -9.809785842895508 0.5764380693435669
16.615659713745117 -9.798283576965332 0.5785205364227295
16.69356918334961 -9.79676628112793 0.5809801816940308
16.764284133911133 -9.791550636291504 0.5839189291000366
16.828054428100586 -9.781476020812988 0.585424542427063
16.89676856994629 -9.773730278015137 0.5882836580276489
16.97162437438965 -9.769536972045898 0.5901767015457153
17.039836883544922 -9.761781692504883 0.593043327331543
17.117761611938477 -9.758460998535156 0.5957643985748291
17.193206787109375 -9.753703117370605 0.598150908946991
