VERSION .7
FIELDS x y z
SIZE 4 4 4
TYPE F F F
COUNT 1 1 1
WIDTH 857
HEIGHT 1
VIEWPOINT 0 0 0 1 0 0 0
POINTS 857
DATA ascii
16.527164459228516 -9.744047164916992 0.4704943299293518
16.590778350830078 -9.73508071899414 0.47184252738952637
16.648115158081055 -9.721108436584473 0.4728831648826599
16.72055435180664 -9.71679973602295 0.4743652641773224
16.868511199951172 -9.708115577697754 0.4785890281200409
16.92989730834961 -9.696596145629883 0.4797569811344147
17.090044021606445 -9.693100929260254 0.4843359887599945
17.14459228515625 -9.676936149597168 0.4853099584579468
17.287311553955078 -9.661721229553223 0.4881937503814697
17.525056838989258 -9.650511741638184 0.4944066107273102
17.747352600097656 -9.628018379211426 0.5001934766769409
17.901378631591797 -9.614221572875977 0.5033887624740601
17.972570419311523 -9.603184700012207 0.5059366822242737
18.133535385131836 -9.592517852783203 0.5094643235206604
18.203113555908203 -9.579751014709473 0.5108445882797241
18.287120819091797 -9.57541561126709 0.5137787461280823
18.364669799804688 -9.56751537322998 0.5153986811637878
18.45284652709961 -9.563529014587402 0.5174247622489929
18.528547286987305 -9.553895950317383 0.5189889669418335
18.614395141601562 -9.54931640625 0.5208374261856079
18.676847457885742 -9.531152725219727 0.5231701731681824
18.763832092285156 -9.526371955871582 0.5251764059066772
18.8477783203125 -9.518548011779785 0.5269574522972107
18.93893814086914 -9.515169143676758 0.5289511680603027
19.011350631713867 -9.502190589904785 0.5315926671028137
19.096158981323242 -9.493791580200195 0.5323501229286194
19.181995391845703 -9.48672866821289 0.5341916084289551
19.247589111328125 -9.468192100524902 0.5354551672935486
19.34088706970215 -9.464290618896484 0.5375034213066101
19.435964584350586 -9.460729598999023 0.5397266149520874
19.504125595092773 -9.4425687789917 0.5422532558441162
19.607316970825195 -9.442206382751465 0.5445747971534729
19.68514633178711 -9.429411888122559 0.5461916327476501
19.773609161376953 -9.420051574707031 0.5480881333351135
19.87325096130371 -9.416824340820312 0.5516488552093506
19.955293655395508 -9.403698921203613 0.5533686876296997
20.041309356689453 -9.393309593200684 0.5552107691764832
20.140127182006836 -9.38869857788086 0.5574073791503906
20.219146728515625 -9.37315559387207 0.5591740012168884
20.3195743560791 -9.36838436126709 0.5626433491706848
20.41192054748535 -9.359646797180176 0.5646615028381348
20.500486373901367 -9.347455978393555 0.5665592551231384
20.584049224853516 -9.3338623046875 0.5683305859565735
20.691360473632812 -9.330802917480469 0.5708935856819153
20.7834415435791 -9.318950653076172 0.574138343334198
20.86867904663086 -9.305205345153809 0.5759583115577698
21.081890106201172 -9.294036865234375 0.5807573795318604
21.151832580566406 -9.272493362426758 0.5822911262512207
21.358139038085938 -9.255895614624023 0.5844669938087463
21.6695499420166 -9.229475975036621 0.5926863551139832
21.845563888549805 -9.19594669342041 0.5965783596038818
21.941442489624023 -9.182754516601562 0.5999853610992432
22.149431228637695 -9.160372734069824 0.6046125292778015
22.255186080932617 -9.148639678955078 0.6069657802581787
22.372421264648438 -9.142450332641602 0.6097875237464905
22.48168182373047 -9.13270092010498 0.6135844588279724
22.584426879882812 -9.118438720703125 0.6158568859100342
22.69971466064453 -9.110087394714355 0.618482232093811
22.80659294128418 -9.098075866699219 0.6208787560462952
22.897655487060547 -9.077909469604492 0.622829794883728
23.004730224609375 -9.0650053024292 0.6253761053085327
23.119354248046875 -9.053322792053223 0.6293339729309082
23.236488342285156 -9.043460845947266 0.6320088505744934
23.341163635253906 -9.028470039367676 0.6343448758125305
23.447622299194336 -9.012275695800781 0.6367151737213135
23.56249237060547 -9.000188827514648 0.6394753456115723
23.69920539855957 -8.99609661102295 0.6426776647567749
23.900672912597656 -8.957596778869629 0.6444535255432129
24.046480178833008 -8.953868865966797 0.6478677988052368
24.15611457824707 -8.937492370605469 0.6503196358680725
24.278343200683594 -8.925480842590332 0.6531100273132324
24.39431381225586 -8.909172058105469 0.65587317943573
24.522199630737305 -8.898078918457031 0.6588126420974731
24.643150329589844 -8.884138107299805 0.6630076766014099
24.760995864868164 -8.866898536682129 0.6656680107116699
24.90351104736328 -8.859670639038086 0.6690027117729187
25.02276039123535 -8.84208869934082 0.6716989874839783
25.13936996459961 -8.824484825134277 0.6743348240852356
25.26479721069336 -8.80966567993164 0.6773684024810791
25.38878631591797 -8.79228401184082 0.6816682815551758
25.522369384765625 -8.77910041809082 0.6847629547119141
25.64447021484375 -8.761629104614258 0.6875495314598083
25.763309478759766 -8.740816116333008 0.6902337670326233
25.906391143798828 -8.729452133178711 0.6935800313949585
26.166107177734375 -8.694432258605957 0.6997116804122925
26.297103881835938 -8.67740249633789 0.7027316689491272
26.56001853942871 -8.64029598236084 0.7103173732757568
26.859249114990234 -8.612722396850586 0.7126820087432861
26.979026794433594 -8.589427947998047 0.7155554890632629
27.256427764892578 -8.55148983001709 0.7235245108604431
96.96492767333984 -30.20110321044922 2.5683515071868896
27.546794891357422 -8.515327453613281 0.7302734851837158
27.706254959106445 -8.501669883728027 0.7340304851531982
27.836685180664062 -8.478527069091797 0.7371926307678223
27.981122970581055 -8.457242965698242 0.7405410408973694
28.104496002197266 -8.430922508239746 0.7433403730392456
28.286561965942383 -8.419900894165039 0.7476780414581299
28.436588287353516 -8.400174140930176 0.752813994884491
28.581687927246094 -8.378586769104004 0.7561935782432556
28.745594024658203 -8.359992027282715 0.760054349899292
28.88129425048828 -8.334492683410645 0.7631851434707642
29.05190658569336 -8.318458557128906 0.7674148082733154
29.195674896240234 -8.292181968688965 0.7707432508468628
29.333120346069336 -8.26547622680664 0.7739197611808777
29.548160552978516 -8.258167266845703 0.779123067855835
29.679222106933594 -8.228243827819824 0.7821285724639893
29.82274627685547 -8.201427459716797 0.7854622602462769
29.979188919067383 -8.175604820251465 0.7908313274383545
30.1444149017334 -8.153493881225586 0.79474276304245
30.3173770904541 -8.131007194519043 0.7988426685333252
30.4848690032959 -8.10795783996582 0.7993339896202087
30.650390625 -8.083913803100586 0.8032318353652954
30.83612060546875 -8.062484741210938 0.8094034790992737
30.99369239807129 -8.035004615783691 0.8130974173545837
31.15910530090332 -8.008917808532715 0.8171948790550232
31.332189559936523 -7.982089996337891 0.8212852478027344
31.508800506591797 -7.957489013671875 0.825478732585907
31.680326461791992 -7.930908203125 0.8295402526855469
31.854156494140625 -7.902152061462402 0.8336470127105713
32.042449951171875 -7.878312110900879 0.8381454348564148
32.231231689453125 -7.851750373840332 0.8426423668861389
32.39764404296875 -7.821104526519775 0.8465664982795715
32.59587860107422 -7.797410488128662 0.8513230681419373
32.77228927612305 -7.765633583068848 0.8573499321937561
32.96013259887695 -7.737939834594727 0.8618425130844116
33.13333511352539 -7.706089496612549 0.8659501075744629
33.32915496826172 -7.676619529724121 0.8706395626068115
33.5216064453125 -7.647728443145752 0.8754546642303467
33.72402572631836 -7.618154048919678 0.8803134560585022
23.596817016601562 -5.174753189086914 0.615106999874115
23.59561538696289 -5.123192310333252 0.6147976517677307
23.588390350341797 -5.068881988525391 0.6143251657485962
23.594179153442383 -5.018925666809082 0.6128756999969482
23.557371139526367 -4.960019588470459 0.6116500496864319
23.6166934967041 -4.919847011566162 0.6129143834114075
23.914339065551758 -4.9300947189331055 0.6203502416610718
23.994709014892578 -4.894774913787842 0.6221901774406433
35.691978454589844 -7.047299861907959 0.9243673086166382
23.7454776763916 -4.532228946685791 0.6142785549163818
23.662057876586914 -4.414602279663086 0.6115520000457764
23.556732177734375 -4.342898368835449 0.6086025238037109
23.43239402770996 -4.269715309143066 0.6051626801490784
23.51702880859375 -4.234588146209717 0.6071037650108337
23.615734100341797 -4.200441837310791 0.6094210147857666
23.725772857666016 -4.169239521026611 0.6120348572731018
23.839027404785156 -4.13666296005249 0.6162065863609314
23.95209503173828 -4.105099678039551 0.6189061403274536
24.050487518310547 -4.070457935333252 0.6212283372879028
24.1597957611084 -4.036036014556885 0.6238275170326233
24.360279083251953 -4.017582416534424 0.6287818551063538
24.373905181884766 -3.9663641452789307 0.6289216876029968
23.62721824645996 -3.794543504714966 0.6095119118690491
23.436735153198242 -3.714077949523926 0.6040684580802917
23.426828384399414 -3.6612236499786377 0.6035981178283691
23.41746711730957 -3.6099939346313477 0.6031626462936401
23.410364151000977 -3.559034824371338 0.6027882099151611
23.401058197021484 -3.5066351890563965 0.6023560762405396
23.399417877197266 -3.4567556381225586 0.6021272540092468
23.40692901611328 -3.406787872314453 0.6021314859390259
23.789871215820312 -3.3617544174194336 0.6116086840629578
24.997692108154297 -3.4251174926757812 0.6422874331474304
25.33737564086914 -3.3630118370056152 0.6506390571594238
34.95321273803711 -4.565523147583008 0.8969070315361023
26.33316421508789 -3.2142467498779297 0.675479531288147
26.338329315185547 -3.1594197750091553 0.6754403114318848
26.407590866088867 -3.0549705028533936 0.6768744587898254
26.71399688720703 -3.0342514514923096 0.6845498085021973
36.1824836730957 -3.8792474269866943 0.9259337186813354
36.19954299926758 -3.80309796333313 0.9261610507965088
36.19327163696289 -3.726518392562866 0.9258015155792236
36.10327911376953 -3.6413304805755615 0.9253040552139282
36.10932540893555 -3.5642571449279785 0.9232662320137024
36.087974548339844 -3.4865458011627197 0.9225361943244934
36.031158447265625 -3.403383255004883 0.9228820204734802
36.00808334350586 -3.3258275985717773 0.9201259613037109
35.990203857421875 -3.2486448287963867 0.9194943904876709
35.98692321777344 -3.1710827350616455 0.9192341566085815
35.95093536376953 -3.092740774154663 0.9181499481201172
35.956722259521484 -3.0178616046905518 0.918134331703186
35.91370391845703 -2.937225103378296 0.9168750643730164
35.89372253417969 -2.860398054122925 0.9162118434906006
35.88996505737305 -2.785159111022949 0.91596519947052
35.873138427734375 -2.706991672515869 0.9153864979743958
35.86144256591797 -2.631056785583496 0.9149461388587952
35.84695816040039 -2.553236961364746 0.914436399936676
35.832427978515625 -2.4774763584136963 0.9139320850372314
35.8343391418457 -2.4026803970336914 0.913850724697113
35.8289680480957 -2.3256680965423584 0.9135848879814148
35.81971740722656 -2.250211715698242 0.9132277965545654
35.799190521240234 -2.172374725341797 0.9125857949256897
35.794219970703125 -2.0975289344787598 0.9143173694610596
35.76885986328125 -2.021350145339966 0.9131220579147339
35.76820373535156 -1.9448884725570679 0.9110273718833923
35.73871994018555 -1.8689093589782715 0.9101762771606445
35.73313522338867 -1.7940504550933838 0.9099377393722534
35.684906005859375 -1.7154321670532227 0.9086159467697144
35.65382385253906 -1.5634671449661255 0.9076473712921143
35.66059875488281 -1.4896258115768433 0.9077387452125549
35.66070556640625 -1.3392114639282227 0.9073700308799744
35.5922737121582 -1.1126208305358887 0.9054369330406189
35.534481048583984 -0.8872450590133667 0.9038059115409851
35.54765701293945 -0.7377891540527344 0.9040529131889343
35.50772476196289 -0.5136668682098389 0.9029380679130554
35.50929260253906 -0.43977028131484985 0.9029529094696045
35.461692810058594 -0.3636336326599121 0.9017205238342285
35.439762115478516 -0.28985804319381714 0.9030941724777222
35.43130111694336 -0.21604157984256744 0.9024304747581482
35.404541015625 -0.14046065509319305 0.9017395973205566
35.36328887939453 -0.06669406592845917 0.9006838798522949
18.23223114013672 7.960522174835205 0.41703441739082336
17.413131713867188 7.953481197357178 0.39778947830200195
14.303451538085938 7.927520751953125 0.3255338966846466
14.09538745880127 7.92844295501709 0.3209390938282013
13.881369590759277 7.923346519470215 0.3153393566608429
13.735906600952148 7.917198181152344 0.31182152032852173
13.688103675842285 7.927533149719238 0.3110128343105316
13.53555679321289 7.9154953956604 0.3073442876338959
13.47046184539795 7.914987564086914 0.30623844265937805
13.33033275604248 7.908360481262207 0.3028608560562134
13.156277656555176 7.917339324951172 0.2998445928096771
11.509384155273438 7.882659435272217 0.2621046304702759
11.360668182373047 7.88618278503418 0.25891363620758057
11.194673538208008 7.875702381134033 0.25466540455818176
11.052227020263672 7.87982177734375 0.2516356408596039
11.003028869628906 7.87923526763916 0.2501432001590729
10.93990707397461 7.869443893432617 0.24900810420513153
10.884906768798828 7.864207744598389 0.24738872051239014
10.853437423706055 7.875801086425781 0.24696312844753265
10.801983833312988 7.873745918273926 0.24543963372707367
10.745323181152344 7.86664342880249 0.2444416880607605
10.655031204223633 7.869677543640137 0.24160246551036835
10.60277271270752 7.865138530731201 0.24070680141448975
10.447761535644531 7.852452278137207 0.23822420835494995
10.311370849609375 7.851966381072998 0.23473231494426727
10.186482429504395 7.858525276184082 0.23214596509933472
9.267619132995605 7.824495315551758 0.21078349649906158
9.152711868286133 7.826563835144043 0.20847684144973755
9.038043022155762 7.827407360076904 0.20552240312099457
8.912014961242676 7.81684684753418 0.20239397883415222
8.882813453674316 7.824775695800781 0.2020370066165924
8.854244232177734 7.832396984100342 0.2010360062122345
8.795781135559082 7.814141273498535 0.20008531212806702
8.760822296142578 7.815673828125 0.19894202053546906
8.728693962097168 7.81969690322876 0.19793760776519775
8.672041893005371 7.80230712890625 0.1969582736492157
8.646315574645996 7.811784744262695 0.19610239565372467
8.600171089172363 7.802570343017578 0.1953522264957428
8.560672760009766 7.800044059753418 0.19412446022033691
8.525145530700684 7.8002095222473145 0.193686842918396
8.452739715576172 7.79951810836792 0.1921529918909073
8.426605224609375 7.807936191558838 0.19122642278671265
8.346461296081543 7.799262046813965 0.18945421278476715
8.315680503845215 7.802885055541992 0.18912240862846375
8.23812198638916 7.7956109046936035 0.18734237551689148
8.199390411376953 7.791275501251221 0.18620702624320984
8.132284164428711 7.792944431304932 0.18473879992961884
8.028839111328125 7.791226863861084 0.1821322739124298
7.421200275421143 7.766977310180664 0.167733833193779
7.335175514221191 7.774209976196289 0.16558587551116943
7.297630310058594 7.76664400100708 0.1651017963886261
7.23491907119751 7.765175819396973 0.16319003701210022
7.2088117599487305 7.769419193267822 0.16290025413036346
7.164166450500488 7.754459857940674 0.1616205871105194
7.138169765472412 7.758561611175537 0.16081742942333221
7.116993427276611 7.767834663391113 0.1606391966342926
7.086401462554932 7.767693996429443 0.15974491834640503
7.049248695373535 7.759248733520508 0.1592063307762146
7.021595478057861 7.761109352111816 0.158306285738945
6.992789268493652 7.762537479400635 0.1574559509754181
6.959887504577637 7.758328437805176 0.15701398253440857
6.9377312660217285 7.766946792602539 0.15625254809856415
6.902642250061035 7.760016918182373 0.15531645715236664
6.878853797912598 7.765665531158447 0.15451012551784515
6.834208965301514 7.7485504150390625 0.15387877821922302
6.809643268585205 7.753071308135986 0.15305761992931366
6.781380653381348 7.753284931182861 0.1521548479795456
6.75166654586792 7.752670764923096 0.15185941755771637
6.725148677825928 7.754654884338379 0.15099793672561646
6.685307025909424 7.741206645965576 0.15046481788158417
6.6634931564331055 7.749256134033203 0.14972111582756042
6.622444152832031 7.733925819396973 0.1485375016927719
6.602051734924316 7.743532657623291 0.1484507918357849
6.577537536621094 7.747286319732666 0.14764034748077393
6.5527448654174805 7.7506279945373535 0.1468249410390854
6.518862724304199 7.744044303894043 0.14643608033657074
6.487335681915283 7.739133834838867 0.14547187089920044
6.463160037994385 7.742873668670654 0.1447351723909378
6.407679080963135 7.742456436157227 0.1435471922159195
6.3322906494140625 7.750044822692871 0.1417250633239746
6.229365825653076 7.722753524780273 0.13929492235183716
6.162135601043701 7.738458156585693 0.13772886991500854
6.075511455535889 7.728888988494873 0.1356758177280426
5.991239070892334 7.721973419189453 0.13375070691108704
5.94113302230835 7.723463535308838 0.13269370794296265
5.918026447296143 7.7274298667907715 0.1320095807313919
5.862351894378662 7.721004486083984 0.13083215057849884
5.837992191314697 7.723024845123291 0.13012298941612244
5.788866996765137 7.724571704864502 0.12909461557865143
5.763638019561768 7.7251434326171875 0.12836891412734985
5.705710411071777 7.714193344116211 0.12714767456054688
5.687463283538818 7.723883152008057 0.1265799105167389
5.6583356857299805 7.717916488647461 0.1257047951221466
5.633747100830078 7.7179155349731445 0.12545615434646606
5.5973334312438965 7.7024312019348145 0.1239636242389679
5.575531482696533 7.706104755401611 0.12383582442998886
5.549461364746094 7.704578399658203 0.12304092198610306
5.532412528991699 7.714715003967285 0.12243905663490295
5.505171298980713 7.710464000701904 0.12219002097845078
5.479400634765625 7.709040641784668 0.12140518426895142
5.453662395477295 7.7067461013793945 0.12061367183923721
5.428993225097656 7.70574951171875 0.12042129039764404
5.398891925811768 7.697800636291504 0.11954305320978165
5.388075351715088 7.716490745544434 0.11908413469791412
5.348616123199463 7.6948466300964355 0.11857439577579498
5.327280044555664 7.698189735412598 0.11788403242826462
5.303737640380859 7.698361396789551 0.11714654415845871
5.272696495056152 7.6883087158203125 0.11682255566120148
5.251144886016846 7.691153049468994 0.11613065004348755
5.235311508178711 7.702238082885742 0.11556526273488998
5.19846248626709 7.683177947998047 0.11511347442865372
5.186342716217041 7.699744701385498 0.11463239789009094
5.165394306182861 7.703094482421875 0.11395629495382309
5.138826370239258 7.698878288269043 0.11367574334144592
5.113658905029297 7.695811748504639 0.11296491324901581
5.085770606994629 7.6884074211120605 0.11213867366313934
5.071414947509766 7.702311038970947 0.11212756484746933
5.046476364135742 7.699275493621826 0.11142392456531525
5.021617889404297 7.697061538696289 0.11067568510770798
4.996275901794434 7.6931586265563965 0.10991023480892181
4.972469329833984 7.691396713256836 0.10973738133907318
4.94422721862793 7.683560848236084 0.10891707241535187
4.908473968505859 7.663000106811523 0.1079258844256401
4.906060695648193 7.694340229034424 0.10772110521793365
4.871810436248779 7.676752090454102 0.10727404057979584
4.845531940460205 7.6704816818237305 0.10649187862873077
4.82321834564209 7.670364856719971 0.10585286468267441
4.810044288635254 7.6858015060424805 0.10586859285831451
4.778347015380859 7.67050313949585 0.10496953874826431
4.759698390960693 7.676016330718994 0.10441292822360992
4.7343668937683105 7.671706676483154 0.10416209697723389
4.708433151245117 7.6652302742004395 0.10339193046092987
4.668168544769287 7.671939849853516 0.1026684045791626
4.649669647216797 7.677369594573975 0.10206316411495209
4.621145725250244 7.6671881675720215 0.10125023871660233
4.594192028045654 7.658370018005371 0.10100779682397842
4.588357925415039 7.684750080108643 0.10068326443433762
4.565978527069092 7.6845173835754395 0.10000643879175186
4.5361247062683105 7.670475959777832 0.09970133006572723
4.512529373168945 7.666844844818115 0.09898927062749863
4.496376037597656 7.676868915557861 0.0984511524438858
4.475235939025879 7.6772637367248535 0.09779424965381622
4.4402666091918945 7.654705047607422 0.09733293205499649
4.417819023132324 7.652658462524414 0.09670364111661911
18.20773696899414 8.640970230102539 0.5811410546302795
17.901655197143555 8.634013175964355 0.5718786120414734
14.62147331237793 8.5086669921875 0.47105902433395386
14.387899398803711 8.494272232055664 0.46422457695007324
14.25257682800293 8.495526313781738 0.4599952697753906
14.190370559692383 8.498408317565918 0.4576460123062134
14.036444664001465 8.486742973327637 0.4528287649154663
13.960211753845215 8.480260848999023 0.45083677768707275
13.809386253356934 8.468462944030762 0.44612428545951843
13.613409996032715 8.466506004333496 0.44052475690841675
13.42674446105957 8.467933654785156 0.4342590868473053
13.226537704467773 8.458354949951172 0.42939960956573486
11.528070449829102 8.365349769592285 0.3788660764694214
11.368799209594727 8.359380722045898 0.3737136423587799
11.263277053833008 8.35509967803955 0.3705417513847351
11.205840110778809 8.34859848022461 0.36913660168647766
11.100790023803711 8.343263626098633 0.3659818768501282
11.049703598022461 8.340806007385254 0.36410605907440186
10.961153984069824 8.346661567687988 0.36150190234184265
10.907304763793945 8.341472625732422 0.36021244525909424
10.810379028320312 8.33973503112793 0.3573344349861145
10.75190544128418 8.330273628234863 0.3552243113517761
10.651329040527344 8.324369430541992 0.35223090648651123
10.627086639404297 8.341005325317383 0.3511762320995331
10.526703834533691 8.334096908569336 0.34967267513275146
10.467947006225586 8.322976112365723 0.34755799174308777
10.377849578857422 8.322915077209473 0.3449147343635559
9.264307975769043 8.263927459716797 0.3120209872722626
9.139226913452148 8.256107330322266 0.3087230920791626
9.050159454345703 8.245129585266113 0.30546337366104126
9.005605697631836 8.23971176147461 0.30447691679000854
8.943134307861328 8.251106262207031 0.3027789890766144
8.889293670654297 8.236555099487305 0.30088284611701965
8.816107749938965 8.237109184265137 0.2987518608570099
8.786977767944336 8.245019912719727 0.29769667983055115
8.727645874023438 8.223472595214844 0.29619136452674866
8.706351280212402 8.237682342529297 0.29539045691490173
8.665209770202637 8.233808517456055 0.29451632499694824
8.61577033996582 8.22102165222168 0.29268956184387207
8.565792083740234 8.20736026763916 0.29091688990592957
8.539557456970215 8.217185974121094 0.29054805636405945
8.502111434936523 8.215300559997559 0.28920498490333557
8.470803260803223 8.220012664794922 0.2886638641357422
8.41642951965332 8.201229095458984 0.2874608337879181
8.399925231933594 8.21929931640625 0.2867634892463684
8.315682411193848 8.205703735351562 0.28435105085372925
8.28101921081543 8.205486297607422 0.28303539752960205
8.204410552978516 8.19834041595459 0.2808862626552582
8.166118621826172 8.194016456604004 0.2794502079486847
8.094375610351562 8.190729141235352 0.27746978402137756
7.980492115020752 8.177682876586914 0.27392715215682983
7.872758865356445 8.169408798217773 0.27129414677619934
7.374773025512695 8.151483535766602 0.25627341866493225
7.281466007232666 8.150763511657715 0.253471702337265
7.216721057891846 8.147090911865234 0.2516794502735138
7.1789374351501465 8.138399124145508 0.25035324692726135
7.151902198791504 8.141746520996094 0.2499331831932068
7.120903968811035 8.14146900177002 0.24886247515678406
7.08634614944458 8.135967254638672 0.24817849695682526
7.063142776489258 8.143385887145996 0.24729913473129272
7.030247688293457 8.140528678894043 0.24616402387619019
6.998301982879639 8.137614250183105 0.24557113647460938
6.960856914520264 8.128131866455078 0.24419479072093964
6.934821128845215 8.132831573486328 0.2433028519153595
6.91324520111084 8.141688346862793 0.24307334423065186
6.870771884918213 8.126792907714844 0.24160441756248474
6.8332743644714355 8.116541862487793 0.24022959172725677
6.8130269050598145 8.126663208007812 0.23952707648277283
6.788887977600098 8.133095741271973 0.23928868770599365
6.7503814697265625 8.121163368225098 0.23788009583950043
6.718896865844727 8.117494583129883 0.2367202341556549
6.6802167892456055 8.10595417022705 0.2359669804573059
6.662886142730713 8.119196891784668 0.23530808091163635
6.627593040466309 8.111462593078613 0.23409698903560638
6.605340003967285 8.118555068969727 0.23384207487106323
6.566487789154053 8.105101585388184 0.23242458701133728
6.549475193023682 8.119503021240234 0.23243583738803864
6.511295318603516 8.106538772583008 0.23104244470596313
6.486817836761475 8.110479354858398 0.23013640940189362
6.4562201499938965 8.107669830322266 0.22966480255126953
6.423712253570557 8.101290702819824 0.22847464680671692
6.39259672164917 8.09660530090332 0.2273368239402771
6.3678297996521 8.100656509399414 0.2270691990852356
6.335683345794678 8.094278335571289 0.22589370608329773
6.315314769744873 8.102944374084473 0.22514092922210693
6.2628397941589355 8.105690002441406 0.22385793924331665
6.176358222961426 8.098484992980957 0.22133831679821014
6.086297035217285 8.085409164428711 0.21819880604743958
5.992989540100098 8.066498756408691 0.21544033288955688
5.916366100311279 8.068836212158203 0.21328307688236237
5.863493919372559 8.067758560180664 0.2119910567998886
5.788148880004883 8.070287704467773 0.20988410711288452
5.759668350219727 8.066804885864258 0.20941385626792908
5.708052158355713 8.065189361572266 0.20760753750801086
5.674060821533203 8.053487777709961 0.2063930779695511
5.658268928527832 8.066679954528809 0.20636913180351257
5.618826389312744 8.046854019165039 0.20501559972763062
5.602255344390869 8.058698654174805 0.20496103167533875
5.581234931945801 8.064220428466797 0.20420680940151215
5.550376892089844 8.056253433227539 0.20316706597805023
5.5183587074279785 8.045464515686035 0.20201019942760468
5.498353004455566 8.052173614501953 0.2012956291437149
5.465996742248535 8.041520118713379 0.20020294189453125
5.436734676361084 8.034279823303223 0.19974124431610107
5.420318603515625 8.046049118041992 0.1991603523492813
5.395603179931641 8.046298027038574 0.19828999042510986
5.369279384613037 8.043179512023926 0.19793781638145447
5.336236000061035 8.029716491699219 0.1967448592185974
5.314403057098389 8.033936500549316 0.1959819197654724
5.2976975440979 8.045019149780273 0.1959829032421112
5.2678303718566895 8.036882400512695 0.19492413103580475
5.244377613067627 8.037430763244629 0.1940871924161911
5.213056564331055 8.025879859924316 0.19354599714279175
5.1994733810424805 8.04241943359375 0.1930924355983734
5.158703327178955 8.015791893005371 0.1916138082742691
5.141387939453125 8.025541305541992 0.19153264164924622
5.118946075439453 8.028109550476074 0.19080962240695953
5.095393180847168 8.027978897094727 0.18997372686862946
5.071141242980957 8.02653694152832 0.18963223695755005
5.0494384765625 8.030014991760254 0.18893791735172272
5.020318984985352 8.020703315734863 0.18789546191692352
5.002525329589844 8.029276847839355 0.18779495358467102
4.971325397491455 8.017308235168457 0.18674752116203308
4.957627296447754 8.032386779785156 0.1862821877002716
4.927237510681152 8.020340919494629 0.18570825457572937
4.903864860534668 8.020661354064941 0.18443897366523743
4.878997325897217 8.017325401306152 0.184071883559227
4.853621959686279 8.014019966125488 0.18318629264831543
4.830508708953857 8.013447761535645 0.18237152695655823
4.807868003845215 8.013452529907227 0.1821443885564804
4.772816181182861 7.99357795715332 0.18089258670806885
4.760929584503174 8.011504173278809 0.18050427734851837
4.72874116897583 7.9950714111328125 0.17991295456886292
4.705166816711426 7.994139671325684 0.17909902334213257
4.6764984130859375 7.983282089233398 0.178072988986969
4.632024765014648 7.9842705726623535 0.17709502577781677
4.607608795166016 7.980292797088623 0.17623130977153778
4.571065902709961 7.994565010070801 0.17555758357048035
4.536196231842041 7.971928119659424 0.17429356276988983
4.499614238739014 7.985691547393799 0.17361877858638763
4.478930950164795 7.987697124481201 0.17290055751800537
4.446074962615967 7.968958377838135 0.17173191905021667
4.434893608093262 7.987831115722656 0.17193996906280518
4.417730808258057 7.995975017547607 0.171359583735466
4.396147727966309 7.99722146987915 0.17062757909297943
4.362686634063721 7.9755120277404785 0.16991592943668365
4.319733142852783 7.976593017578125 0.1684970110654831
4.300060272216797 7.979767799377441 0.16782154142856598
36.7296142578125 1.7876707315444946 1.0616785287857056
36.68372344970703 1.940326452255249 1.060577154159546
36.64961242675781 2.169649362564087 1.0579493045806885
36.60768127441406 2.3219172954559326 1.054996371269226
36.5609016418457 2.3951358795166016 1.0517748594284058
36.509395599365234 2.622365951538086 1.0507481098175049
35.8569221496582 4.85906982421875 1.022154688835144
35.74807357788086 4.997722148895264 1.0174369812011719
35.65689468383789 5.060438632965088 1.0151381492614746
35.545406341552734 5.197421550750732 1.0125799179077148
35.503360748291016 5.266547679901123 1.011469841003418
35.40721130371094 5.4047770500183105 1.0074032545089722
35.35979461669922 5.472650527954102 1.0063749551773071
35.271949768066406 5.6112589836120605 1.0043178796768188
34.03065490722656 7.262404918670654 0.9583079218864441
33.90019989013672 7.457691669464111 0.944503128528595
33.797607421875 7.584485054016113 0.9406256079673767
33.767398834228516 7.651343822479248 0.9400111436843872
33.65616226196289 7.775299549102783 0.9359214305877686
33.63467025756836 7.843894004821777 0.9355592131614685
33.520870208740234 7.966350078582764 0.9333206415176392
33.48125076293945 8.030375480651855 0.930575430393219
33.319576263427734 8.140144348144531 0.9270292520523071
33.33791732788086 8.217972755432129 0.926127016544342
33.24290084838867 8.34321403503418 0.9242410659790039
33.165531158447266 8.396994590759277 0.9225728511810303
32.78952407836914 8.448895454406738 0.9110240936279297
27.437786102294922 8.437432289123535 0.7521772980690002
27.009119033813477 8.430277824401855 0.7412201166152954
26.809221267700195 8.430595397949219 0.7346795797348022
26.407718658447266 8.425114631652832 0.7244574427604675
26.209026336669922 8.423274040222168 0.7179877161979675
25.825525283813477 8.420182228088379 0.7038028240203857
25.620067596435547 8.412053108215332 0.6968657970428467
25.438966751098633 8.411286354064941 0.6924143433570862
25.26786231994629 8.414459228515625 0.6866147518157959
25.066883087158203 8.405359268188477 0.6816278696060181
24.90586280822754 8.409072875976562 0.6775619387626648
24.723970413208008 8.406370162963867 0.6716651320457458
24.559736251831055 8.407427787780762 0.6676750183105469
24.217092514038086 8.404236793518066 0.6577494740486145
24.047807693481445 8.40160846710205 0.6536253094673157
23.69690704345703 8.390995979309082 0.6435064673423767
23.54400062561035 8.392040252685547 0.6396718621253967
23.215681076049805 8.38537311553955 0.6303489804267883
22.747678756713867 8.378366470336914 0.617428719997406
20.22014617919922 8.327665328979492 0.5461522936820984
20.094188690185547 8.324604034423828 0.5432137250900269
19.85498046875 8.32364559173584 0.5363748073577881
19.731231689453125 8.321227073669434 0.5322023630142212
19.494640350341797 8.317059516906738 0.525584876537323
19.371444702148438 8.313319206237793 0.5226104259490967
19.248109817504883 8.30787181854248 0.5197486281394958
19.14658546447754 8.312478065490723 0.51621013879776
19.041845321655273 8.31401252746582 0.5138491988182068
18.93711280822754 8.315256118774414 0.5102237462997437
18.814769744873047 8.309382438659668 0.5082815885543823
18.694072723388672 8.302480697631836 0.5042370557785034
18.579954147338867 8.298139572143555 0.5016229152679443
18.488231658935547 8.304457664489746 0.4996231198310852
18.36536979675293 8.29525089263916 0.49553781747817993
18.27375602722168 8.29957103729248 0.4935290813446045
18.161136627197266 8.295130729675293 0.48974427580833435
18.040037155151367 8.285243034362793 0.48694321513175964
17.83916473388672 8.284140586853027 0.48125699162483215
17.733888626098633 8.280033111572266 0.4776839315891266
17.53154182434082 8.275662422180176 0.47304925322532654
17.45287322998047 8.282859802246094 0.4703269600868225
17.23940658569336 8.270685195922852 0.4643404483795166
15.839993476867676 8.22262191772461 0.42752349376678467
15.582236289978027 8.213584899902344 0.42076799273490906
15.494309425354004 8.208370208740234 0.4178893566131592
15.350934028625488 8.215394020080566 0.4138879179954529
15.26297378540039 8.209110260009766 0.411868691444397
15.183934211730957 8.208468437194824 0.40925949811935425
15.078609466552734 8.192009925842285 0.4067734479904175
15.007118225097656 8.194619178771973 0.404375284910202
14.923644065856934 8.189407348632812 0.40248018503189087
14.869367599487305 8.199817657470703 0.40054064989089966
14.766469955444336 8.184142112731934 0.39813506603240967
14.700840950012207 8.187808990478516 0.39589905738830566
14.62818431854248 8.188217163085938 0.39430901408195496
14.543072700500488 8.180257797241211 0.3915545344352722
14.472260475158691 8.180123329162598 0.39000359177589417
14.385066032409668 8.171319961547852 0.38882896304130554
14.299894332885742 8.162351608276367 0.38698509335517883
14.25342082977295 8.175086975097656 0.38518226146698
14.174867630004883 8.170208930969238 0.3835289478302002
14.099235534667969 8.165756225585938 0.3809465765953064
13.94709300994873 8.156271934509277 0.3767738938331604
13.889782905578613 8.16148567199707 0.3755837678909302
13.729419708251953 8.145235061645508 0.3703197240829468
13.660062789916992 8.14245891571045 0.3689040243625641
13.546031951904297 8.15200138092041 0.36578288674354553
13.464344024658203 8.140950202941895 0.36307162046432495
12.576690673828125 8.118803024291992 0.3413151502609253
12.397517204284668 8.114006996154785 0.3361111283302307
12.200634956359863 8.095160484313965 0.33035796880722046
12.172908782958984 8.113197326660156 0.3299739360809326
12.020225524902344 8.084750175476074 0.32507357001304626
11.969862937927246 8.087003707885742 0.32416462898254395
11.928349494934082 8.096122741699219 0.32262876629829407
11.86570930480957 8.089625358581543 0.32130002975463867
11.801472663879395 8.082708358764648 0.31923961639404297
11.754487991333008 8.086520195007324 0.31833672523498535
11.683805465698242 8.0736665725708 0.3160945773124695
11.64548110961914 8.08388900756836 0.31465718150138855
11.577432632446289 8.072410583496094 0.3132714033126831
11.53359603881836 8.078413009643555 0.31169062852859497
11.473623275756836 8.072052955627441 0.31043770909309387
11.412165641784668 8.0642728805542 0.30845844745635986
11.370589256286621 8.07126235961914 0.3077140748500824
11.31861400604248 8.069849014282227 0.3067615032196045
11.254280090332031 8.059259414672852 0.30462539196014404
11.208381652832031 8.062667846679688 0.30376362800598145
11.14547348022461 8.052565574645996 0.3017551004886627
11.101977348327637 8.056258201599121 0.3001920282840729
11.045991897583008 8.05171012878418 0.29914236068725586
11.000597953796387 8.053631782531738 0.29753243923187256
10.890328407287598 8.043567657470703 0.29463696479797363
10.847352981567383 8.046669006347656 0.2931012809276581
10.69501781463623 8.038389205932617 0.288710355758667
10.556711196899414 8.038787841796875 0.2855260372161865
10.02982234954834 8.010758399963379 0.27072709798812866
9.891818046569824 8.002906799316406 0.2668014466762543
9.860774993896484 8.01170539855957 0.26571378111839294
9.755505561828613 7.99461555480957 0.2630111873149872
9.716078758239746 7.996067047119141 0.2616269588470459
9.67010498046875 7.992941856384277 0.2607714831829071
9.62665843963623 7.990713119506836 0.2593582570552826
9.572710037231445 7.979543209075928 0.25758957862854004
9.538300514221191 7.985456943511963 0.2570466995239258
9.490018844604492 7.978590965270996 0.2555098831653595
9.444229125976562 7.973603248596191 0.25464683771133423
9.405118942260742 7.9750590324401855 0.2532980442047119
9.361589431762695 7.971602916717529 0.25189441442489624
9.332080841064453 7.979942798614502 0.2514709234237671
9.274099349975586 7.964723110198975 0.24969449639320374
9.25130558013916 7.978565216064453 0.24877992272377014
9.209829330444336 7.977165699005127 0.24804866313934326
9.155529022216797 7.963447093963623 0.24636335670948029
9.122700691223145 7.968207359313965 0.24525883793830872
9.083317756652832 7.968079566955566 0.24391955137252808
9.032733917236328 7.956936359405518 0.24226893484592438
9.0007963180542 7.962133407592773 0.24185626208782196
8.956572532653809 7.957085132598877 0.24039113521575928
8.909003257751465 7.947965621948242 0.2388274371623993
8.871487617492676 7.948596000671387 0.23827672004699707
8.839040756225586 7.952653884887695 0.237122043967247
8.801582336425781 7.95206356048584 0.23583467304706573
8.751813888549805 7.941123008728027 0.23495487868785858
8.709202766418457 7.935474395751953 0.2335333377122879
8.678817749023438 7.940814018249512 0.23244185745716095
8.615097045898438 7.949425220489502 0.23091453313827515
8.561786651611328 7.933289527893066 0.22921478748321533
8.483308792114258 7.9271368980407715 0.22729502618312836
8.381577491760254 7.931360721588135 0.22449198365211487
8.252921104431152 7.9086432456970215 0.220978245139122
8.156006813049316 7.914728164672852 0.21714355051517487
8.0780029296875 7.905360221862793 0.2145710587501526
8.045135498046875 7.9068145751953125 0.21414487063884735
7.964616298675537 7.893028736114502 0.211503803730011
7.939398288726807 7.901629447937012 0.21128061413764954
7.867560386657715 7.895496368408203 0.2088792771100998
7.832513809204102 7.893885612487793 0.20771582424640656
7.763625621795654 7.890644550323486 0.20609252154827118
7.723955154418945 7.8829803466796875 0.20479939877986908
7.701056957244873 7.892402648925781 0.20462734997272491
7.652509689331055 7.8761444091796875 0.20311221480369568
7.634402751922607 7.890204429626465 0.2023954540491104
7.586018085479736 7.872921466827393 0.20154671370983124
7.562422752380371 7.881967544555664 0.20069849491119385
7.522863388061523 7.873376846313477 0.19941695034503937
7.497513771057129 7.879613876342773 0.1985151767730713
7.452062129974365 7.865329265594482 0.1977549046278
7.433376789093018 7.878289222717285 0.197031170129776
7.39811897277832 7.874553680419922 0.19469454884529114
7.357396125793457 7.8638458251953125 0.19346007704734802
7.328159332275391 7.8653459548950195 0.19246497750282288
7.305000305175781 7.87405252456665 0.19229677319526672
7.269960403442383 7.8689703941345215 0.19114981591701508
7.238226890563965 7.867411136627197 0.1900925636291504
7.199222564697266 7.858546257019043 0.18950767815113068
7.172474384307861 7.862138748168945 0.18858397006988525
7.141161918640137 7.860515117645264 0.18754106760025024
7.111691951751709 7.861659049987793 0.18655893206596375
7.076857566833496 7.855954647064209 0.18607382476329803
7.058541774749756 7.868397235870361 0.18537530303001404
7.018495559692383 7.857364177703857 0.18411985039710999
6.986204147338867 7.8540544509887695 0.1836371272802353
6.950700759887695 7.847738742828369 0.18256719410419464
6.9281907081604 7.855106353759766 0.18176376819610596
6.896024227142334 7.851515293121338 0.1807100623846054
6.861480712890625 7.845831394195557 0.1802426129579544
6.840139389038086 7.8543572425842285 0.17947493493556976
6.767806053161621 7.837606906890869 0.1777452826499939
6.739030361175537 7.837198257446289 0.1768498420715332
6.679987907409668 7.834943771362305 0.17490588128566742
6.657832145690918 7.84195613861084 0.17468996345996857
6.602033615112305 7.8429436683654785 0.1717739701271057
6.563054084777832 7.829558372497559 0.1706211268901825
6.514430522918701 7.838367938995361 0.16896885633468628
6.469118595123291 7.816789627075195 0.16815246641635895
6.427340030670166 7.8332390785217285 0.16674701869487762
6.362626075744629 7.8213090896606445 0.165243998169899
6.326968193054199 7.8105316162109375 0.16418635845184326
6.274200439453125 7.812429428100586 0.16299670934677124
6.256483554840088 7.823568820953369 0.16234594583511353
6.195119857788086 7.8140764236450195 0.1604490876197815
6.168384552001953 7.813608169555664 0.160116046667099
6.1050920486450195 7.800760269165039 0.15817564725875854
6.093225002288818 7.818974018096924 0.15768183767795563
6.049712181091309 7.797435283660889 0.15692734718322754
6.035311698913574 7.812294960021973 0.15637141466140747
5.993887901306152 7.792930603027344 0.15518732368946075
5.971275329589844 7.797057151794434 0.15388262271881104
5.9459052085876465 7.797397613525391 0.15304647386074066
5.917266368865967 7.794219017028809 0.15213915705680847
5.88985538482666 7.791731357574463 0.15125508606433868
5.862307071685791 7.788836479187012 0.15090268850326538
5.833468914031982 7.784979820251465 0.1500522345304489
5.81985330581665 7.800589084625244 0.1495247185230255
5.796740531921387 7.804239749908447 0.14876344799995422
5.761654853820801 7.790825366973877 0.1482207030057907
5.7342047691345215 7.787458896636963 0.1473989635705948
5.710242748260498 7.789614677429199 0.14661920070648193
5.686735153198242 7.791504859924316 0.14584246277809143
5.6699042320251465 7.802394866943359 0.1457662731409073
5.620853424072266 7.769743919372559 0.14434753358364105
5.6111159324646 7.790274143218994 0.14398342370986938
5.567848205566406 7.7641282081604 0.14270393550395966
5.553003787994385 7.778461456298828 0.14269106090068817
5.528812408447266 7.778658866882324 0.1419006735086441
5.506979942321777 7.782999515533447 0.14124120771884918
5.474859237670898 7.771857738494873 0.1402522176504135
5.44895076751709 7.769275188446045 0.139943465590477
5.424077033996582 7.7689595222473145 0.1391505002975464
5.40363883972168 7.774106502532959 0.13846293091773987
5.375980854034424 7.768665790557861 0.13764773309230804
5.341198921203613 7.753748893737793 0.13660718500614166
5.320425510406494 7.758005142211914 0.13585564494132996
5.3033342361450195 7.767592906951904 0.1358291506767273
5.276379108428955 7.763675689697266 0.13499049842357635
5.256265163421631 7.768709182739258 0.13431550562381744
5.234594345092773 7.771378993988037 0.13360175490379333
5.206039905548096 7.764733791351318 0.1332389861345291
5.1767683029174805 7.755823612213135 0.13238950073719025
5.13227653503418 7.759739875793457 0.13094918429851532
5.105579376220703 7.754302024841309 0.13011287152767181
5.058530807495117 7.753743648529053 0.1291791796684265
5.035572528839111 7.753665924072266 0.12843915820121765
5.013528823852539 7.755945682525635 0.127735897898674
4.979948043823242 7.739175796508789 0.12723365426063538
4.934736728668213 7.740356922149658 0.125844806432724
4.906844139099121 7.731956958770752 0.12498334050178528
4.894072532653809 7.748369216918945 0.12502315640449524
4.868417263031006 7.743293285369873 0.12421984225511551
4.8459978103637695 7.74324893951416 0.12355530261993408
4.82676362991333 7.749279022216797 0.1229294016957283
4.802352428436279 7.745859146118164 0.12215999513864517
4.771862983703613 7.732467174530029 0.12173750251531601
4.74519681930542 7.726138114929199 0.12092479318380356
4.730091094970703 7.737502098083496 0.1208934560418129
4.705409526824951 7.7331438064575195 0.12011999636888504
4.683472156524658 7.734249114990234 0.11942915618419647
4.654383659362793 7.722334861755371 0.11854609847068787
4.630007266998291 7.719141960144043 0.11785020679235458
4.611728191375732 7.724963188171387 0.11773762851953506
4.592436790466309 7.72904634475708 0.11710551381111145
4.570384979248047 7.729485511779785 0.11641594767570496
4.536235332489014 7.708198547363281 0.11540770530700684
4.518438339233398 7.714537620544434 0.11487037688493729
4.493964672088623 7.710474014282227 0.11461255699396133
4.480141639709473 7.723554611206055 0.11412271857261658
4.447160720825195 7.703485012054443 0.11314675211906433
43.810081481933594 2.9613544940948486 1.6248396635055542
43.719974517822266 3.2314915657043457 1.621949553489685
43.63576889038086 3.5012192726135254 1.6196091175079346
43.58598709106445 3.6820294857025146 1.6159181594848633
43.47244644165039 3.9478323459625244 1.6123266220092773
43.391754150390625 4.215702056884766 1.605760097503662
42.43324661254883 6.384544849395752 1.5608601570129395
42.25920867919922 6.630301475524902 1.5533474683761597
42.18570327758789 6.800926685333252 1.5516852140426636
42.121917724609375 6.880357265472412 1.549597978591919
42.00609588623047 7.043190956115723 1.5440740585327148
41.99692153930664 7.131284713745117 1.5442777872085571
41.86930847167969 7.291159629821777 1.5381028652191162
41.685970306396484 7.529542922973633 1.5328142642974854
41.53883743286133 7.772936820983887 1.5268491506576538
40.12799835205078 9.712685585021973 1.4674783945083618
39.40492248535156 9.713521957397461 1.440291404724121
39.05989456176758 9.714497566223145 1.4171133041381836
38.28696823120117 9.6936616897583 1.3883723020553589
37.947181701660156 9.691472053527832 1.3767757415771484
37.23046112060547 9.675626754760742 1.3498878479003906
36.876792907714844 9.665454864501953 1.3377881050109863
36.22547149658203 9.657965660095215 1.3133318424224854
35.90018081665039 9.651081085205078 1.3022619485855103
35.28860855102539 9.646207809448242 1.2793028354644775
34.381935119628906 9.631067276000977 1.2464231252670288
33.459190368652344 9.599842071533203 1.2130080461502075
28.135709762573242 9.432671546936035 1.01487135887146
27.477985382080078 9.404733657836914 0.9898911118507385
27.255361557006836 9.393441200256348 0.9824109077453613
26.828746795654297 9.373003005981445 0.9668874740600586
26.621456146240234 9.362615585327148 0.9599406123161316
26.42706871032715 9.35610294342041 0.953630268573761
26.23680877685547 9.3516845703125 0.9457784295082092
26.038381576538086 9.341902732849121 0.9347654581069946
25.8553409576416 9.337018966674805 0.9285485148429871
25.661331176757812 9.3287935256958 0.920792281627655
25.467355728149414 9.318333625793457 0.9143576622009277
25.275754928588867 9.30932331085205 0.9067097902297974
25.08249282836914 9.297300338745117 0.9004668593406677
24.911174774169922 9.292816162109375 0.8948455452919006
24.547191619873047 9.274813652038574 0.8815610408782959
24.052507400512695 9.261284828186035 0.8642936944961548
23.529441833496094 9.230147361755371 0.8446333408355713
23.045883178710938 9.208047866821289 0.8278207778930664
20.871835708618164 9.111654281616211 0.7496378421783447
20.453603744506836 9.082586288452148 0.735285758972168
20.07981300354004 9.068153381347656 0.7213261723518372
19.82889175415039 9.055567741394043 0.7135408520698547
19.676809310913086 9.036816596984863 0.7074377536773682
19.572471618652344 9.038128852844238 0.7043589353561401
19.457172393798828 9.034065246582031 0.6995728611946106
19.354665756225586 9.036635398864746 0.6965778470039368
19.219518661499023 9.022305488586426 0.6910908818244934
19.10838508605957 9.018575668334961 0.6877672076225281
18.984622955322266 9.009660720825195 0.6827167272567749
18.870418548583984 9.003630638122559 0.6801745295524597
18.768577575683594 9.00290298461914 0.677047848701477
18.664081573486328 9.001730918884277 0.6728288531303406
18.55031394958496 8.994501113891602 0.6694007515907288
18.317155838012695 8.976921081542969 0.6611002683639526
18.223405838012695 8.977924346923828 0.6571449637413025
18.0084228515625 8.966456413269043 0.649519145488739
17.69244956970215 8.948369026184082 0.6389269828796387
17.378992080688477 8.927473068237305 0.6272342205047607
15.940187454223633 8.833516120910645 0.5790453553199768
15.674769401550293 8.815686225891113 0.570196270942688
15.424125671386719 8.802812576293945 0.5610196590423584
15.261662483215332 8.79550552368164 0.555268406867981
15.209883689880371 8.807762145996094 0.5530819892883301
15.11313247680664 8.794776916503906 0.5501366257667542
15.01976490020752 8.782341957092285 0.5464459657669067
14.947517395019531 8.782876014709473 0.5443905591964722
14.878303527832031 8.783915519714355 0.5415844917297363
14.794589042663574 8.775945663452148 0.5390933752059937
14.705575942993164 8.765543937683105 0.535588264465332
14.626856803894043 8.759932518005371 0.5332798361778259
14.546228408813477 8.75270938873291 0.5300683975219727
14.475028038024902 8.75191879272461 0.5280481576919556
14.406844139099121 8.751691818237305 0.5269442796707153
14.327486038208008 8.744239807128906 0.5247042775154114
