VERSION .7
FIELDS x y z
SIZE 4 4 4
TYPE F F F
COUNT 1 1 1
WIDTH 817
HEIGHT 1
VIEWPOINT 0 0 0 1 0 0 0
POINTS 817
DATA ascii
4.054534435272217 6.241750717163086 -0.043702803552150726
4.032687187194824 6.236910820007324 -0.043427519500255585
4.021010398864746 6.2472453117370605 -0.04344113543629646
4.00612211227417 6.252923965454102 -0.043150223791599274
3.983269214630127 6.246253967285156 -0.04304613918066025
3.968804359436035 6.2521538734436035 -0.04284905642271042
3.9464821815490723 6.24593448638916 -0.042479224503040314
3.9327590465545654 6.253421306610107 -0.04247363656759262
3.911921501159668 6.249025344848633 -0.04238813370466232
3.8985743522644043 6.257386207580566 -0.04220841825008392
3.8868136405944824 6.267451286315918 -0.04195143282413483
3.8628592491149902 6.257781028747559 -0.041832759976387024
3.8395121097564697 6.249789714813232 -0.041544318199157715
3.8330483436584473 6.268397331237793 -0.04161521792411804
3.8118162155151367 6.26318359375 -0.04125972092151642
3.7959299087524414 6.266841888427734 -0.041231296956539154
3.779174327850342 6.268497467041016 -0.041011229157447815
3.7636771202087402 6.273059844970703 -0.04072105139493942
3.745272159576416 6.2718505859375 -0.04066258668899536
3.730588436126709 6.276814937591553 -0.040466390550136566
3.7094016075134277 6.271633625030518 -0.040114887058734894
3.695013999938965 6.276999473571777 -0.04010103642940521
3.6752443313598633 6.273157119750977 -0.04029345139861107
3.66229510307312 6.281783103942871 -0.039677511900663376
3.645214557647705 6.282412528991699 -0.03963156044483185
3.6263928413391113 6.280313968658447 -0.0393931046128273
3.6078405380249023 6.288712501525879 -0.03911673277616501
8.413326263427734 -11.501893997192383 -0.07886102050542831
8.809630393981934 -11.478297233581543 -0.08184170722961426
8.921436309814453 -11.47390079498291 -0.0830945074558258
10.499215126037598 -11.387855529785156 -0.0982092022895813
10.62707233428955 -11.382112503051758 -0.09968391060829163
10.753849983215332 -11.373706817626953 -0.09962211549282074
10.789937973022461 -11.364542007446289 -0.09974334388971329
10.87341022491455 -11.356292724609375 -0.10103458166122437
10.915257453918457 -11.352742195129395 -0.10120369493961334
10.960073471069336 -11.350719451904297 -0.10177227854728699
11.001821517944336 -11.346739768981934 -0.10253283381462097
11.091348648071289 -11.343096733093262 -0.10331065952777863
11.1425199508667 -11.348220825195312 -0.10414367914199829
11.268068313598633 -11.332685470581055 -0.1050373762845993
12.866626739501953 -11.214691162109375 -0.11783696711063385
12.9799165725708 -11.217592239379883 -0.11905404925346375
13.016517639160156 -11.202123641967773 -0.1196116954088211
13.130414962768555 -11.204235076904297 -0.12021256983280182
13.181181907653809 -11.200370788574219 -0.12153719365596771
13.290711402893066 -11.197395324707031 -0.1220981627702713
13.321601867675781 -11.176237106323242 -0.1221713125705719
13.38354778289795 -11.18040657043457 -0.123586505651474
13.43217658996582 -11.172958374023438 -0.12381964921951294
13.481874465942383 -11.167043685913086 -0.12407644093036652
13.522147178649902 -11.152608871459961 -0.1246669664978981
13.557104110717773 -11.133428573608398 -0.12480190396308899
13.592487335205078 -11.115335464477539 -0.12555745244026184
13.66622257232666 -11.032439231872559 -0.12605902552604675
13.71048641204834 -10.973682403564453 -0.12709878385066986
13.740289688110352 -10.950276374816895 -0.12714600563049316
13.788530349731445 -10.89464282989502 -0.12781259417533875
13.81402587890625 -10.867745399475098 -0.12636412680149078
13.854934692382812 -10.759612083435059 -0.1271989941596985
14.151664733886719 -10.156984329223633 -0.1309533715248108
14.219426155090332 -10.070783615112305 -0.13014790415763855
14.259770393371582 -9.965339660644531 -0.13036417961120605
14.284679412841797 -9.893470764160156 -0.1308610588312149
14.295536041259766 -9.857155799865723 -0.13077357411384583
14.333335876464844 -9.794414520263672 -0.13116240501403809
14.359169006347656 -9.768416404724121 -0.13183772563934326
14.386504173278809 -9.698637008666992 -0.13213461637496948
14.402260780334473 -9.665849685668945 -0.1321033537387848
14.450347900390625 -9.610103607177734 -0.13322988152503967
14.477215766906738 -9.584700584411621 -0.1332748830318451
14.480365753173828 -9.542357444763184 -0.13312366604804993
14.489766120910645 -9.505483627319336 -0.13302819430828094
14.4937744140625 -9.464397430419922 -0.133317232131958
14.506393432617188 -9.42924690246582 -0.13387656211853027
14.5233154296875 -9.397430419921875 -0.13384562730789185
14.539299011230469 -9.363771438598633 -0.13380074501037598
14.551362037658691 -9.328874588012695 -0.13414663076400757
14.571101188659668 -9.298920631408691 -0.1341504156589508
14.590726852416992 -9.267641067504883 -0.1335187554359436
14.613301277160645 -9.239476203918457 -0.13398367166519165
14.620861053466797 -9.158294677734375 -0.13434016704559326
14.628095626831055 -9.120614051818848 -0.1342107355594635
14.666620254516602 -9.05907917022705 -0.13463753461837769
14.681280136108398 -9.026097297668457 -0.13522060215473175
14.707098007202148 -8.956840515136719 -0.1355127990245819
14.729400634765625 -8.928572654724121 -0.13555435836315155
14.772863388061523 -8.828402519226074 -0.1364711970090866
14.794313430786133 -8.756875991821289 -0.13633403182029724
14.925487518310547 -8.458070755004883 -0.13749250769615173
14.969796180725098 -8.358572006225586 -0.13803574442863464
15.006744384765625 -8.255879402160645 -0.1383095532655716
15.026310920715332 -8.185110092163086 -0.1392250657081604
15.053927421569824 -8.158979415893555 -0.13930624723434448
15.089813232421875 -8.096397399902344 -0.139306902885437
15.096580505371094 -8.05972671508789 -0.1402590572834015
15.125028610229492 -8.034625053405762 -0.14035463333129883
15.138132095336914 -8.000168800354004 -0.14033424854278564
15.143643379211426 -7.962922096252441 -0.1402328908443451
15.140617370605469 -7.921267509460449 -0.14005105197429657
15.160797119140625 -7.890618801116943 -0.14048166573047638
15.167386054992676 -7.854090213775635 -0.1410168707370758
15.170312881469727 -7.815255165100098 -0.14088374376296997
15.182794570922852 -7.781157970428467 -0.1408393383026123
15.1995210647583 -7.749945163726807 -0.1412639021873474
15.206269264221191 -7.713200569152832 -0.14119623601436615
15.212625503540039 -7.676077842712402 -0.14172734320163727
15.222251892089844 -7.6408772468566895 -0.14122027158737183
15.214712142944336 -7.596909523010254 -0.1409796178340912
15.23019027709961 -7.565193176269531 -0.1416020542383194
15.221381187438965 -7.521014213562012 -0.1413981318473816
15.219598770141602 -7.480188369750977 -0.1416371613740921
15.214425086975098 -7.438486099243164 -0.14144447445869446
15.228103637695312 -7.405596733093262 -0.14144182205200195
15.233808517456055 -7.32966423034668 -0.14223231375217438
15.25139045715332 -7.2987260818481445 -0.14223891496658325
15.24795150756836 -7.2575459480285645 -0.1420842409133911
15.265121459960938 -7.226445198059082 -0.14208871126174927
15.269615173339844 -7.189822196960449 -0.14199113845825195
15.276291847229004 -7.153591156005859 -0.14292767643928528
15.278331756591797 -7.115471839904785 -0.14282134175300598
15.279067993164062 -7.076589107513428 -0.14268088340759277
15.27614974975586 -7.036773681640625 -0.14252421259880066
15.306795120239258 -6.934126853942871 -0.1434393674135208
15.301200866699219 -6.893359184265137 -0.14325113594532013
15.315607070922852 -6.822404861450195 -0.14351895451545715
15.336601257324219 -6.716530799865723 -0.1431105136871338
15.356744766235352 -6.648415565490723 -0.143633633852005
15.359830856323242 -6.611937522888184 -0.14394286274909973
15.373540878295898 -6.54123592376709 -0.1438063681125641
15.373699188232422 -6.50365686416626 -0.14369380474090576
15.398229598999023 -6.437715530395508 -0.14466649293899536
15.399314880371094 -6.400659561157227 -0.14456525444984436
15.401759147644043 -6.363123893737793 -0.14445960521697998
15.411151885986328 -6.329596519470215 -0.14441785216331482
15.416131973266602 -6.255897045135498 -0.14462319016456604
15.447517395019531 -6.193431377410889 -0.14528805017471313
15.452524185180664 -6.120680809020996 -0.14508122205734253
15.457027435302734 -6.084733009338379 -0.14539380371570587
15.447065353393555 -6.04338264465332 -0.14519594609737396
15.462187767028809 -6.012331008911133 -0.14583294093608856
15.483322143554688 -5.982503414154053 -0.14589138329029083
15.478727340698242 -5.943840503692627 -0.1467500925064087
15.48918342590332 -5.911002159118652 -0.14552900195121765
15.499217987060547 -5.876931190490723 -0.14548814296722412
15.503214836120605 -5.841677665710449 -0.14541387557983398
15.514337539672852 -5.808051109313965 -0.145993173122406
15.508012771606445 -5.76901912689209 -0.14624282717704773
15.528377532958984 -5.7399396896362305 -0.1463225781917572
15.34445571899414 -5.634726047515869 -0.14465567469596863
15.517793655395508 -5.661861419677734 -0.14599038660526276
15.542627334594727 -5.523032188415527 -0.14679938554763794
15.562469482421875 -5.493736267089844 -0.14685961604118347
15.571563720703125 -5.423305511474609 -0.147144615650177
15.563007354736328 -5.3841376304626465 -0.14754799008369446
15.57861614227295 -5.353364944458008 -0.14759671688079834
15.57929515838623 -5.316414833068848 -0.14749500155448914
15.596872329711914 -5.2863030433654785 -0.14755120873451233
15.59510612487793 -5.249648571014404 -0.14744319021701813
15.612268447875977 -5.218321800231934 -0.14789563417434692
15.622937202453613 -5.185870170593262 -0.14786215126514435
15.640230178833008 -5.155179500579834 -0.1485520899295807
15.625431060791016 -5.113743782043457 -0.14890553057193756
15.648443222045898 -5.0853471755981445 -0.14780837297439575
15.659263610839844 -5.051905632019043 -0.14841169118881226
15.650287628173828 -5.013175010681152 -0.14824360609054565
15.666332244873047 -4.945664882659912 -0.14859189093112946
15.680431365966797 -4.914356231689453 -0.14860647916793823
15.679437637329102 -4.841621398925781 -0.14840278029441833
15.698431015014648 -4.811825275421143 -0.1491008996963501
15.703750610351562 -4.7412004470825195 -0.14935502409934998
15.708077430725098 -4.706960678100586 -0.14930954575538635
15.711071014404297 -4.635840892791748 -0.14915557205677032
15.730149269104004 -4.569544792175293 -0.15014979243278503
15.739724159240723 -4.536928176879883 -0.150141179561615
15.746979713439941 -4.467278957366943 -0.15002688765525818
15.763250350952148 -4.43657112121582 -0.15009157359600067
15.770132064819336 -4.366916656494141 -0.15038847923278809
15.779863357543945 -4.333961009979248 -0.15098512172698975
15.78706169128418 -4.300103664398193 -0.15157732367515564
15.804875373840332 -4.269744396209717 -0.15045996010303497
15.811415672302246 -4.2359113693237305 -0.15043950080871582
15.817230224609375 -4.201687335968018 -0.1508188098669052
15.824014663696289 -4.168354511260986 -0.15078520774841309
15.821918487548828 -4.132297515869141 -0.1506829857826233
15.834650039672852 -4.099920749664307 -0.15132524073123932
15.825761795043945 -4.062183380126953 -0.1511635184288025
15.836074829101562 -4.029821395874023 -0.15117207169532776
15.851333618164062 -3.998079299926758 -0.15123184025287628
15.852664947509766 -3.963033676147461 -0.15156763792037964
15.85009765625 -3.926844835281372 -0.1514633744955063
15.875195503234863 -3.8981142044067383 -0.151612788438797
15.879703521728516 -3.863889694213867 -0.15218061208724976
15.878232955932617 -3.828031301498413 -0.15208746492862701
15.877872467041016 -3.7926886081695557 -0.15201348066329956
15.885580062866211 -3.7597007751464844 -0.15198759734630585
15.893848419189453 -3.7262282371520996 -0.1524130254983902
15.901397705078125 -3.6927952766418457 -0.15241074562072754
15.889593124389648 -3.655318021774292 -0.15221461653709412
15.896371841430664 -3.6215462684631348 -0.1522057056427002
15.908111572265625 -3.589104652404785 -0.15284934639930725
15.931612014770508 -3.5596792697906494 -0.15300127863883972
15.9185791015625 -3.521486759185791 -0.15280210971832275
15.920591354370117 -3.486886501312256 -0.15315361320972443
15.939047813415527 -3.4556689262390137 -0.15207019448280334
15.947476387023926 -3.4224562644958496 -0.15207117795944214
15.949287414550781 -3.388237953186035 -0.15202704071998596
15.955057144165039 -3.3542628288269043 -0.15240924060344696
15.961199760437012 -3.320578098297119 -0.15240058302879333
15.970322608947754 -3.2879152297973633 -0.15301156044006348
15.968437194824219 -3.182408332824707 -0.15279832482337952
15.990589141845703 -3.0824334621429443 -0.15320736169815063
15.959739685058594 -2.696216106414795 -0.1532672494649887
15.960423469543457 -2.661879062652588 -0.15262019634246826
15.972707748413086 -2.594837188720703 -0.1522400677204132
15.978330612182617 -2.5617289543151855 -0.15224045515060425
15.966801643371582 -2.490954637527466 -0.15263822674751282
15.974230766296387 -2.4581685066223145 -0.15265116095542908
15.982112884521484 -2.3905246257781982 -0.15261505544185638
15.99171257019043 -2.3580424785614014 -0.15266436338424683
15.983163833618164 -2.28804874420166 -0.15288548171520233
15.98339557647705 -2.2542436122894287 -0.15283796191215515
15.988265991210938 -2.220107078552246 -0.15343262255191803
15.99288558959961 -2.1869301795959473 -0.1534203737974167
15.987545013427734 -2.152411699295044 -0.15332955121994019
15.988052368164062 -2.1177170276641846 -0.1532859057188034
15.995187759399414 -2.084895133972168 -0.15332654118537903
15.996438980102539 -2.0503158569335938 -0.1532817780971527
16.000896453857422 -2.0171456336975098 -0.15367479622364044
16.007095336914062 -1.9494787454605103 -0.15366381406784058
16.008621215820312 -1.9159599542617798 -0.1536256968975067
16.017868041992188 -1.8833584785461426 -0.1542671173810959
16.016508102416992 -1.8485190868377686 -0.1530318260192871
16.024761199951172 -1.815782070159912 -0.1526881456375122
16.02263641357422 -1.7814795970916748 -0.1530190110206604
16.019697189331055 -1.74690842628479 -0.15295955538749695
16.030380249023438 -1.7144196033477783 -0.15361589193344116
16.017908096313477 -1.6448864936828613 -0.15341855585575104
16.013940811157227 -1.6109035015106201 -0.1533530354499817
16.007139205932617 -1.5421524047851562 -0.1532333493232727
16.018680572509766 -1.4416868686676025 -0.15363416075706482
16.027179718017578 -1.3409348726272583 -0.1542241871356964
16.036651611328125 -0.8343009948730469 -0.1525854766368866
16.03191375732422 -0.733026385307312 -0.1530989110469818
16.017358779907227 -0.6314828395843506 -0.15331235527992249
16.045822143554688 -0.5315982103347778 -0.15353861451148987
16.04888343811035 -0.49797284603118896 -0.15354740619659424
16.046964645385742 -0.4302753210067749 -0.15352196991443634
16.05291748046875 -0.39710015058517456 -0.1535661816596985
16.075275421142578 -0.36368298530578613 -0.15375512838363647
16.07138442993164 -0.3298395872116089 -0.15430712699890137
16.07384490966797 -0.29652148485183716 -0.15431833267211914
16.08845329284668 -0.262800008058548 -0.1544681042432785
16.09183120727539 -0.2290649116039276 -0.1521160900592804
16.094303131103516 -0.19569557905197144 -0.15252186357975006
16.086284637451172 -0.16161829233169556 -0.15245068073272705
16.098377227783203 -0.127940371632576 -0.15256619453430176
16.09575653076172 -0.09451719373464584 -0.1525193750858307
16.071001052856445 -0.026687709614634514 -0.15230455994606018
18.884031295776367 0.00782729685306549 -0.026810787618160248
18.880756378173828 0.08688543736934662 -0.027255183085799217
18.89092445373535 0.12659162282943726 -0.02726908214390278
18.893415451049805 0.16581739485263824 -0.0272601917386055
18.905128479003906 0.20585450530052185 -0.02729196473956108
18.91462516784668 0.24566979706287384 -0.027278859168291092
18.908096313476562 0.5233786106109619 -0.025219785049557686
18.89221954345703 0.6018744111061096 -0.025640442967414856
18.897457122802734 0.7209882140159607 -0.025649357587099075
18.893299102783203 0.8405064940452576 -0.02565017342567444
18.888574600219727 0.9593120813369751 -0.02566901035606861
18.662282943725586 1.9327675104141235 -0.024478254839777946
18.6392765045166 2.0093064308166504 -0.024460405111312866
18.633996963500977 2.0483179092407227 -0.02444995567202568
18.628877639770508 2.127194881439209 -0.02446115016937256
18.618301391601562 2.16513729095459 -0.02376696839928627
18.590024948120117 2.241236448287964 -0.023716917261481285
18.58489990234375 2.2797563076019287 -0.02371678501367569
18.56398582458496 2.3565893173217773 -0.023700859397649765
18.551027297973633 2.394073009490967 -0.023710643872618675
18.542356491088867 2.4723873138427734 -0.023699354380369186
18.544208526611328 2.511812210083008 -0.023701036348938942
18.515419006347656 2.58736515045166 -0.023684421554207802
18.49909019470215 2.624234676361084 -0.02368081733584404
18.49176788330078 2.7026872634887695 -0.023682016879320145
18.481735229492188 2.7411036491394043 -0.023670122027397156
18.468141555786133 2.817925453186035 -0.023647161200642586
18.43561553955078 2.9316749572753906 -0.023641496896743774
18.227001190185547 3.7685084342956543 -0.02311033383011818
18.203285217285156 3.8830909729003906 -0.023110907524824142
18.177135467529297 3.997605562210083 -0.023799525573849678
18.136653900146484 4.108401775360107 -0.022879036143422127
18.157978057861328 4.1932454109191895 -0.022474762052297592
18.119009017944336 4.224330425262451 -0.022456496953964233
18.0930118560791 4.298227787017822 -0.02243366464972496
18.101909637451172 4.340505599975586 -0.022450311109423637
18.0816593170166 4.375350475311279 -0.022435788065195084
18.076152801513672 4.414914131164551 -0.022431153804063797
18.062885284423828 4.451415061950684 -0.022435925900936127
18.06704330444336 4.492228984832764 -0.022440996021032333
18.05276107788086 4.52964973449707 -0.02245858684182167
18.040760040283203 4.566453456878662 -0.022438274696469307
18.049049377441406 4.609140872955322 -0.02248438447713852
18.042098999023438 4.647731304168701 -0.022475970908999443
18.021596908569336 4.6823506355285645 -0.022462626919150352
17.999492645263672 4.798316478729248 -0.02247864380478859
17.95894432067871 4.908636093139648 -0.023867694661021233
17.966625213623047 5.032331943511963 -0.022526752203702927
15.990856170654297 5.360489845275879 -0.020737402141094208
15.746467590332031 5.388915061950684 -0.019856760278344154
15.655363082885742 5.3944807052612305 -0.01974659413099289
15.50908088684082 5.416830062866211 -0.019581938162446022
15.419682502746582 5.421955108642578 -0.019498318433761597
15.279703140258789 5.444729804992676 -0.01934441737830639
15.189648628234863 5.448606491088867 -0.019244583323597908
15.116311073303223 5.458360195159912 -0.018783172592520714
15.034737586975098 5.464612007141113 -0.018684327602386475
14.975406646728516 5.4782562255859375 -0.018635474145412445
14.892452239990234 5.483598709106445 -0.01852937787771225
14.813810348510742 5.489987373352051 -0.01845848374068737
14.751277923583984 5.501654624938965 -0.018383188173174858
14.661592483520508 5.503506660461426 -0.01829570159316063
14.60834789276123 5.518538475036621 -0.01824323646724224
14.522832870483398 5.521311283111572 -0.018163112923502922
14.457676887512207 5.530905723571777 -0.018086040392518044
14.386307716369629 5.538254737854004 -0.019146207720041275
14.298423767089844 5.53912353515625 -0.01792534999549389
14.190530776977539 5.565567970275879 -0.01781409978866577
14.124162673950195 5.573986053466797 -0.017754361033439636
13.985461235046387 5.587433815002441 -0.017245236784219742
13.917682647705078 5.593874931335449 -0.017173951491713524
13.777933120727539 5.605218887329102 -0.01702488400042057
12.447667121887207 5.746762275695801 -0.014035441912710667
12.336568832397461 5.758623123168945 -0.01343809999525547
12.28677749633789 5.7664642333984375 -0.013401072472333908
12.16828727722168 5.7735114097595215 -0.013297880068421364
12.116382598876953 5.779719352722168 -0.013250239193439484
12.020955085754395 5.796469688415527 -0.01317562535405159
11.957080841064453 5.796640872955322 -0.01279526948928833
11.860966682434082 5.811506748199463 -0.012720584869384766
11.806231498718262 5.815457344055176 -0.012670821510255337
11.747749328613281 5.817512512207031 -0.012141378596425056
11.683971405029297 5.816153526306152 -0.012089822441339493
11.659278869628906 5.834438323974609 -0.012079056352376938
11.596601486206055 5.833730697631836 -0.01202725525945425
11.545283317565918 5.837967872619629 -0.011043978855013847
11.494489669799805 5.842618942260742 -0.011007517576217651
11.451879501342773 5.851428031921387 -0.01097939908504486
11.388458251953125 5.848856449127197 -0.010927651077508926
11.353313446044922 5.860963821411133 -0.010907037183642387
11.312406539916992 5.870136260986328 -0.010565975680947304
11.260379791259766 5.873178958892822 -0.01052984967827797
11.207857131958008 5.875926494598389 -0.01048983819782734
11.160585403442383 5.880702018737793 -0.010457977652549744
11.060585021972656 5.887657165527344 -0.009928692132234573
11.008378982543945 5.889217853546143 -0.009894363582134247
10.927348136901855 5.9051923751831055 -0.009844296611845493
10.879140853881836 5.9083428382873535 -0.009511975571513176
10.799213409423828 5.9239654541015625 -0.009462572634220123
10.652032852172852 5.930646896362305 -0.00891813077032566
10.512384414672852 5.939774513244629 -0.00883200392127037
10.012807846069336 5.995362281799316 -0.006117234472185373
9.893043518066406 6.008462905883789 -0.006067077629268169
9.7642183303833 6.0145721435546875 -0.0057347058318555355
9.678008079528809 6.0178375244140625 -0.005698537454009056
9.649194717407227 6.027722358703613 -0.00526800099760294
9.57033920288086 6.03464412689209 -0.005239617079496384
9.52995491027832 6.036855697631836 -0.005226435139775276
9.496676445007324 6.043426990509033 -0.005214543081820011
9.447546005249023 6.040555953979492 -0.0036898786202073097
9.422517776489258 6.052136421203613 -0.0036809779703617096
9.37527084350586 6.049632549285889 -0.0034018894657492638
9.332502365112305 6.049988746643066 -0.002979552373290062
9.309122085571289 6.0623064041137695 -0.0029808739200234413
9.266500473022461 6.062778472900391 -0.0029670633375644684
9.23004150390625 6.066316604614258 -0.002965213032439351
9.186182975769043 6.0651469230651855 -0.0029519309755414724
9.156097412109375 6.073086738586426 -0.0026782271452248096
9.115924835205078 6.073719024658203 -0.002670117188245058
9.086310386657715 6.081573963165283 -0.0022667469456791878
9.04133129119873 6.079154968261719 -0.002259659580886364
9.007866859436035 6.083836555480957 -0.0022549822460860014
8.97704792022705 6.0905046463012695 -0.0022450119722634554
8.93241024017334 6.087807655334473 -0.0022420049645006657
8.909219741821289 6.099117279052734 -0.002232938539236784
8.873831748962402 6.1027727127075195 -0.0019713302608579397
8.83238697052002 6.101305961608887 -0.00196048803627491
8.795706748962402 6.102970600128174 -0.0015694944886490703
8.764549255371094 6.109128952026367 -0.0015614829026162624
8.734343528747559 6.115046501159668 -0.00156402587890625
8.658775329589844 6.116640090942383 -0.0012955749407410622
8.626079559326172 6.120416641235352 -0.0012884135358035564
8.51839828491211 6.124887466430664 0.000511074555106461
8.431727409362793 6.143346786499023 0.0008943019201979041
7.983846187591553 6.184567451477051 0.0020928301382809877
7.95338773727417 6.187424659729004 0.0023340596817433834
7.877031326293945 6.181448459625244 0.002318198326975107
7.853907585144043 6.189680099487305 0.002318271901458502
7.7958269119262695 6.197307586669922 0.0037664275150746107
7.757783889770508 6.193382263183594 0.003991261124610901
7.7298150062561035 6.198136329650879 0.0039853244088590145
7.695751190185547 6.1971049308776855 0.003970951307564974
7.666034698486328 6.199443817138672 0.0039642443880438805
7.6340556144714355 6.2006025314331055 0.00395414512604475
7.6147966384887695 6.211231231689453 0.004189470782876015
7.578588962554932 6.2079315185546875 0.004541743081063032
7.550165176391602 6.2116475105285645 0.004527772311121225
7.522951126098633 6.215481758117676 0.0045195072889328
7.497439384460449 6.220627784729004 0.004512825049459934
7.46986722946167 6.224741458892822 0.004743117373436689
7.434752464294434 6.221667289733887 0.004726872779428959
7.409396171569824 6.227100372314453 0.005070891696959734
7.384016990661621 6.232271194458008 0.005074718967080116
7.34218692779541 6.2231035232543945 0.005041596479713917
7.324135780334473 6.234737396240234 0.0050475262105464935
7.300441265106201 6.240742206573486 0.0052725570276379585
7.269900321960449 6.2407917976379395 0.005261083599179983
7.24684476852417 6.247939586639404 0.005245475098490715
7.215134620666504 6.246748924255371 0.005589338485151529
7.19313907623291 6.254177093505859 0.005584500264376402
7.151468276977539 6.244514465332031 0.005788926966488361
7.124411582946777 6.2469940185546875 0.006469072308391333
7.084654808044434 6.2651047706604 0.006806652061641216
7.044055938720703 6.2552995681762695 0.007012292742729187
6.996520042419434 6.265986442565918 0.006987058091908693
6.959453105926514 6.258863925933838 0.006964663974940777
6.911314964294434 6.268420219421387 0.007506385445594788
6.8910417556762695 6.276607513427734 0.0075044953264296055
6.830582618713379 6.27391242980957 0.007463033311069012
6.75114107131958 6.279649257659912 0.0079821040853858
6.671720027923584 6.284928321838379 0.007941311225295067
6.612083435058594 6.307671546936035 0.008470997214317322
6.532018661499023 6.310511589050293 0.008640056475996971
6.441485404968262 6.301817893981934 0.009233968332409859
6.369380950927734 6.310128211975098 0.00940628256648779
6.3306660652160645 6.324824333190918 0.009937766008079052
6.303670883178711 6.324047088623047 0.009912004694342613
6.26093864440918 6.334306716918945 0.009888311848044395
6.236086845397949 6.33540678024292 0.009871251881122589
6.198906898498535 6.32429313659668 0.010377781465649605
6.174673557281494 6.326086044311523 0.010350881144404411
6.16239070892334 6.33976936340332 0.010351407341659069
6.133452415466309 6.336716651916504 0.010335054248571396
6.104910850524902 6.33378791809082 0.010302592068910599
6.097515106201172 6.352443695068359 0.010533629916608334
6.069247245788574 6.3497819900512695 0.010821206495165825
6.03883171081543 6.344576835632324 0.010794905945658684
6.0146565437316895 6.345494270324707 0.01077275164425373
6.003118515014648 6.360480308532715 0.010995415970683098
5.967957973480225 6.34957218170166 0.010949140414595604
5.956153869628906 6.363890171051025 0.010957559570670128
5.927607536315918 6.360103607177734 0.01114109717309475
5.89576530456543 6.352316856384277 0.01163467112928629
5.878528594970703 6.360632419586182 0.011626883409917355
5.855035781860352 6.361959457397461 0.011607549153268337
5.844202041625977 6.376694679260254 0.011611679568886757
5.81232213973999 6.36885929107666 0.011785900220274925
5.788179397583008 6.369211196899414 0.012077673338353634
5.7708940505981445 6.376728057861328 0.012071843259036541
5.748721122741699 6.379566192626953 0.012054674327373505
5.723921775817871 6.378613471984863 0.012030827812850475
5.698381423950195 6.377193927764893 0.012203343212604523
5.674886703491211 6.377801418304443 0.012507041916251183
5.653878211975098 6.380805969238281 0.012481920421123505
5.637148857116699 6.389056205749512 0.012479434721171856
5.589941501617432 6.389122009277344 0.012638505548238754
5.52276611328125 6.393471717834473 0.013088305480778217
5.462378978729248 6.404516220092773 0.013361180201172829
5.391228675842285 6.402177810668945 0.013076899573206902
5.335550308227539 6.417511940002441 0.013548608869314194
5.2815446853637695 6.407253265380859 0.01347530260682106
5.223028182983398 6.418048858642578 0.013934524729847908
5.211492538452148 6.43140983581543 0.013941042125225067
5.164584159851074 6.4283599853515625 0.01409103162586689
5.144832611083984 6.431386947631836 0.014369580894708633
5.099887847900391 6.430211067199707 0.014523157849907875
5.077927112579346 6.430207252502441 0.014499485492706299
5.061992645263672 6.437934875488281 0.0147940032184124
5.043889999389648 6.442705154418945 0.014783094637095928
5.016263008117676 6.434884071350098 0.014937112107872963
5.000888824462891 6.443177700042725 0.014932429417967796
4.988831520080566 6.4555816650390625 0.015233781188726425
4.962937355041504 6.450181007385254 0.015199854969978333
4.935183048248291 6.44172477722168 0.015350544825196266
4.920416831970215 6.4504594802856445 0.01475609466433525
4.903433799743652 6.456425666809082 0.015141085721552372
4.879055500030518 6.452409267425537 0.015106421895325184
4.866009712219238 6.462992191314697 0.015107395127415657
4.838260650634766 6.454456329345703 0.015360357239842415
4.828597545623779 6.469825744628906 0.015569232404232025
4.801348686218262 6.461245059967041 0.015524961054325104
4.782875061035156 6.464857578277588 0.015507860109210014
4.761993408203125 6.464978218078613 0.015779368579387665
4.7418742179870605 6.466217041015625 0.015953268855810165
4.727221965789795 6.474368095397949 0.015949811786413193
4.705158233642578 6.47264289855957 0.015919329598546028
4.6887712478637695 6.478822708129883 0.01620347797870636
4.660141468048096 6.467477798461914 0.016345348209142685
4.644975662231445 6.475051403045654 0.0163416787981987
4.623791694641113 6.474344730377197 0.01631426066160202
4.613417625427246 6.488580226898193 0.016814133152365685
4.583030700683594 6.474251747131348 0.016748828813433647
4.559909343719482 6.470520496368408 0.01671643555164337
4.556392669677734 6.494446754455566 0.016752898693084717
4.535547733306885 6.493860244750977 0.016920948401093483
4.506561279296875 6.480966567993164 0.017148004844784737
4.488528251647949 6.484036445617676 0.017135094851255417
4.476867198944092 6.496463298797607 0.01714196242392063
4.456132888793945 6.495181560516357 0.01673024334013462
4.431667804718018 6.489195346832275 0.017073919996619225
4.41745662689209 6.497295379638672 0.017071489244699478
4.401088714599609 6.502202033996582 0.01734776422381401
4.378337860107422 6.498451232910156 0.01731296256184578
4.357171535491943 6.4960856437683105 0.017473308369517326
4.323906898498535 6.505549907684326 0.017735499888658524
4.294264316558838 6.490126132965088 0.01766948029398918
4.271519660949707 6.515210151672363 0.017878912389278412
4.246806621551514 6.506924629211426 0.018116088584065437
4.206645965576172 6.505082130432129 0.018250521272420883
4.1752705574035645 6.516587257385254 0.01851654052734375
4.156154632568359 6.516483306884766 0.018680889159440994
4.123755931854248 6.526144981384277 0.01894095167517662
4.097606658935547 6.514660358428955 0.019070763140916824
4.070178985595703 6.531930923461914 0.019071264192461967
4.048018455505371 6.526503086090088 0.019312232732772827
4.021472930908203 6.54508113861084 0.018942151218652725
3.9939239025115967 6.530948638916016 0.019531860947608948
3.9792795181274414 6.537981986999512 0.01952669396996498
3.9583303928375244 6.534055233001709 0.019491109997034073
3.9450278282165527 6.543056964874268 0.01967994123697281
3.921097755432129 6.5345354080200195 0.019907649606466293
3.908143997192383 6.543688774108887 0.01991105079650879
3.8867478370666504 6.539557456970215 0.020059730857610703
3.8701751232147217 6.542548179626465 0.020321132615208626
3.8555753231048584 6.5488433837890625 0.020316286012530327
3.833935260772705 6.544021129608154 0.02027604542672634
3.823920726776123 6.55809211730957 0.020480718463659286
3.8032333850860596 6.553831100463867 0.020719781517982483
3.7794547080993652 6.545022010803223 0.020666763186454773
3.7665951251983643 6.554123401641846 0.02085430920124054
3.7552037239074707 6.5661749839782715 0.021145176142454147
3.7375030517578125 6.567368507385254 0.021123824641108513
3.7116916179656982 6.553613185882568 0.021054767072200775
3.693258762359619 6.553676605224609 0.021214481443166733
3.6770637035369873 6.556714057922363 0.021474137902259827
3.660235643386841 6.558571815490723 0.021454818546772003
3.6414012908935547 6.557703495025635 0.02160978876054287
3.626347541809082 6.562644958496094 0.021876096725463867
3.6098175048828125 6.565256118774414 0.021859213709831238
3.593594789505005 6.568568229675293 0.02184433676302433
3.5721206665039062 6.561618804931641 0.02216273918747902
3.5587191581726074 6.569812774658203 0.02216375060379505
3.540602445602417 6.569456100463867 0.02259388379752636
9.185341835021973 -11.462785720825195 0.03399847447872162
9.302642822265625 -11.460769653320312 0.03327824920415878
9.409968376159668 -11.44519329071045 0.03285782039165497
11.053842544555664 -11.353153228759766 0.02526518516242504
11.18071460723877 -11.339950561523438 0.024997945874929428
11.317159652709961 -11.334916114807129 0.025726361200213432
11.40523624420166 -11.32732105255127 0.02522590383887291
11.444295883178711 -11.3190336227417 0.024876205250620842
11.53741455078125 -11.315412521362305 0.024377619847655296
11.581536293029785 -11.311628341674805 0.024030165746808052
11.681110382080078 -11.313152313232422 0.024133937433362007
11.718106269836426 -11.30195140838623 0.023171816021203995
11.821998596191406 -11.306440353393555 0.023275943472981453
13.655508041381836 -11.166866302490234 0.018831532448530197
13.823391914367676 -11.15987777709961 0.017894450575113297
13.866968154907227 -11.147603988647461 0.01790475659072399
13.916716575622559 -11.139570236206055 0.017291421070694923
13.975469589233398 -11.138262748718262 0.017332077026367188
14.045660018920898 -11.14661979675293 0.016951337456703186
14.087349891662598 -11.131574630737305 0.01697297766804695
14.202415466308594 -11.126226425170898 0.01595924235880375
14.263080596923828 -11.125497817993164 0.016010820865631104
14.317352294921875 -11.119283676147461 0.016031349077820778
14.368433952331543 -11.11123275756836 0.016063500195741653
14.480873107910156 -11.101041793823242 0.015028303489089012
14.543206214904785 -11.100419998168945 0.015067348256707191
14.716079711914062 -11.086655616760254 0.014058230444788933
14.834169387817383 -11.078567504882812 0.013668699190020561
15.004375457763672 -11.059428215026855 0.014668919146060944
15.19533634185791 -11.052862167358398 0.013640482909977436
16.59036636352539 -10.934268951416016 0.01003436092287302
16.72146987915039 -10.919942855834961 0.010085491463541985
16.769689559936523 -10.90185832977295 0.009597600437700748
16.905170440673828 -10.88892650604248 0.00889380183070898
16.9442138671875 -10.864391326904297 0.00887537281960249
16.980667114257812 -10.836648941040039 0.008359946310520172
17.00461196899414 -10.802335739135742 0.008376609534025192
17.02313232421875 -10.76371955871582 0.0076165394857525826
17.040910720825195 -10.724934577941895 0.0076307328417897224
17.067285537719727 -10.692151069641113 0.00713131669908762
17.102807998657227 -10.6641845703125 0.007160753943026066
17.124176025390625 -10.627634048461914 0.007149579003453255
17.136465072631836 -10.586065292358398 0.006415288895368576
17.142131805419922 -10.53962230682373 0.005895631387829781
17.161813735961914 -10.502126693725586 0.005912431515753269
17.183399200439453 -10.416122436523438 0.005928700789809227
17.191822052001953 -10.372505187988281 0.004677264019846916
17.215190887451172 -10.337934494018555 0.004696999676525593
17.228103637695312 -10.295679092407227 0.004692906513810158
17.245309829711914 -10.257452964782715 0.005414355546236038
17.27379608154297 -10.225078582763672 0.004926837049424648
17.26790428161621 -10.172686576843262 0.00493311882019043
17.29990005493164 -10.143235206604004 0.004914275370538235
17.317197799682617 -10.05561637878418 0.003679068759083748
17.3400821685791 -10.020845413208008 0.003693065606057644
17.370973587036133 -9.94134521484375 0.0037121931090950966
17.380661010742188 -9.899064064025879 0.0032169828191399574
17.426651000976562 -9.828290939331055 0.002482740208506584
17.479961395263672 -9.714025497436523 0.0020034434273838997
17.520469665527344 -9.592876434326172 0.0007813237607479095
17.56946563720703 -9.476628303527832 0.0007823603227734566
17.633798599243164 -9.36732006072998 0.00029960088431835175
17.674571990966797 -9.246983528137207 -0.0004008915275335312
17.706314086914062 -9.122271537780762 -0.0016263248398900032
17.733257293701172 -9.042665481567383 -0.001638888381421566
17.759456634521484 -9.008824348449707 -0.001601613126695156
17.77381134033203 -8.92219066619873 -0.0020995372906327248
17.77336883544922 -8.875839233398438 -0.002810301259160042
17.805221557617188 -8.798255920410156 -0.0033009499311447144
17.816211700439453 -8.757733345031738 -0.0032898224890232086
17.828031539916992 -8.717111587524414 -0.0033102212473750114
17.83303451538086 -8.672945976257324 -0.0032839151099324226
17.85480499267578 -8.637764930725098 -0.004502793774008751
17.86483383178711 -8.5963716506958 -0.004486393183469772
17.87747573852539 -8.556009292602539 -0.0044928984716534615
17.89105987548828 -8.516923904418945 -0.004484123550355434
17.91387367248535 -8.481691360473633 -0.004491846077144146
17.925067901611328 -8.44070053100586 -0.005668056197464466
17.933351516723633 -8.398641586303711 -0.005689508281648159
17.963951110839844 -8.366764068603516 -0.005192063748836517
17.973918914794922 -8.326059341430664 -0.005921614356338978
17.97122573852539 -8.279024124145508 -0.0059146396815776825
17.983638763427734 -8.238751411437988 -0.005919449031352997
18.00156021118164 -8.201807975769043 -0.005905128084123135
18.001712799072266 -8.15627670288086 -0.006375974975526333
18.0223331451416 -8.119791030883789 -0.006378898397088051
18.037364959716797 -8.081576347351074 -0.007100390270352364
18.05600929260254 -8.043660163879395 -0.007099597714841366
18.071807861328125 -8.005794525146484 -0.00709820631891489
18.085281372070312 -7.966378211975098 -0.007574224844574928
18.103179931640625 -7.928658962249756 -0.00759381428360939
18.111454010009766 -7.887528419494629 -0.00828372873365879
18.11821746826172 -7.845257759094238 -0.008281640708446503
18.13166618347168 -7.805654525756836 -0.008274350315332413
18.14624786376953 -7.766809463500977 -0.008773094043135643
18.152339935302734 -7.724885940551758 -0.008765770122408867
18.177566528320312 -7.690324783325195 -0.008771201595664024
18.20136260986328 -7.655374526977539 -0.00947529822587967
18.20968246459961 -7.614438056945801 -0.009963637217879295
18.198524475097656 -7.5198869705200195 -0.009946869686245918
18.233699798583984 -7.400568008422852 -0.009661832824349403
18.229812622070312 -7.309720993041992 -0.010059487074613571
18.210020065307617 -7.257955551147461 -0.010795064270496368
18.219236373901367 -7.172860145568848 -0.010797585360705853
18.23192596435547 -7.134191513061523 -0.01125253178179264
18.23894691467285 -7.048511505126953 -0.011238865554332733
18.238954544067383 -7.005046844482422 -0.011221403256058693
18.236431121826172 -6.959410667419434 -0.011921344324946404
18.245649337768555 -6.919585704803467 -0.01192193292081356
18.25135612487793 -6.833969593048096 -0.012383105233311653
18.248844146728516 -6.789883613586426 -0.012381975539028645
18.250335693359375 -6.746089935302734 -0.012371030636131763
18.26130485534668 -6.7071027755737305 -0.013060267083346844
18.27336883544922 -6.624330520629883 -0.0135236456990242
18.26152992248535 -6.5771942138671875 -0.01352232601493597
18.260635375976562 -6.533339500427246 -0.013476614840328693
18.246768951416016 -6.485196113586426 -0.013431349769234657
18.242332458496094 -6.441011428833008 -0.014637621119618416
18.240352630615234 -6.397022247314453 -0.01533071044832468
18.229516983032227 -6.350271701812744 -0.013909931294620037
18.242977142333984 -6.312539577484131 -0.013876085169613361
18.233793258666992 -6.265778541564941 -0.014337102882564068
18.261268615722656 -6.232878684997559 -0.01434890367090702
18.268630981445312 -6.1930952072143555 -0.015037636272609234
18.270977020263672 -6.150404930114746 -0.015026363544166088
18.291500091552734 -6.11508321762085 -0.015044920146465302
18.30199432373047 -6.076395034790039 -0.015055198222398758
18.30973243713379 -6.03557014465332 -0.015502872876822948
18.331575393676758 -6.00062370300293 -0.01553362887352705
18.34469223022461 -5.961559772491455 -0.016217928379774094
18.361465454101562 -5.9249114990234375 -0.016218310222029686
18.378463745117188 -5.888315200805664 -0.01623089797794819
18.391380310058594 -5.849161624908447 -0.016241319477558136
18.39837646484375 -5.8093719482421875 -0.01670239306986332
18.420703887939453 -5.731222152709961 -0.016680147498846054
18.413860321044922 -5.687209129333496 -0.017388571053743362
18.435749053955078 -5.651596546173096 -0.01739768497645855
18.447689056396484 -5.61266565322876 -0.017398130148649216
18.444766998291016 -5.56998348236084 -0.017846662551164627
18.4512996673584 -5.529709815979004 -0.01783730275928974
18.34867286682129 -5.45674991607666 -0.017557434737682343
18.460105895996094 -5.448219299316406 -0.01922769472002983
18.457544326782227 -5.404625415802002 -0.017790835350751877
18.468713760375977 -5.36630916595459 -0.017789645120501518
18.47178077697754 -5.282942771911621 -0.017789168283343315
18.491975784301758 -5.24722957611084 -0.018981801345944405
18.515819549560547 -5.169838905334473 -0.01897324249148369
18.514598846435547 -5.128105163574219 -0.01896047405898571
18.532350540161133 -5.090420722961426 -0.018961971625685692
18.536453247070312 -5.050202369689941 -0.018960554152727127
18.542707443237305 -5.010593414306641 -0.019418122246861458
18.55242919921875 -4.970718860626221 -0.020122356712818146
18.56400489807129 -4.932553291320801 -0.0201127752661705
18.56993865966797 -4.850496292114258 -0.02009202353656292
18.57738494873047 -4.811281204223633 -0.020100094377994537
18.595504760742188 -4.732499122619629 -0.020574884489178658
18.595949172973633 -4.691061973571777 -0.021255487576127052
18.617332458496094 -4.654658317565918 -0.021269816905260086
18.623722076416016 -4.615213394165039 -0.021249771118164062
18.630020141601562 -4.57528018951416 -0.021256450563669205
18.626361846923828 -4.532692909240723 -0.021226506680250168
18.635042190551758 -4.493865013122559 -0.022407786920666695
18.64092445373535 -4.453891754150391 -0.020998025313019753
18.644882202148438 -4.413233757019043 -0.02169039100408554
18.654327392578125 -4.374609470367432 -0.02168983779847622
18.650413513183594 -4.332401275634766 -0.021684110164642334
18.6817684173584 -4.298121929168701 -0.021687069907784462
18.663562774658203 -4.252695083618164 -0.022140203043818474
18.688819885253906 -4.217671871185303 -0.02216525934636593
18.681875228881836 -4.174661159515381 -0.022141218185424805
18.690210342407227 -4.135343074798584 -0.022139785811305046
18.697994232177734 -4.095663070678711 -0.022138487547636032
18.720844268798828 -4.059972763061523 -0.022849667817354202
18.72861099243164 -4.020506381988525 -0.022848788648843765
18.709562301635742 -3.9751012325286865 -0.02327483519911766
18.734371185302734 -3.9392828941345215 -0.023291539400815964
18.746150970458984 -3.901155948638916 -0.023284167051315308
18.76283073425293 -3.863302230834961 -0.023290377110242844
18.75043487548828 -3.819732904434204 -0.02328035980463028
18.775461196899414 -3.783550262451172 -0.023296037688851357
18.779022216796875 -3.743258476257324 -0.023990489542484283
18.773836135864258 -3.7017338275909424 -0.024447986856102943
18.801198959350586 -3.6658949851989746 -0.024457868188619614
18.785003662109375 -3.6218161582946777 -0.024437136948108673
18.794082641601562 -3.583131790161133 -0.024428481236100197
18.799440383911133 -3.543022632598877 -0.024410689249634743
18.811765670776367 -3.5044639110565186 -0.023055030032992363
18.80044174194336 -3.462001323699951 -0.023500164970755577
18.80652618408203 -3.4220728874206543 -0.02347528003156185
18.817283630371094 -3.3832311630249023 -0.023493781685829163
18.826650619506836 -3.3445987701416016 -0.02419140189886093
18.836292266845703 -3.2645416259765625 -0.024180643260478973
18.846405029296875 -3.2253098487854004 -0.024189313873648643
18.882280349731445 -3.109396457672119 -0.024677328765392303
18.891733169555664 -2.664426565170288 -0.025744402781128883
18.87317657470703 -2.5409061908721924 -0.02453453093767166
18.873279571533203 -2.4605062007904053 -0.02451973594725132
18.859655380249023 -2.418473720550537 -0.025200773030519485
18.84793472290039 -2.377225399017334 -0.025174228474497795
18.863630294799805 -2.338277816772461 -0.02518857643008232
18.864727020263672 -2.2986745834350586 -0.025179414078593254
18.866519927978516 -2.259169340133667 -0.02518407627940178
18.862550735473633 -2.217832088470459 -0.025623109191656113
18.865278244018555 -2.1784722805023193 -0.025628428906202316
18.864192962646484 -2.1386873722076416 -0.02561608888208866
18.840606689453125 -2.0952577590942383 -0.025582129135727882
18.86113739013672 -2.0579261779785156 -0.026286009699106216
18.862430572509766 -2.0184664726257324 -0.026290982961654663
18.857982635498047 -1.9772539138793945 -0.026269640773534775
18.85616683959961 -1.9375109672546387 -0.026279587298631668
18.864025115966797 -1.8976044654846191 -0.026275381445884705
18.85979652404785 -1.8576533794403076 -0.026268914341926575
18.864356994628906 -1.8185839653015137 -0.02671838365495205
18.85979652404785 -1.7774884700775146 -0.026719938963651657
18.879230499267578 -1.7398018836975098 -0.02673373371362686
18.875537872314453 -1.6995052099227905 -0.02672853134572506
18.87437629699707 -1.6592224836349487 -0.02671699784696102
18.867198944091797 -1.6191433668136597 -0.025994736701250076
18.888019561767578 -1.580991506576538 -0.02556602843105793
18.868284225463867 -1.539217233657837 -0.025526462122797966
18.872928619384766 -1.5001771450042725 -0.02598397806286812
18.888065338134766 -1.4614834785461426 -0.026001309975981712
18.886253356933594 -1.4212223291397095 -0.025989679619669914
18.892173767089844 -1.3416790962219238 -0.026688694953918457
18.886856079101562 -1.301915168762207 -0.026686642318964005
18.863460540771484 -1.1812021732330322 -0.02662724256515503
18.86119270324707 -1.0620671510696411 -0.027075937017798424
18.90972328186035 -0.4682275652885437 -0.026149827986955643
18.906200408935547 -0.34922778606414795 -0.026157258078455925
18.897932052612305 -0.23024295270442963 -0.026131106540560722
18.884431838989258 -0.11134877800941467 -0.026121633127331734
18.88840675354004 -0.03182423859834671 -0.02681076154112816
17.81987953186035 0.6018478274345398 -0.0956018939614296
17.778125762939453 0.7123546004295349 -0.0953984409570694
17.776147842407227 0.7496929168701172 -0.09539628028869629
17.781417846679688 0.7875053882598877 -0.09605884552001953
17.773597717285156 0.8615514636039734 -0.09604069590568542
17.7770938873291 0.8993234634399414 -0.09652940928936005
17.770275115966797 0.9359540939331055 -0.09650838375091553
17.76748275756836 1.0478525161743164 -0.09652252495288849
17.745126724243164 1.1215466260910034 -0.09815163165330887
17.73400115966797 1.1582621335983276 -0.09809619188308716
17.634357452392578 1.3378047943115234 -0.09762679040431976
17.40098762512207 2.0944199562072754 -0.09890606999397278
17.368396759033203 2.238602638244629 -0.0994514524936676
17.33643341064453 2.3081307411193848 -0.09932246804237366
17.32248878479004 2.343484401702881 -0.09925226867198944
17.306320190429688 2.4155592918395996 -0.09924142807722092
17.298397064208984 2.4510602951049805 -0.09921200573444366
17.28380584716797 2.486051559448242 -0.09916999191045761
17.264080047607422 2.52040958404541 -0.09909375011920929
17.257566452026367 2.5560455322265625 -0.0990850180387497
17.25897979736328 2.5933279991149902 -0.09913008660078049
17.246257781982422 2.6286425590515137 -0.09908326715230942
17.236492156982422 2.6637659072875977 -0.09906336665153503
17.206829071044922 2.733426094055176 -0.09895159304141998
17.201290130615234 2.7696151733398438 -0.0989529937505722
17.162647247314453 2.874199390411377 -0.10112346708774567
17.13392448425293 2.94362473487854 -0.10105228424072266
17.12571907043457 2.978816270828247 -0.10103856027126312
17.094499588012695 3.0476107597351074 -0.10137386620044708
16.87738609313965 3.671590805053711 -0.10478774458169937
16.87509536743164 3.707785129547119 -0.10481703281402588
16.838451385498047 3.7741410732269287 -0.10469670593738556
16.834808349609375 3.8100316524505615 -0.10471705347299576
