VERSION .7
FIELDS x y z
SIZE 4 4 4
TYPE F F F
COUNT 1 1 1
WIDTH 828
HEIGHT 1
VIEWPOINT 0 0 0 1 0 0 0
POINTS 828
DATA ascii
16.845449447631836 -1.3064253330230713 -0.13518819212913513
16.851734161376953 -1.2717375755310059 -0.1352328360080719
16.826509475708008 -1.2336896657943726 -0.1350211799144745
16.778356552124023 -1.1951590776443481 -0.13464491069316864
16.752593994140625 -1.1573607921600342 -0.13444337248802185
16.765506744384766 -1.1232997179031372 -0.13460971415042877
16.746931076049805 -1.087151050567627 -0.1344725638628006
16.761011123657227 -1.0521137714385986 -0.13454443216323853
16.722026824951172 -1.0148330926895142 -0.13424980640411377
16.73247718811035 -0.9805174469947815 -0.13521763682365417
16.740928649902344 -0.9452345967292786 -0.13340261578559875
16.72455406188965 -0.9094969034194946 -0.1332745999097824
16.723905563354492 -0.8388376235961914 -0.1332366168498993
16.714941024780273 -0.8036174178123474 -0.13314412534236908
16.721731185913086 -0.7333728075027466 -0.13421133160591125
16.69809341430664 -0.697620689868927 -0.13400942087173462
16.708955764770508 -0.6275949478149414 -0.13404680788516998
16.701093673706055 -0.592492938041687 -0.13400201499462128
16.677778244018555 -0.5214528441429138 -0.13350901007652283
16.68234634399414 -0.4166366457939148 -0.13349734246730804
16.67708969116211 -0.3115101754665375 -0.13435235619544983
16.66849136352539 -0.2065354585647583 -0.13440607488155365
16.64476776123047 -0.1361357718706131 -0.13421374559402466
16.639253616333008 -0.10064590722322464 -0.13324718177318573
16.61606788635254 -0.03143913298845291 -0.13308684527873993
14.70098876953125 0.4970426559448242 -0.21161574125289917
14.68884563446045 0.5280488133430481 -0.21143504977226257
14.664427757263184 0.5576439499855042 -0.21108528971672058
14.66162109375 0.5880094766616821 -0.21107015013694763
14.629586219787598 0.6180295348167419 -0.2106034904718399
14.647209167480469 0.6492272615432739 -0.2105511724948883
14.614455223083496 0.7398579120635986 -0.21022920310497284
14.430193901062012 1.768273949623108 -0.21026428043842316
14.424880027770996 1.8293166160583496 -0.21029895544052124
14.406266212463379 1.9190542697906494 -0.21023626625537872
14.392058372497559 1.9475661516189575 -0.21007433533668518
14.387543678283691 1.9782626628875732 -0.2100721001625061
14.375414848327637 2.0069987773895264 -0.20993302762508392
14.368196487426758 2.03639817237854 -0.20990629494190216
14.340282440185547 2.0940847396850586 -0.2095923274755478
14.315680503845215 2.1824941635131836 -0.20942732691764832
15.204663276672363 -4.248594760894775 -0.21515081822872162
15.109527587890625 -2.883209228515625 -0.21597152948379517
15.088274002075195 -2.7809622287750244 -0.2146100252866745
15.082599639892578 -2.6819889545440674 -0.21428292989730835
15.0955810546875 -2.5211100578308105 -0.21505822241306305
15.101110458374023 -2.424551248550415 -0.21585726737976074
15.066871643066406 -2.3219900131225586 -0.21499702334403992
14.921222686767578 -1.2196695804595947 -0.2122332751750946
14.904630661010742 -1.1240344047546387 -0.2126936912536621
14.893186569213867 -1.0920943021774292 -0.21249227225780487
14.903790473937988 -1.0297867059707642 -0.2126072347164154
14.904500961303711 -0.9667850732803345 -0.21267704665660858
14.882820129394531 -0.9343680739402771 -0.21233884990215302
14.845893859863281 -0.8692969679832458 -0.21178235113620758
16.235551834106445 0.004731070715934038 -0.1558213084936142
16.211177825927734 0.07211895287036896 -0.1564653515815735
16.18796730041504 0.20826409757137299 -0.15625324845314026
16.173919677734375 0.2762138247489929 -0.156128391623497
16.16582489013672 0.30963388085365295 -0.15605606138706207
16.113840103149414 0.5793154239654541 -0.15660972893238068
16.093215942382812 0.6121269464492798 -0.15555039048194885
16.078960418701172 0.6792985200881958 -0.15543809533119202
15.946115493774414 1.3118911981582642 -0.15551285445690155
15.933576583862305 1.411759614944458 -0.1554718166589737
15.913352012634277 1.5108516216278076 -0.15623077750205994
15.88720989227295 1.5759079456329346 -0.1560392677783966
15.883953094482422 1.6097474098205566 -0.15604054927825928
15.875242233276367 1.6755688190460205 -0.15602141618728638
15.852155685424805 1.773966908454895 -0.15676437318325043
15.829787254333496 1.8056010007858276 -0.15658198297023773
15.803766250610352 1.9033515453338623 -0.15644009411334991
15.806252479553223 1.9712181091308594 -0.1565447300672531
15.791187286376953 2.0027377605438232 -0.1564365029335022
15.779897689819336 2.0687570571899414 -0.15640823543071747
15.766454696655273 2.1003947257995605 -0.15631923079490662
15.749299049377441 2.1313812732696533 -0.1563013792037964
15.722951889038086 2.1619186401367188 -0.15597674250602722
15.708147048950195 2.19321608543396 -0.155984565615654
15.691108703613281 2.291494607925415 -0.15681234002113342
15.425621032714844 2.8515326976776123 -0.15512695908546448
15.374007225036621 2.9420626163482666 -0.15479084849357605
15.341431617736816 3.0028579235076904 -0.15554502606391907
15.335421562194824 3.0347390174865723 -0.1555461883544922
15.285735130310059 3.09185791015625 -0.15517312288284302
15.278017044067383 3.1233127117156982 -0.1551596224308014
15.251066207885742 3.184774398803711 -0.15501956641674042
15.215240478515625 3.2111191749572754 -0.1547270268201828
15.198041915893555 3.2735447883605957 -0.1546873301267624
15.18845272064209 3.3053371906280518 -0.15465985238552094
15.173185348510742 3.3351173400878906 -0.15457536280155182
15.164510726928711 3.366215705871582 -0.15455780923366547
15.126167297363281 3.3915162086486816 -0.15424153208732605
15.118650436401367 3.4229068756103516 -0.15423724055290222
15.111249923706055 3.4550740718841553 -0.15423628687858582
15.103687286376953 3.4864513874053955 -0.15423232316970825
15.075921058654785 3.5130105018615723 -0.15402278304100037
15.067313194274902 3.5448474884033203 -0.15401248633861542
15.049449920654297 3.5737292766571045 -0.15390552580356598
15.031518936157227 3.602440357208252 -0.15379910171031952
15.003521919250488 3.6626136302948 -0.1536683440208435
14.993416786193848 3.693132162094116 -0.15458448231220245
14.96754264831543 3.753687858581543 -0.15447981655597687
14.91878890991211 3.8413071632385254 -0.15411578118801117
14.74462604522705 4.195453643798828 -0.1525328904390335
14.699539184570312 4.2826972007751465 -0.1523427665233612
14.638328552246094 4.364885330200195 -0.1519894301891327
14.629444122314453 4.429409980773926 -0.1521926373243332
14.60595703125 4.455408573150635 -0.15204602479934692
14.557130813598633 4.507612228393555 -0.15173456072807312
14.560462951660156 4.541777610778809 -0.15186698734760284
14.520286560058594 4.596435546875 -0.15154355764389038
14.508817672729492 4.6268181800842285 -0.15152576565742493
14.498040199279785 4.65665864944458 -0.15069058537483215
14.482860565185547 4.684961318969727 -0.15063217282295227
14.45592212677002 4.710272789001465 -0.15045729279518127
14.430017471313477 4.735088348388672 -0.15029087662696838
14.427484512329102 4.767443656921387 -0.15036621689796448
14.41537857055664 4.797625541687012 -0.15034492313861847
14.400201797485352 4.825790882110596 -0.15029270946979523
14.376001358032227 4.850887298583984 -0.1501443237066269
14.365571975708008 4.881575107574463 -0.1501447558403015
14.338688850402832 4.9056549072265625 -0.14997127652168274
14.32071590423584 4.966972827911377 -0.14999878406524658
14.294109344482422 4.990999698638916 -0.14983153343200684
14.26636028289795 5.0488176345825195 -0.14883466064929962
14.283878326416016 5.088396072387695 -0.14912520349025726
14.2374267578125 5.139519214630127 -0.14886686205863953
14.203512191772461 5.228435516357422 -0.1488528996706009
14.090261459350586 5.491632461547852 -0.14780475199222565
14.043440818786621 5.575332164764404 -0.14767761528491974
14.001571655273438 5.660861968994141 -0.14760905504226685
13.925492286682129 5.698452472686768 -0.1470610648393631
13.922370910644531 5.73093318939209 -0.14633849263191223
13.898979187011719 5.789876937866211 -0.14613847434520721
13.893301010131836 5.821374893188477 -0.14620432257652283
13.854732513427734 5.873929023742676 -0.14524273574352264
13.854782104492188 5.907899379730225 -0.14536955952644348
13.812885284423828 5.924938678741455 -0.1450653374195099
13.813569068908691 5.959201812744141 -0.1451987475156784
13.759459495544434 5.969757080078125 -0.14476323127746582
13.744057655334473 5.9979939460754395 -0.14473649859428406
13.72825813293457 6.0250444412231445 -0.14470084011554718
13.709705352783203 6.051862716674805 -0.14464053511619568
13.702143669128418 6.0825324058532715 -0.14459089934825897
13.6763277053833 6.105077266693115 -0.14445294439792633
13.638538360595703 6.123181343078613 -0.14419367909431458
13.624584197998047 6.150920867919922 -0.14337056875228882
13.631839752197266 6.1882829666137695 -0.1435798555612564
13.610725402832031 6.213799953460693 -0.14349600672721863
13.582588195800781 6.235048294067383 -0.14333327114582062
13.538495063781738 6.283973693847656 -0.1431380808353424
13.49511432647705 6.297908782958984 -0.14281770586967468
13.358139991760254 6.30263090133667 -0.14154817163944244
13.28628921508789 6.302472114562988 -0.1400279700756073
13.175105094909668 6.317838668823242 -0.13903509080410004
13.12624740600586 6.327946662902832 -0.13865746557712555
13.014172554016113 6.341601371765137 -0.13775350153446198
12.853065490722656 6.363393783569336 -0.1356915682554245
12.687911987304688 6.382225036621094 -0.1342758685350418
12.517166137695312 6.395252704620361 -0.13289238512516022
12.370028495788574 6.418460369110107 -0.13099880516529083
12.26185417175293 6.427170753479004 -0.13004180788993835
12.204413414001465 6.430228233337402 -0.12957774102687836
12.09730052947998 6.439027309417725 -0.1287270188331604
12.051429748535156 6.446740627288818 -0.12764084339141846
11.941070556640625 6.452531814575195 -0.1265721321105957
11.887774467468262 6.455641746520996 -0.12541592121124268
11.808395385742188 6.477078437805176 -0.12486333400011063
11.757527351379395 6.480952739715576 -0.12446826696395874
11.705885887145996 6.485130310058594 -0.12397652864456177
11.649023056030273 6.485257625579834 -0.12351728230714798
11.60218334197998 6.490756034851074 -0.12316325306892395
11.56322956085205 6.501436233520508 -0.12289675325155258
11.507959365844727 6.501828193664551 -0.12245243787765503
11.458478927612305 6.505381107330322 -0.12135523557662964
11.410560607910156 6.510344505310059 -0.12099392712116241
11.364620208740234 6.515431880950928 -0.12056068331003189
11.309794425964355 6.516139984130859 -0.12012719362974167
11.273161888122559 6.526231288909912 -0.11988066136837006
11.221457481384277 6.527427673339844 -0.11947550624608994
11.17540454864502 6.53262996673584 -0.11913357675075531
11.128011703491211 6.535947799682617 -0.118771992623806
11.08112621307373 6.53947639465332 -0.11771836876869202
11.03451919555664 6.543693542480469 -0.11737227439880371
10.991913795471191 6.549297332763672 -0.11697554588317871
10.899127960205078 6.556365013122559 -0.11559176445007324
10.85378646850586 6.559803485870361 -0.11508215963840485
10.762347221374512 6.5665788650512695 -0.1144043430685997
10.735389709472656 6.580841541290283 -0.11357986181974411
10.638221740722656 6.582974433898926 -0.1127583384513855
10.604704856872559 6.592807292938232 -0.11254829913377762
10.506946563720703 6.5935444831848145 -0.11180485785007477
10.391512870788574 6.612521171569824 -0.11034867912530899
10.257975578308105 6.619300365447998 -0.10929124057292938
10.134491920471191 6.630227088928223 -0.10776100307703018
10.058677673339844 6.640503883361816 -0.10716482251882553
10.0236234664917 6.648053169250488 -0.10694214701652527
9.934891700744629 6.648837089538574 -0.10628989338874817
9.90907096862793 6.66215181350708 -0.10486921668052673
9.82370376586914 6.664999961853027 -0.10418166220188141
9.782144546508789 6.66649055480957 -0.10380683094263077
9.742055892944336 6.668914318084717 -0.10352861136198044
9.700668334960938 6.670965194702148 -0.10323843359947205
9.665323257446289 6.676243305206299 -0.10301021486520767
9.62847900390625 6.680447101593018 -0.10212963819503784
9.58756160736084 6.682347297668457 -0.10184715688228607
9.563467025756836 6.695180892944336 -0.10173770040273666
9.509526252746582 6.687636375427246 -0.10123708844184875
9.471741676330566 6.690484046936035 -0.10098254680633545
9.443826675415039 6.700282573699951 -0.10083217173814774
9.386995315551758 6.690057277679443 -0.09975404292345047
9.3512601852417 6.693894386291504 -0.09952133893966675
9.333577156066895 6.71066951751709 -0.09940207749605179
9.29700756072998 6.714454650878906 -0.09916496276855469
9.259710311889648 6.716800689697266 -0.09891583025455475
9.212092399597168 6.712339878082275 -0.09856096655130386
9.192526817321777 6.7273335456848145 -0.09849852323532104
9.15381145477295 6.728309154510498 -0.09761875867843628
9.108599662780762 6.724999904632568 -0.0972125306725502
9.081209182739258 6.7339396476745605 -0.09706869721412659
9.036516189575195 6.7300028800964355 -0.09674058109521866
9.01399040222168 6.743114948272705 -0.09604156017303467
8.970965385437012 6.740008354187012 -0.0957333892583847
8.89257526397705 6.739890098571777 -0.0945190042257309
8.875741004943848 6.756271839141846 -0.09448741376399994
8.810251235961914 6.7651166915893555 -0.09409213066101074
8.766569137573242 6.7606353759765625 -0.09377574920654297
8.706753730773926 6.773171424865723 -0.09276602417230606
8.67772102355957 6.779539108276367 -0.09260597079992294
8.59521770477295 6.773568630218506 -0.09203046560287476
8.507109642028809 6.791261672973633 -0.09087745100259781
8.434556007385254 6.791697025299072 -0.09040673077106476
8.412883758544922 6.803826808929443 -0.09032943844795227
8.332855224609375 6.796597003936768 -0.08911705762147903
8.302186012268066 6.801074504852295 -0.08894360065460205
8.233365058898926 6.802088737487793 -0.08850951492786407
8.2048921585083 6.808014869689941 -0.08770716935396194
8.171320915222168 6.808839797973633 -0.08757171034812927
8.1428804397583 6.813916206359863 -0.08741844445466995
8.1102876663208 6.816059112548828 -0.08722399920225143
8.076621055603027 6.816507339477539 -0.08644067496061325
8.058260917663574 6.830447196960449 -0.08632776141166687
8.032013893127441 6.836893081665039 -0.08619766682386398
7.992825031280518 6.832284927368164 -0.08593039214611053
7.957383632659912 6.831368923187256 -0.08570602536201477
7.9253950119018555 6.832620143890381 -0.08551432937383652
7.898288726806641 6.837874889373779 -0.0847385823726654
7.858123302459717 6.832430839538574 -0.08446349203586578
7.83757209777832 6.843268871307373 -0.08439509570598602
7.801466941833496 6.841075420379639 -0.0841628685593605
7.784063339233398 6.8544416427612305 -0.08412772417068481
7.740893363952637 6.8450927734375 -0.0831853523850441
7.710777759552002 6.847775936126709 -0.08301887661218643
7.675757884979248 6.845314025878906 -0.08279459923505783
7.64921236038208 6.850191116333008 -0.08266113698482513
7.62596321105957 6.85869026184082 -0.08249712735414505
7.603175163269043 6.86688232421875 -0.08184938877820969
7.560968399047852 6.858052730560303 -0.08155213296413422
7.534186840057373 6.8623127937316895 -0.08141665160655975
7.516181468963623 6.874598503112793 -0.08137641847133636
7.478175640106201 6.869139671325684 -0.08105385303497314
7.4607062339782715 6.881786346435547 -0.08053848892450333
7.419585227966309 6.872408866882324 -0.08017944544553757
7.389192581176758 6.873549461364746 -0.08001016825437546
7.3600969314575195 6.875123500823975 -0.07985007762908936
7.2689528465271 6.876062393188477 -0.07871726900339127
7.218014717102051 6.885706901550293 -0.07847815006971359
7.189727783203125 6.887277126312256 -0.07832749933004379
7.137380123138428 6.8950066566467285 -0.07746590673923492
7.108375549316406 6.895562171936035 -0.07730618119239807
7.0526885986328125 6.899431228637695 -0.0770159587264061
6.993174076080322 6.899085521697998 -0.07608349621295929
6.9723920822143555 6.907191753387451 -0.07601262629032135
6.919430732727051 6.912707328796387 -0.07515476644039154
6.893202304840088 6.915896415710449 -0.07502993941307068
6.847984790802002 6.927894592285156 -0.07484937459230423
6.815542221069336 6.924503326416016 -0.07458967715501785
6.777055740356445 6.914137363433838 -0.07439322769641876
6.75466251373291 6.919958114624023 -0.07378040999174118
6.728308200836182 6.922388553619385 -0.07365278899669647
6.7062578201293945 6.928504943847656 -0.07350385189056396
6.678049087524414 6.928073883056641 -0.07335193455219269
6.651856422424316 6.930469036102295 -0.07322613149881363
6.6250481605529785 6.931273460388184 -0.0725698247551918
6.605860233306885 6.940728187561035 -0.07245621830224991
6.580745697021484 6.943230628967285 -0.07233858853578568
6.554760932922363 6.944621562957764 -0.07221121340990067
6.525786876678467 6.943485736846924 -0.07153774052858353
6.483558177947998 6.927398204803467 -0.07116958498954773
6.482424259185791 6.955060005187988 -0.07131387293338776
6.447480201721191 6.947170257568359 -0.07109267264604568
6.4116902351379395 6.937519073486328 -0.07034634053707123
6.387113571166992 6.940518856048584 -0.07017430663108826
6.371252059936523 6.952276706695557 -0.07015737891197205
6.3434977531433105 6.950895309448242 -0.07001066952943802
6.316838264465332 6.951354026794434 -0.06988007575273514
6.294461727142334 6.955772399902344 -0.06921923160552979
6.270423412322998 6.958177089691162 -0.06911388039588928
6.2421956062316895 6.9565839767456055 -0.0689668133854866
6.221062183380127 6.9621381759643555 -0.06889165192842484
6.19626522064209 6.964178085327148 -0.06821294873952866
6.174921035766602 6.969353199005127 -0.06820023059844971
6.148487091064453 6.968599796295166 -0.06800541281700134
6.113964080810547 6.988578796386719 -0.0679478794336319
6.078230381011963 6.976896286010742 -0.06720937788486481
6.050523281097412 6.975121021270752 -0.06700602173805237
6.029333114624023 6.979903697967529 -0.06693152338266373
5.972657680511475 6.973444938659668 -0.0661301240324974
5.95974063873291 6.987660884857178 -0.06608501821756363
5.903136253356934 6.980623722076416 -0.06578182429075241
5.883053302764893 6.986227989196777 -0.06516138464212418
5.828299522399902 6.980663776397705 -0.06488022953271866
5.804324626922607 6.981346607208252 -0.06477537006139755
5.782791614532471 6.985749244689941 -0.06414798647165298
5.760649681091309 6.9884748458862305 -0.06406182050704956
5.71522331237793 6.9931640625 -0.06388538330793381
5.695724010467529 6.998896598815918 -0.0632781833410263
5.680510997772217 7.01064395904541 -0.06327351927757263
5.649454116821289 7.002068519592285 -0.06309127807617188
5.624424934387207 7.00150203704834 -0.06291687488555908
5.603847980499268 7.005712032318115 -0.06290929764509201
5.579279899597168 7.004748344421387 -0.06225185841321945
5.553515434265137 7.002949237823486 -0.062130384147167206
5.532974720001221 7.00696325302124 -0.06206341087818146
5.5129899978637695 7.011521339416504 -0.06194170564413071
5.489621639251709 7.012580871582031 -0.061364516615867615
5.4658050537109375 7.012087821960449 -0.06126043573021889
5.453822612762451 7.026741981506348 -0.06128903850913048
5.415660858154297 7.008430480957031 -0.06096835434436798
5.395511150360107 7.012384414672852 -0.06042582914233208
5.385197162628174 7.029902935028076 -0.06047636270523071
5.353854656219482 7.019211769104004 -0.06023003160953522
5.331559658050537 7.020144939422607 -0.059663910418748856
5.307281494140625 7.01915979385376 -0.0595603883266449
5.286805152893066 7.022422790527344 -0.05949381738901138
5.274665355682373 7.036640167236328 -0.059461165219545364
5.237771034240723 7.018612384796143 -0.05874099209904671
5.22744083404541 7.03518009185791 -0.05878789722919464
5.213352203369141 7.046718597412109 -0.058733560144901276
5.188621997833252 7.044717788696289 -0.05862392857670784
5.160380840301514 7.036910057067871 -0.05799754336476326
5.1486663818359375 7.052377700805664 -0.05803418904542923
5.116135120391846 7.038542747497559 -0.05777404084801674
5.100350856781006 7.047532081604004 -0.05775969848036766
5.073882579803467 7.042585372924805 -0.057100772857666016
5.060513019561768 7.054851531982422 -0.05711410194635391
5.010289669036865 7.047311782836914 -0.056823428720235825
4.997580528259277 7.060414791107178 -0.05637642368674278
4.96379280090332 7.0445451736450195 -0.0561656691133976
4.947862148284912 7.052976131439209 -0.056091513484716415
4.927704811096191 7.055339813232422 -0.05556182563304901
4.90255069732666 7.051363945007324 -0.05544864386320114
4.884620189666748 7.056773662567139 -0.055352844297885895
4.865935802459717 7.0610480308532715 -0.055306725203990936
4.852813243865967 7.074301242828369 -0.054863132536411285
4.821198463439941 7.059576034545898 -0.05467170476913452
4.786550045013428 7.072615146636963 -0.05409429967403412
4.766087532043457 7.073960304260254 -0.05402889847755432
4.7412638664245605 7.0696611404418945 -0.05386097729206085
4.731502056121826 7.086852550506592 -0.05391610413789749
4.699097156524658 7.070043563842773 -0.05325524881482124
4.686031818389893 7.083162784576416 -0.053219445049762726
4.656085014343262 7.069734573364258 -0.05304628610610962
4.646137237548828 7.087440490722656 -0.05264493077993393
4.624598503112793 7.0867180824279785 -0.052567772567272186
4.597748279571533 7.077622890472412 -0.052372343838214874
4.580817222595215 7.0846428871154785 -0.05229363963007927
4.566821575164795 7.095245838165283 -0.05184444412589073
4.547783851623535 7.097990989685059 -0.0517384335398674
4.528145790100098 7.1006879806518555 -0.051687657833099365
4.502694129943848 7.093203067779541 -0.05110849067568779
4.4814605712890625 7.093090534210205 -0.050982505083084106
4.461869239807129 7.094751358032227 -0.05092795938253403
4.442036151885986 7.095846176147461 -0.050870057195425034
4.419384956359863 7.093310356140137 -0.05033031105995178
4.400123119354248 7.095157623291016 -0.05022195354104042
4.381290912628174 7.0976338386535645 -0.05017455667257309
4.357502460479736 7.092951774597168 -0.04962369427084923
4.343379020690918 7.102969169616699 -0.04957450553774834
4.316167831420898 7.092357635498047 -0.04943670332431793
4.294142723083496 7.089360237121582 -0.04935317113995552
4.285268783569336 7.107955455780029 -0.04891349747776985
4.260179042816162 7.10059928894043 -0.04880023002624512
4.249402046203613 7.1160688400268555 -0.048845477402210236
4.220729351043701 7.101490020751953 -0.04818204790353775
4.20824670791626 7.115050792694092 -0.04821247234940529
4.180135250091553 7.101111888885498 -0.04805942624807358
4.162107944488525 7.104168891906738 -0.0475182980298996
4.146276950836182 7.111937046051025 -0.04751121625304222
4.123541831970215 7.106794834136963 -0.047419868409633636
4.110973358154297 7.120018482208252 -0.04733729735016823
16.109535217285156 -9.449024200439453 -0.14261013269424438
16.271408081054688 -9.180451393127441 -0.14496834576129913
16.299516677856445 -9.061698913574219 -0.14483755826950073
16.619129180908203 -7.4910383224487305 -0.15171852707862854
16.632911682128906 -7.371793746948242 -0.15240246057510376
16.657596588134766 -7.174473285675049 -0.15414145588874817
16.621797561645508 -7.03550910949707 -0.15438103675842285
16.736080169677734 -6.960143566131592 -0.1551494598388672
16.738162994384766 -6.837904453277588 -0.15587104856967926
16.844377517700195 -5.516340255737305 -0.15929226577281952
16.839597702026367 -5.397797107696533 -0.15976235270500183
16.790420532226562 -5.265867233276367 -0.16005468368530273
16.796401977539062 -5.190149784088135 -0.15990003943443298
16.769615173339844 -5.143773078918457 -0.15954053401947021
16.766639709472656 -5.065704822540283 -0.160256028175354
16.787626266479492 -5.034050941467285 -0.1604757010936737
16.76411247253418 -4.9501471519470215 -0.16005036234855652
16.64798355102539 -3.539454698562622 -0.15988165140151978
16.65260124206543 -3.5043320655822754 -0.1598546952009201
16.651575088500977 -3.430948257446289 -0.15970376133918762
16.62990951538086 -3.39052414894104 -0.15942972898483276
16.65409278869629 -3.3224639892578125 -0.15964283049106598
16.64569664001465 -3.284885883331299 -0.15949493646621704
16.653762817382812 -3.2495312690734863 -0.1604243665933609
16.629426956176758 -3.2089743614196777 -0.16012661159038544
16.627159118652344 -3.100245714187622 -0.15991446375846863
16.611833572387695 -2.989449977874756 -0.15969876945018768
16.616783142089844 -2.882614850997925 -0.1604832261800766
16.54959487915039 -1.808280110359192 -0.1585342288017273
16.55392074584961 -1.7730910778045654 -0.15853913128376007
16.529470443725586 -1.7000923156738281 -0.15823623538017273
16.533016204833984 -1.6657921075820923 -0.1582367718219757
16.495317459106445 -1.5918495655059814 -0.1579260528087616
16.50151824951172 -1.557892084121704 -0.1579553186893463
16.488920211791992 -1.4866687059402466 -0.15866607427597046
16.461278915405273 -1.4497452974319458 -0.15837273001670837
16.465417861938477 -1.4155676364898682 -0.15838439762592316
16.455589294433594 -1.3794305324554443 -0.15826070308685303
16.449615478515625 -1.344559907913208 -0.15817728638648987
16.38911247253418 -1.2701560258865356 -0.157659113407135
16.351072311401367 -1.2329643964767456 -0.15727011859416962
16.34462547302246 -1.1633867025375366 -0.15715354681015015
16.340913772583008 -1.05991792678833 -0.15793734788894653
16.33306121826172 -0.9563372135162354 -0.15680032968521118
16.257158279418945 -0.19967786967754364 -0.1569209098815918
16.259674072265625 -0.09748147428035736 -0.15605556964874268
16.2403564453125 -0.029848843812942505 -0.15586748719215393
19.039447784423828 0.6031877398490906 -0.028053928166627884
19.030426025390625 0.6434676647186279 -0.028042130172252655
19.021991729736328 0.6828360557556152 -0.028032157570123672
18.997371673583984 0.7224592566490173 -0.027998272329568863
18.994691848754883 0.7618352770805359 -0.027996640652418137
19.004108428955078 0.801848292350769 -0.028011616319417953
18.990951538085938 0.8418072462081909 -0.027994580566883087
18.955347061157227 0.8796455264091492 -0.028078094124794006
18.956884384155273 0.91927570104599 -0.028083574026823044
18.96013832092285 0.9599055647850037 -0.028088660910725594
18.950109481811523 0.9988279342651367 -0.028077293187379837
18.93462371826172 1.0779929161071777 -0.0290884580463171
18.928821563720703 1.1172068119049072 -0.029082609340548515
18.915531158447266 1.1962506771087646 -0.029070129618048668
18.900527954101562 1.2348170280456543 -0.02905028872191906
18.902915954589844 1.3148128986358643 -0.028035586699843407
18.879295349121094 1.3526740074157715 -0.02903033047914505
18.873870849609375 1.4322041273117065 -0.02903018705546856
18.694961547851562 2.2898976802825928 -0.030036600306630135
18.68585205078125 2.3686983585357666 -0.030037708580493927
18.660465240478516 2.4058640003204346 -0.030006445944309235
18.63680076599121 2.4816222190856934 -0.029984908178448677
18.62238311767578 2.5200700759887695 -0.02997087500989437
18.6168155670166 2.5587995052337646 -0.029969073832035065
18.610675811767578 2.597317695617676 -0.029968570917844772
18.626445770263672 2.639965057373047 -0.030001360923051834
18.60919952392578 2.6770572662353516 -0.029982589185237885
18.594545364379883 2.714346408843994 -0.029969390481710434
18.586671829223633 2.7536303997039795 -0.029964692890644073
18.590373992919922 2.7937474250793457 -0.02997933328151703
18.571666717529297 2.831387519836426 -0.029959408566355705
18.567703247070312 2.8703536987304688 -0.02996380254626274
18.552391052246094 2.9074196815490723 -0.029947636649012566
18.52593421936035 2.9437036514282227 -0.029917150735855103
18.5075626373291 2.980304718017578 -0.029896706342697144
18.435680389404297 3.0483078956604004 -0.029799703508615494
18.427249908447266 3.086343288421631 -0.030806826427578926
18.372934341430664 3.1567189693450928 -0.03187831491231918
18.375234603881836 3.196516990661621 -0.03189258277416229
18.31833839416504 3.2661590576171875 -0.031818076968193054
17.933149337768555 3.9406189918518066 -0.0312696248292923
17.884912490844727 4.0090508460998535 -0.03233393281698227
17.860868453979492 4.042607307434082 -0.0323052778840065
17.84335708618164 4.117715358734131 -0.032303374260663986
17.80412483215332 4.147594451904297 -0.032250236719846725
17.7930908203125 4.185116767883301 -0.032244037836790085
17.78472900390625 4.222118377685547 -0.032245177775621414
17.764829635620117 4.257373809814453 -0.03222549706697464
17.725744247436523 4.287052154541016 -0.03118508867919445
17.748044967651367 4.331450462341309 -0.03123939223587513
17.713470458984375 4.362998008728027 -0.031192375347018242
17.682985305786133 4.39456033706665 -0.03115605190396309
17.65387535095215 4.426243305206299 -0.031121473759412766
17.632055282592773 4.460700035095215 -0.03109908103942871
17.632568359375 4.499912261962891 -0.031115785241127014
17.61115074157715 4.53441047668457 -0.031094985082745552
17.602346420288086 4.571244239807129 -0.03109687566757202
17.568973541259766 4.601516246795654 -0.03105427697300911
17.547834396362305 4.635930061340332 -0.0310341976583004
17.52724838256836 4.669553279876709 -0.03101419284939766
17.463857650756836 4.731393337249756 -0.03093760274350643
17.423303604125977 4.7593674659729 -0.03088529035449028
17.402484893798828 4.832529067993164 -0.031985875219106674
17.3785343170166 4.86474609375 -0.031959161162376404
17.31467628479004 4.96445894241333 -0.03189849108457565
17.031667709350586 5.469293594360352 -0.030588358640670776
16.98555564880371 5.572518825531006 -0.03056785836815834
16.94953727722168 5.639876365661621 -0.030668016523122787
16.92642593383789 5.671228885650635 -0.030647436156868935
16.91429901123047 5.707383632659912 -0.030524548143148422
16.90245246887207 5.742483615875244 -0.030523911118507385
16.871843338012695 5.771165370941162 -0.030492156744003296
16.847402572631836 5.803035736083984 -0.030469708144664764
16.832313537597656 5.836940765380859 -0.030463064089417458
16.812152862548828 5.870082855224609 -0.02948611229658127
16.799150466918945 5.904812812805176 -0.029484910890460014
16.776607513427734 5.936033248901367 -0.029466845095157623
16.754289627075195 5.968308925628662 -0.029450587928295135
16.73198890686035 5.99965238571167 -0.02943398617208004
16.717592239379883 6.03367280960083 -0.02943005971610546
16.695863723754883 6.066173553466797 -0.029415180906653404
16.6825008392334 6.1005377769470215 -0.029413850978016853
16.659292221069336 6.131274223327637 -0.02939533069729805
16.65398597717285 6.1697492599487305 -0.02940705046057701
16.610530853271484 6.1928815841674805 -0.029232099652290344
16.607419967651367 6.232032299041748 -0.02924933284521103
16.579551696777344 6.260987281799316 -0.029221849516034126
16.56693458557129 6.295534610748291 -0.029222190380096436
16.54084014892578 6.326090335845947 -0.029198845848441124
16.494094848632812 6.347477912902832 -0.02914297580718994
16.41728401184082 6.436701774597168 -0.028125019744038582
16.40104103088379 6.549585342407227 -0.02816106751561165
15.28528881072998 6.669487476348877 -0.024550508707761765
15.150181770324707 6.6866278648376465 -0.024378154426813126
15.078031539916992 6.692203044891357 -0.024284405633807182
14.935995101928711 6.704596519470215 -0.023102212697267532
14.865886688232422 6.710226058959961 -0.02301420271396637
14.804539680480957 6.720641136169434 -0.022941268980503082
14.725381851196289 6.721597194671631 -0.02284083142876625
14.646750450134277 6.72246789932251 -0.022631241008639336
14.573797225952148 6.726712703704834 -0.02253974787890911
14.50916576385498 6.7334394454956055 -0.02246393822133541
14.443557739257812 6.739456653594971 -0.02238219976425171
14.379068374633789 6.746807098388672 -0.021442320197820663
14.315056800842285 6.753053665161133 -0.021368244662880898
14.241509437561035 6.755589962005615 -0.021279629319906235
14.1591157913208 6.752535343170166 -0.021178249269723892
14.120818138122559 6.770275115966797 -0.021140875294804573
14.047412872314453 6.772026062011719 -0.021052129566669464
13.986050605773926 6.7782487869262695 -0.02087470144033432
13.894312858581543 6.769430160522461 -0.02076069824397564
13.862907409667969 6.790812015533447 -0.020733727142214775
13.782364845275879 6.7868571281433105 -0.02063514105975628
13.727706909179688 6.796417713165283 -0.02057414874434471
13.675484657287598 6.805934906005859 -0.019687408581376076
13.59603214263916 6.801632881164551 -0.019594939425587654
13.472949028015137 6.811148643493652 -0.019458815455436707
13.402320861816406 6.810400009155273 -0.019274350255727768
13.284857749938965 6.8212571144104 -0.018235601484775543
13.102315902709961 6.831954002380371 -0.017943521961569786
12.920818328857422 6.840969085693359 -0.01695975475013256
12.439957618713379 6.890818119049072 -0.015627926215529442
12.332130432128906 6.898242473602295 -0.01543209794908762
12.26692008972168 6.896101474761963 -0.015369584783911705
12.17097282409668 6.9097795486450195 -0.015284725464880466
12.133761405944824 6.921988487243652 -0.015255298465490341
12.063617706298828 6.9153032302856445 -0.014433557167649269
12.023913383483887 6.926602840423584 -0.014213393442332745
11.967779159545898 6.927382469177246 -0.01416333019733429
11.932548522949219 6.941063404083252 -0.013391193933784962
11.842489242553711 6.92160701751709 -0.013306818902492523
11.820211410522461 6.941535949707031 -0.013296310789883137
11.75827693939209 6.938986301422119 -0.013150840997695923
11.718387603759766 6.948273658752441 -0.013122874312102795
11.651444435119629 6.941301345825195 -0.013063549995422363
11.614853858947754 6.953163146972656 -0.013038905337452888
11.564477920532227 6.95564603805542 -0.012999041937291622
11.521763801574707 6.9626617431640625 -0.012237408198416233
11.465203285217285 6.961855411529541 -0.012192669324576855
11.416291236877441 6.9646220207214355 -0.012065259739756584
11.370373725891113 6.969983100891113 -0.012032458558678627
11.320752143859863 6.971926689147949 -0.011995346285402775
11.26669979095459 6.970927715301514 -0.011953255161643028
11.234644889831543 6.984326362609863 -0.011934906244277954
11.179327011108398 6.982143402099609 -0.011177517473697662
11.146780967712402 6.994119644165039 -0.011067348532378674
11.088543891906738 6.990530967712402 -0.011025622487068176
11.051685333251953 6.999385833740234 -0.01100393757224083
10.975336074829102 7.015966415405273 -0.01095630507916212
10.90487003326416 7.002944469451904 -0.010198269970715046
10.813928604125977 7.008938312530518 -0.00926690362393856
10.682104110717773 7.019252777099609 -0.009104233235120773
10.555088996887207 7.03129768371582 -0.009033506736159325
10.432073593139648 7.044435977935791 -0.008196856826543808
10.297351837158203 7.0489397048950195 -0.008127113804221153
10.182463645935059 7.064711093902588 -0.007314007729291916
10.089035987854004 7.062201499938965 -0.007268841844052076
10.042299270629883 7.06139612197876 -0.007245161104947329
9.978616714477539 7.078793048858643 -0.006473035551607609
9.936779975891113 7.080970764160156 -0.006456272676587105
9.89027214050293 7.07892370223999 -0.005776291713118553
9.852584838867188 7.0837249755859375 -0.0056799654848873615
9.816879272460938 7.089003086090088 -0.005668096709996462
9.78149700164795 7.094484329223633 -0.005656492430716753
9.728790283203125 7.087920188903809 -0.00498193921521306
9.69504451751709 7.094179630279541 -0.00497150095179677
9.651005744934082 7.093660354614258 -0.004875869024544954
9.607280731201172 7.0922770500183105 -0.004861332476139069
9.556598663330078 7.085649490356445 -0.004843634553253651
9.533814430236816 7.100268363952637 -0.004839329980313778
9.493026733398438 7.100565433502197 -0.004182310309261084
9.46986198425293 7.114032745361328 -0.004097267985343933
9.418338775634766 7.106751441955566 -0.004082836210727692
9.378375053405762 7.107187271118164 -0.004072507377713919
9.3500394821167 7.116409778594971 -0.004065397195518017
9.314447402954102 7.120694637298584 -0.004057208076119423
9.277003288269043 7.122621059417725 -0.0034123179502785206
9.240793228149414 7.126248836517334 -0.003325824858620763
9.191259384155273 7.1185150146484375 -0.0033135705161839724
9.167937278747559 7.131039142608643 -0.0033090803772211075
9.123560905456543 7.127756118774414 -0.0032994505017995834
9.095569610595703 7.1363325119018555 -0.003294076072052121
9.055716514587402 7.135573863983154 -0.0026600686833262444
9.025254249572754 7.1427741050720215 -0.0025770016945898533
8.974635124206543 7.133152008056641 -0.001945775467902422
8.92011833190918 7.151226043701172 -0.0019386778585612774
8.868104934692383 7.139908313751221 -0.0019325516186654568
8.817071914672852 7.160131931304932 -0.0012331188190728426
8.697242736816406 7.154121398925781 -0.0012237201444804668
8.603889465332031 7.168491840362549 -0.0005334976012818515
8.49621868133545 7.169750690460205 -0.00045345097896642983
8.424428939819336 7.170131683349609 0.00014906434807926416
8.411890029907227 7.190403938293457 0.0001495961332693696
8.33812141418457 7.187549591064453 0.00022351660300046206
8.304315567016602 7.189291477203369 0.00022294337395578623
8.27144718170166 7.1910176277160645 0.0008159852586686611
8.229293823242188 7.184409141540527 0.0008138342527672648
8.201960563659668 7.191381931304932 0.0008124943706206977
8.16969108581543 7.193228244781494 0.001475639408454299
8.14301586151123 7.199795246124268 0.0013992798049002886
8.093687057495117 7.186947345733643 0.0013931060675531626
8.080814361572266 7.205660820007324 0.001393623067997396
8.025738716125488 7.187288284301758 0.0014596444088965654
8.01533317565918 7.207998275756836 0.0020459298975765705
7.971034049987793 7.198234558105469 0.002038275822997093
7.9509663581848145 7.210909366607666 0.00203707511536777
7.910066604614258 7.203887939453125 0.0020306662190705538
7.8800482749938965 7.2073073387146 0.0020987153984606266
7.838024139404297 7.1987996101379395 0.0026687970384955406
7.824261665344238 7.216248035430908 0.002669866196811199
7.782480716705322 7.2084431648254395 0.002660018391907215
7.7653727531433105 7.22259521484375 0.002660657512024045
7.722207069396973 7.212491035461426 0.002720898250117898
7.693561553955078 7.2164716720581055 0.003288768930360675
7.654573917388916 7.209919452667236 0.0032771965488791466
7.635806560516357 7.222203254699707 0.0032769853714853525
7.598736763000488 7.217861175537109 0.003339081536978483
7.574746608734131 7.225131988525391 0.00333556835539639
7.551483154296875 7.233716011047363 0.003898714203387499
7.518974781036377 7.232655048370361 0.003890434978529811
7.486859321594238 7.231734275817871 0.0038817054592072964
7.4578857421875 7.23451042175293 0.0039447941817343235
7.426715850830078 7.234346389770508 0.004498262424021959
7.407816410064697 7.245956897735596 0.004496777895838022
7.360293865203857 7.230205535888672 0.004476100206375122
7.348803997039795 7.249044418334961 0.004478963557630777
7.282808780670166 7.24461555480957 0.00508367782458663
7.2380290031433105 7.2301130294799805 0.005063833203166723
7.188510894775391 7.241387367248535 0.005049567669630051
7.1637797355651855 7.24648904800415 0.005042788572609425
7.100765705108643 7.243509292602539 0.00563902547582984
7.020378589630127 7.25214958190918 0.0062281046994030476
6.960541725158691 7.251198768615723 0.006201818585395813
6.937356948852539 7.257130146026611 0.006193833891302347
6.890488147735596 7.2691450119018555 0.006791716907173395
6.850264549255371 7.257601737976074 0.0067670149728655815
6.838377952575684 7.275294303894043 0.0067709265276789665
6.803666591644287 7.268531799316406 0.006818611174821854
6.782661437988281 7.277089595794678 0.007352686021476984
6.743335247039795 7.265164375305176 0.007325941696763039
6.725614070892334 7.276296615600586 0.007323381025344133
6.695706367492676 7.274959087371826 0.00730819720774889
6.671104431152344 7.278581619262695 0.007297570817172527
6.634724140167236 7.269116401672363 0.007272994611412287
6.616210460662842 7.279905796051025 0.007871193811297417
6.592742443084717 7.284496784210205 0.007861682213842869
6.568883419036865 7.289272785186768 0.007852033711969852
6.527847766876221 7.274133682250977 0.007820048369467258
6.50816535949707 7.282547473907471 0.008410689420998096
6.484118461608887 7.286809921264648 0.008400226011872292
6.458137512207031 7.288111209869385 0.00838606059551239
6.43467378616333 7.292859077453613 0.008376062847673893
6.4118499755859375 7.297460556030273 0.008959650993347168
6.374554634094238 7.285549640655518 0.008927579037845135
6.350252628326416 7.289037227630615 0.008914482779800892
6.333318710327148 7.300230979919434 0.008913818746805191
6.3026814460754395 7.295446872711182 0.00947924517095089
6.275689125061035 7.2955498695373535 0.009462288580834866
6.257082939147949 7.304625988006592 0.009457400068640709
6.222384452819824 7.294703006744385 0.009427404962480068
6.20563268661499 7.306619644165039 0.009491273202002048
6.170624256134033 7.296032428741455 0.00997899565845728
6.143048286437988 7.294875144958496 0.009959012269973755
6.127846717834473 7.3076491355896 0.009959012269973755
6.104484558105469 7.310548305511475 0.00994623452425003
6.080663204193115 7.313620090484619 0.010513055138289928
6.060892581939697 7.320791244506836 0.010505422949790955
6.031598091125488 7.316263198852539 0.010481963865458965
5.998501777648926 7.307868003845215 0.010449177585542202
5.973454475402832 7.308225631713867 0.011008341796696186
5.917042255401611 7.301750183105469 0.010961298830807209
5.901702404022217 7.313797473907471 0.010960458777844906
5.845887660980225 7.3073859214782715 0.011485184542834759
5.8296685218811035 7.318192481994629 0.011483750306069851
5.772923946380615 7.309918403625488 0.012001331895589828
5.72388219833374 7.310911655426025 0.011963902041316032
5.710726737976074 7.325376033782959 0.012030458077788353
5.661745071411133 7.325965404510498 0.012494371272623539
5.631957530975342 7.318761825561523 0.01246242132037878
5.606357574462891 7.317785739898682 0.012502461671829224
5.595247745513916 7.334763526916504 0.013012965209782124
5.577408790588379 7.34375524520874 0.013008764944970608
5.5463175773620605 7.334471225738525 0.013034015893936157
5.519210338592529 7.33019495010376 0.012942396104335785
5.503039360046387 7.3411970138549805 0.013003766536712646
5.483422756195068 7.3468499183654785 0.013490385375916958
5.452341079711914 7.336920738220215 0.013451406732201576
5.434152603149414 7.345168113708496 0.013507016003131866
5.411473274230957 7.346349716186523 0.01348945964127779
5.3822712898254395 7.3385491371154785 0.013947871513664722
5.354654788970947 7.333694934844971 0.013977376744151115
5.344348430633545 7.351564884185791 0.013991542160511017
5.3103742599487305 7.337632656097412 0.014434718526899815
5.296337604522705 7.350409030914307 0.014437835663557053
5.256743431091309 7.327471733093262 0.014431532472372055
5.248268127441406 7.348647117614746 0.014452838338911533
5.224023342132568 7.3469929695129395 0.014916626736521721
5.199442386627197 7.345493316650391 0.014951365068554878
5.175873279571533 7.34457540512085 0.01492778118699789
5.155522346496582 7.348033428192139 0.015399476513266563
5.137432098388672 7.3555145263671875 0.01539318636059761
5.118544578552246 7.361071586608887 0.015443325974047184
5.088449478149414 7.350286960601807 0.01539837196469307
5.070923805236816 7.358509063720703 0.015878133475780487
5.045203685760498 7.3538007736206055 0.015905458480119705
5.028541564941406 7.362218856811523 0.01590125449001789
5.00620174407959 7.3632354736328125 0.015880689024925232
4.9920172691345215 7.375244140625 0.016427498310804367
4.961802959442139 7.364339828491211 0.016380583867430687
4.947392463684082 7.376044273376465 0.016443366184830666
4.912362575531006 7.356773376464844 0.016376715153455734
4.8741559982299805 7.366544246673584 0.01689225248992443
4.8647003173828125 7.385512351989746 0.0169134009629488
4.830717086791992 7.368135452270508 0.017327427864074707
4.804745674133301 7.361794948577881 0.0173475481569767
4.783481121063232 7.362549781799316 0.01732676476240158
4.777059078216553 7.387158393859863 0.01736140251159668
4.745334148406982 7.371603965759277 0.017775781452655792
4.7097649574279785 7.384494781494141 0.017819559201598167
4.696558952331543 7.397604465484619 0.018303783610463142
4.668670177459717 7.388511657714844 0.018315274268388748
4.657822132110596 7.405330657958984 0.018333321437239647
4.602210998535156 7.385750770568848 0.018766872584819794
4.580256462097168 7.384613990783691 0.018739983439445496
4.566616058349609 7.397857666015625 0.018749689683318138
4.537600517272949 7.385096549987793 0.019221825525164604
4.523559093475342 7.39661169052124 0.019227949902415276
4.5018630027771 7.396589279174805 0.019202396273612976
4.485538005828857 7.404322624206543 0.019257359206676483
4.457379341125488 7.392413139343262 0.019728321582078934
4.443923473358154 7.40582799911499 0.019738899543881416
4.419303894042969 7.399561405181885 0.01969848945736885
4.404119491577148 7.409934997558594 0.020227305591106415
4.379969120025635 7.40435791015625 0.020185954868793488
4.364238739013672 7.412827491760254 0.02018457092344761
4.339455604553223 7.4068779945373535 0.02066732756793499
4.319459438323975 7.407950401306152 0.020645497366786003
4.299468517303467 7.408956527709961 0.020622767508029938
4.283001899719238 7.417033672332764 0.020678438246250153
4.257567882537842 7.408448219299316 0.021093223243951797
4.234835624694824 7.404417991638184 0.02105579525232315
4.21528434753418 7.4069037437438965 0.02109559252858162
4.188684463500977 7.395823955535889 0.021499980241060257
4.181639194488525 7.420305252075195 0.02154645510017872
4.157658576965332 7.413680076599121 0.021558396518230438
4.131291389465332 7.40263032913208 0.021961120888590813
4.119369029998779 7.418462753295898 0.021982207894325256
4.097606658935547 7.415488243103027 0.022006021812558174
4.078444480895996 7.418201923370361 0.02244703099131584
4.05637788772583 7.414469242095947 0.022410470992326736
4.049561500549316 7.438629150390625 0.022458544000983238
4.00840425491333 7.400631427764893 0.022373901680111885
4.001463890075684 7.424567222595215 0.022936658933758736
17.376821517944336 -9.330068588256836 0.007098340429365635
19.713809967041016 -8.247953414916992 -0.005677179899066687
19.75672721862793 -8.023253440856934 -0.006967455148696899
19.776975631713867 -7.983707427978516 -0.009278982877731323
19.774383544921875 -7.8859758377075195 -0.009409349411725998
19.80927276611328 -7.755908489227295 -0.009399977512657642
19.828866958618164 -7.620165824890137 -0.01068364642560482
19.9735164642334 -5.177052974700928 -0.022674361243844032
20.00623893737793 -5.051532745361328 -0.02268722653388977
19.739133834838867 -3.63812518119812 -0.02560850977897644
19.715898513793945 -3.5058319568634033 -0.02554897964000702
19.68876075744629 -3.4155304431915283 -0.025633273646235466
19.675771713256836 -3.371232748031616 -0.026688281446695328
19.660369873046875 -3.3266115188598633 -0.026657693088054657
19.6640625 -3.2840423583984375 -0.026653023436665535
19.640199661254883 -3.23817777633667 -0.026612700894474983
19.629146575927734 -3.1514999866485596 -0.026580307632684708
19.613805770874023 -3.107299327850342 -0.02668801322579384
19.60591697692871 -3.0214641094207764 -0.026659376919269562
19.608577728271484 -2.980229616165161 -0.026654677465558052
19.585050582885742 -2.850804328918457 -0.02766909822821617
19.445165634155273 -1.5894105434417725 -0.027409907430410385
19.43462371826172 -1.46561598777771 -0.02738133631646633
19.436901092529297 -1.4252290725708008 -0.027379607781767845
19.43669319152832 -1.384533405303955 -0.027374736964702606
19.43991470336914 -1.3431650400161743 -0.02737593464553356
19.417224884033203 -1.301116704940796 -0.02734154649078846
19.413549423217773 -1.2592180967330933 -0.02746676281094551
19.393733978271484 -1.2175230979919434 -0.027434881776571274
19.39622688293457 -1.1772749423980713 -0.02743397280573845
19.385068893432617 -1.135039210319519 -0.02741287648677826
19.375022888183594 -1.0941112041473389 -0.028446726500988007
19.35365867614746 -1.0526187419891357 -0.028412150219082832
19.285415649414062 -0.9674664735794067 -0.028308652341365814
19.28130531311035 -0.927017867565155 -0.028300698846578598
19.255651473999023 -0.8446516990661621 -0.028253396973013878
