VERSION .7
FIELDS x y z
SIZE 4 4 4
TYPE F F F
COUNT 1 1 1
WIDTH 849
HEIGHT 1
VIEWPOINT 0 0 0 1 0 0 0
POINTS 849
DATA ascii
9.82746696472168 6.819163799285889 0.1278250515460968
9.700563430786133 6.821849346160889 0.12672914564609528
9.637711524963379 6.8384928703308105 0.12565869092941284
9.56818962097168 6.819058418273926 0.12493397295475006
9.505093574523926 6.8346357345581055 0.12439249455928802
9.472261428833008 6.840892314910889 0.12414833158254623
9.376328468322754 6.831876277923584 0.12326648831367493
9.255760192871094 6.8335185050964355 0.12163369357585907
9.148687362670898 6.843745231628418 0.12069766223430634
9.044099807739258 6.8546013832092285 0.12099584937095642
8.931434631347656 6.858038425445557 0.11946694552898407
8.164036750793457 6.890913009643555 0.11252196878194809
8.055256843566895 6.88627815246582 0.11161640286445618
7.972235679626465 6.90252161026001 0.11106559634208679
7.896422386169434 6.894541263580322 0.10976579785346985
7.864859104156494 6.896535873413086 0.10953336209058762
7.803143501281738 6.900027751922607 0.10907339304685593
7.776693344116211 6.906186103820801 0.10890720784664154
7.717578887939453 6.912042617797852 0.10848643630743027
7.674598217010498 6.902303218841553 0.10753625631332397
7.649956703186035 6.909022331237793 0.1073918417096138
7.613539218902588 6.9056077003479 0.10700377821922302
7.587846279144287 6.91105842590332 0.10684357583522797
7.5496134757995605 6.905065536499023 0.10650783777236938
7.52621603012085 6.9131388664245605 0.1063852608203888
7.4854559898376465 6.904394149780273 0.10601212829351425
7.464791297912598 6.914169788360596 0.10646302253007889
7.423789978027344 6.905605316162109 0.10608528554439545
7.416486740112305 6.927685737609863 0.10618897527456284
7.3142266273498535 6.918776988983154 0.1047317162156105
7.230860710144043 6.926568031311035 0.10415889322757721
6.720518112182617 6.943127155303955 0.09985097497701645
6.635571479797363 6.942171573638916 0.09872704744338989
6.549488544464111 6.9389238357543945 0.09809156507253647
6.465994358062744 6.937320709228516 0.0974155142903328
6.4192681312561035 6.945606231689453 0.09664975106716156
6.393030166625977 6.946080684661865 0.09647174179553986
6.369992733001709 6.950680255889893 0.09634959697723389
6.342659950256348 6.949865818023682 0.09615370631217957
6.320899963378906 6.954954624176025 0.09604234993457794
6.2900390625 6.950772762298584 0.09579876810312271
6.259655952453613 6.9461164474487305 0.0954807922244072
6.239467620849609 6.953414440155029 0.09539718925952911
6.214599609375 6.954793930053711 0.09474502503871918
6.190438270568848 6.956757068634033 0.09459653496742249
6.167374610900879 6.9606122970581055 0.09447304159402847
6.13968563079834 6.958512306213379 0.09475961327552795
6.104609489440918 6.947766304016113 0.0944395437836647
6.089536190032959 6.9604315757751465 0.09394608438014984
6.072722911834717 6.970461845397949 0.09391258656978607
6.042382717132568 6.964765548706055 0.0936654731631279
6.012598037719727 6.960417747497559 0.09343472123146057
5.993324279785156 6.967280864715576 0.09335926920175552
5.956137657165527 6.953185081481934 0.0930037871003151
5.9416728019714355 6.966363906860352 0.0929386094212532
5.92423152923584 6.975180625915527 0.0924062728881836
5.866008758544922 6.965874671936035 0.09195397794246674
5.837575435638428 6.96137809753418 0.09173373132944107
5.7988057136535645 6.9745941162109375 0.09158607572317123
5.775217056274414 6.975618839263916 0.09144358336925507
5.7252912521362305 6.974907875061035 0.09063887596130371
5.6967878341674805 6.969738006591797 0.09034198522567749
5.437779426574707 6.976019859313965 0.08830101788043976
5.3838911056518555 6.997166633605957 0.08813947439193726
5.306870460510254 6.987521171569824 0.08706125617027283
5.256044387817383 6.980677127838135 0.0867019072175026
5.24701452255249 6.999635696411133 0.08679849654436111
5.224707126617432 7.000098705291748 0.08667148649692535
5.206178665161133 7.005673408508301 0.08660490065813065
5.172976016998291 6.992027282714844 0.0862996056675911
5.155117034912109 6.998215675354004 0.0857839286327362
5.1341047286987305 7.000961780548096 0.08561386168003082
5.118180751800537 7.00970458984375 0.08559109270572662
5.080962181091309 6.989255905151367 0.08520948886871338
5.066335201263428 7.000412464141846 0.08521445095539093
5.039480686187744 6.9938178062438965 0.08500644564628601
5.0145087242126465 6.989815711975098 0.08489835262298584
4.9978766441345215 6.998029708862305 0.08487031608819962
4.982353210449219 7.006992816925049 0.08485344797372818
4.956541538238525 7.001530170440674 0.08459337055683136
4.930261611938477 6.995932579040527 0.08394389599561691
4.922656536102295 7.016134738922119 0.08406557142734528
4.907803058624268 7.025930881500244 0.0840596854686737
4.879206657409668 7.016756057739258 0.08382675796747208
4.853721618652344 7.011221408843994 0.08363787084817886
4.837989807128906 7.0203752517700195 0.08362557739019394
4.813376426696777 7.015774250030518 0.08344949781894684
4.7899885177612305 7.012956619262695 0.0828469917178154
4.765895366668701 7.009666919708252 0.08268867433071136
4.740898132324219 7.004118919372559 0.08243890851736069
4.736169815063477 7.029434680938721 0.08261915296316147
4.700750827789307 7.008206844329834 0.08225367963314056
4.681248188018799 7.010656356811523 0.08216806501150131
4.641188144683838 7.014327049255371 0.08198225498199463
4.6196770668029785 7.013521194458008 0.08141499757766724
4.572888374328613 7.006544589996338 0.08110739290714264
4.556131362915039 7.012621879577637 0.08106935024261475
4.513675689697266 7.011734962463379 0.08083729445934296
4.492156028747559 7.010226249694824 0.08071281015872955
4.4573073387146 7.020756721496582 0.0806172639131546
4.410369873046875 7.011913299560547 0.08030292391777039
4.399084091186523 7.026279926300049 0.07985703647136688
4.356803894042969 7.024349212646484 0.07962402701377869
4.33538293838501 7.022304058074951 0.07950012385845184
4.2920308113098145 7.018033027648926 0.07924478501081467
4.277665615081787 7.027266502380371 0.07924926280975342
4.2349629402160645 7.023542881011963 0.07857049256563187
4.216557025909424 7.025948524475098 0.07849886268377304
4.199563980102539 7.031634330749512 0.07839790731668472
4.180290222167969 7.032472610473633 0.07830960303544998
4.162078857421875 7.035884857177734 0.07824820280075073
4.137894630432129 7.0283732414245605 0.07807118445634842
4.116427898406982 7.025215148925781 0.07793891429901123
4.106866359710693 7.043349266052246 0.07804360240697861
4.088408470153809 7.045251846313477 0.07753803580999374
4.059210777282715 7.0284953117370605 0.07725974917411804
4.043485164642334 7.035929203033447 0.07767751812934875
4.016055107116699 7.021890163421631 0.07743008434772491
4.001753330230713 7.031566143035889 0.07701225578784943
3.9888477325439453 7.042978763580322 0.07704799622297287
3.9664065837860107 7.037371635437012 0.07689635455608368
3.942967653274536 7.030725955963135 0.07673195004463196
3.9279487133026123 7.038271903991699 0.07672381401062012
3.9094667434692383 7.039443492889404 0.07658466696739197
3.891766309738159 7.0429768562316895 0.07653241604566574
3.870582103729248 7.039107322692871 0.07640231400728226
3.8579087257385254 7.0506744384765625 0.07601629197597504
3.831326484680176 7.037753582000732 0.07578740268945694
3.817633867263794 7.047388553619385 0.07580558210611343
3.7922370433807373 7.036220073699951 0.07559864223003387
28.026155471801758 1.0146007537841797 0.3900335729122162
27.999675750732422 1.1899385452270508 0.3929632008075714
28.008398056030273 1.3084993362426758 0.39316028356552124
28.00902557373047 1.3667855262756348 0.39320895075798035
28.01534652709961 1.4853845834732056 0.39188870787620544
28.01509666442871 1.5436782836914062 0.3919292092323303
27.997417449951172 1.6609987020492554 0.3915523886680603
28.014081954956055 1.72183358669281 0.39184340834617615
27.99432373046875 1.8374924659729004 0.39166259765625
28.024415969848633 1.899383306503296 0.3921424150466919
27.997604370117188 1.9561593532562256 0.391823410987854
28.00596809387207 2.0151538848876953 0.39050087332725525
27.99757194519043 2.07446026802063 0.39044439792633057
28.00322914123535 2.133537530899048 0.39058563113212585
27.996408462524414 2.191462516784668 0.3903312683105469
28.023033142089844 2.2537872791290283 0.3907715976238251
28.03168487548828 2.313040256500244 0.39095941185951233
28.012107849121094 2.371464967727661 0.39075523614883423
28.01340675354004 2.4303534030914307 0.3908396363258362
28.006336212158203 2.4883062839508057 0.39080938696861267
27.99945640563965 2.6065895557403564 0.3913052976131439
27.950237274169922 2.6605238914489746 0.39047640562057495
27.89393424987793 2.773750066757202 0.3898448348045349
27.87544059753418 2.8303422927856445 0.38966989517211914
27.87781524658203 2.9492504596710205 0.38987433910369873
27.817691802978516 3.0012760162353516 0.3891162872314453
27.755226135253906 3.1128406524658203 0.3867199420928955
27.686641693115234 3.281520128250122 0.3860452473163605
27.4564208984375 3.9583168029785156 0.38262495398521423
27.365238189697266 4.120943069458008 0.3817022740840912
27.29399299621582 4.285861015319824 0.3793884813785553
27.214231491088867 4.448815822601318 0.37866124510765076
27.197175979614258 4.503995418548584 0.37855494022369385
27.17910385131836 4.5606770515441895 0.3767572045326233
27.143524169921875 4.612640857696533 0.37639373540878296
27.123191833496094 4.667118072509766 0.3762487471103668
27.107677459716797 4.724092960357666 0.3761676549911499
27.075788497924805 4.7764506340026855 0.37586313486099243
27.053173065185547 4.831857681274414 0.37568962574005127
27.009950637817383 4.882214546203613 0.37501418590545654
27.008230209350586 4.9398040771484375 0.37367433309555054
26.967987060546875 4.991787433624268 0.37325960397720337
26.938623428344727 5.044408798217773 0.3729957640171051
26.90703582763672 5.096312046051025 0.37270262837409973
26.88837432861328 5.15230131149292 0.3725930452346802
26.85944175720215 5.20456600189209 0.3711004853248596
26.844907760620117 5.261058807373047 0.3708415627479553
26.825170516967773 5.3152360916137695 0.37072068452835083
26.812877655029297 5.370650291442871 0.37070584297180176
26.768505096435547 5.421266555786133 0.3702511787414551
26.759737014770508 5.47732400894165 0.3702858090400696
26.738346099853516 5.530782222747803 0.36869192123413086
26.71732521057129 5.585976600646973 0.368352472782135
26.682483673095703 5.636508941650391 0.36803367733955383
26.65843391418457 5.689244270324707 0.36786240339279175
26.655176162719727 5.748110771179199 0.36798861622810364
26.642114639282227 5.803178787231445 0.367973268032074
26.5759220123291 5.906102180480957 0.3659479320049286
26.53235626220703 5.954226493835449 0.3653029799461365
26.46355438232422 6.113780975341797 0.3634323477745056
26.361488342285156 6.265026569366455 0.36235296726226807
24.494403839111328 6.477684020996094 0.33454468846321106
24.153060913085938 6.496368408203125 0.3287270963191986
23.974899291992188 6.5018310546875 0.32648444175720215
23.600238800048828 6.507048606872559 0.3217470943927765
23.447837829589844 6.517416000366211 0.31985732913017273
23.102153778076172 6.5262651443481445 0.31404584646224976
22.952375411987305 6.5354156494140625 0.31219571828842163
22.625812530517578 6.545567989349365 0.308125376701355
22.439252853393555 6.542089462280273 0.30433928966522217
22.309104919433594 6.5558857917785645 0.30276650190353394
22.154796600341797 6.560516834259033 0.3008557856082916
22.00916862487793 6.56710147857666 0.2978407144546509
21.851518630981445 6.570930004119873 0.2958967685699463
21.70639991760254 6.576441287994385 0.29290956258773804
21.588653564453125 6.589710235595703 0.29150715470314026
21.436079025268555 6.593230724334717 0.28963419795036316
21.290414810180664 6.59682035446167 0.2876736521720886
21.16240692138672 6.605320453643799 0.28613048791885376
21.022478103637695 6.610962390899658 0.28325507044792175
20.87615394592285 6.612585067749023 0.28146785497665405
20.753084182739258 6.622416019439697 0.27999791502952576
20.640865325927734 6.633833408355713 0.2784980535507202
20.483871459960938 6.630308151245117 0.27656492590904236
20.35027313232422 6.635124206542969 0.2738134264945984
20.22675323486328 6.641319274902344 0.2723363935947418
19.97943687438965 6.6534576416015625 0.26921534538269043
19.84794807434082 6.655457973480225 0.2665148377418518
19.60060691833496 6.664477348327637 0.26356834173202515
19.465831756591797 6.663748741149902 0.26194143295288086
19.24253273010254 6.677973747253418 0.258068710565567
19.11817741394043 6.679301738739014 0.25658726692199707
18.872400283813477 6.6827473640441895 0.25244221091270447
18.763303756713867 6.688136100769043 0.2513246238231659
18.539188385009766 6.696213722229004 0.2474943995475769
18.228496551513672 6.713836669921875 0.24287356436252594
17.58121109008789 6.727811813354492 0.23405921459197998
17.279706954956055 6.738333225250244 0.22962404787540436
17.004785537719727 6.754589080810547 0.22638536989688873
16.813566207885742 6.759714603424072 0.22310657799243927
16.702167510986328 6.756257057189941 0.22181770205497742
16.525623321533203 6.765965938568115 0.21890027821063995
16.44306182861328 6.77203893661499 0.2170480489730835
16.354820251464844 6.77542781829834 0.21606823801994324
16.267934799194336 6.780185699462891 0.21511171758174896
16.16148567199707 6.7752180099487305 0.21388770639896393
16.065343856811523 6.774144649505615 0.21173584461212158
15.984786987304688 6.78043270111084 0.21086522936820984
15.903595924377441 6.784968376159668 0.20998069643974304
15.808344841003418 6.783289909362793 0.2089073210954666
15.726226806640625 6.787723064422607 0.20696811378002167
15.646982192993164 6.792073726654053 0.206109881401062
15.548754692077637 6.78894567489624 0.20500493049621582
15.460704803466797 6.788736343383789 0.20402933657169342
15.380090713500977 6.791444301605225 0.2021254599094391
15.308697700500488 6.79903507232666 0.20137867331504822
15.215926170349121 6.7956719398498535 0.20034225285053253
15.147394180297852 6.802803039550781 0.19962573051452637
15.0580415725708 6.801367282867432 0.19763106107711792
14.991000175476074 6.808577060699463 0.1969352662563324
14.913163185119629 6.810735702514648 0.19609959423542023
14.829913139343262 6.8108978271484375 0.19519485533237457
14.75947093963623 6.815671443939209 0.19346128404140472
14.668554306030273 6.810795307159424 0.1924533247947693
14.605975151062012 6.819564342498779 0.1918242871761322
14.508108139038086 6.810575485229492 0.1907220333814621
14.44559383392334 6.818926811218262 0.189115971326828
14.360909461975098 6.8154296875 0.18831892311573029
14.289083480834961 6.8178486824035645 0.1875622272491455
14.216146469116211 6.820230484008789 0.1859574168920517
14.149402618408203 6.824367046356201 0.18514424562454224
14.066156387329102 6.820370197296143 0.1842402219772339
13.919716835021973 6.821781158447266 0.18187345564365387
13.733753204345703 6.838052749633789 0.179066002368927
13.504829406738281 6.830486297607422 0.17651651799678802
13.305808067321777 6.835208892822266 0.1735609918832779
12.941494941711426 6.85594367980957 0.16825304925441742
12.79223918914795 6.845148086547852 0.1657947152853012
12.727124214172363 6.845187187194824 0.16525427997112274
12.61489200592041 6.852607250213623 0.1640523225069046
12.544032096862793 6.848730564117432 0.16256040334701538
12.505300521850586 6.861437797546387 0.16224363446235657
12.431746482849121 6.854683876037598 0.1614731252193451
12.366531372070312 6.853086471557617 0.1599521040916443
12.313425064086914 6.8572235107421875 0.15944916009902954
12.247133255004883 6.854496002197266 0.15877991914749146
12.193818092346191 6.857926845550537 0.15827229619026184
12.138969421386719 6.860403537750244 0.15689513087272644
12.092057228088379 6.867887020111084 0.15647731721401215
12.033611297607422 6.867758274078369 0.1559053510427475
11.982583999633789 6.872613430023193 0.1545914113521576
11.91174030303955 6.864870548248291 0.15385982394218445
11.863903045654297 6.870264053344727 0.15342682600021362
11.808624267578125 6.871854305267334 0.15290066599845886
11.756239891052246 6.874067783355713 0.1515752077102661
11.701740264892578 6.874951362609863 0.15105761587619781
11.650920867919922 6.878491401672363 0.15058951079845428
11.58591079711914 6.872573375701904 0.14911088347434998
11.52907657623291 6.871368408203125 0.14856278896331787
11.472644805908203 6.870866775512695 0.1480240672826767
11.422840118408203 6.873286247253418 0.14756493270397186
11.363814353942871 6.870053291320801 0.147092804312706
11.311254501342773 6.87119197845459 0.14579370617866516
11.273929595947266 6.880588054656982 0.1454964131116867
11.211228370666504 6.875235080718994 0.1448758989572525
11.162410736083984 6.877213478088379 0.14373347163200378
11.126644134521484 6.887194633483887 0.1433534473180771
11.059041976928711 6.87794828414917 0.14267006516456604
11.01494026184082 6.882260799407959 0.14228516817092896
10.957773208618164 6.878321170806885 0.14094209671020508
10.919014930725098 6.886431694030762 0.1406315714120865
10.861279487609863 6.881686210632324 0.1400720626115799
10.814022064208984 6.88323450088501 0.13886494934558868
10.752276420593262 6.876131534576416 0.1382589489221573
10.70382308959961 6.876604080200195 0.13781915605068207
10.627388000488281 6.890779495239258 0.1364344358444214
10.571708679199219 6.8860015869140625 0.1359032392501831
10.474828720092773 6.8857808113098145 0.13426333665847778
10.426053047180176 6.884864807128906 0.13382232189178467
10.342469215393066 6.892395496368408 0.1323619782924652
10.197738647460938 6.888915061950684 0.13115908205509186
10.073051452636719 6.897303581237793 0.12936526536941528
9.93062973022461 6.891881942749023 0.12735231220722198
9.841036796569824 6.89129114151001 0.12584103643894196
9.799994468688965 6.892904281616211 0.1254986971616745
9.726396560668945 6.902547359466553 0.12419964373111725
9.673786163330078 6.896215915679932 0.12371489405632019
9.631674766540527 6.89638614654541 0.12273051589727402
9.594554901123047 6.90008544921875 0.12244006991386414
9.55363941192627 6.901557445526123 0.12201128900051117
9.510255813598633 6.900411605834961 0.1210167333483696
9.47689151763916 6.90626859664917 0.12077460438013077
9.427403450012207 6.90097188949585 0.12023754417896271
9.390061378479004 6.903726100921631 0.11994447559118271
9.332287788391113 6.891129493713379 0.11877305060625076
9.311657905578613 6.906567096710205 0.11860503256320953
9.265024185180664 6.901944160461426 0.11819381266832352
9.222040176391602 6.900490760803223 0.11731316894292831
9.182772636413574 6.900879859924316 0.11699552088975906
9.147188186645508 6.904001235961914 0.11663390696048737
9.105016708374023 6.902637958526611 0.11567673087120056
9.055736541748047 6.895031452178955 0.11523275822401047
9.028741836547852 6.904122829437256 0.11498080939054489
8.987512588500977 6.902957916259766 0.11404123902320862
8.965420722961426 6.915731430053711 0.11394352465867996
8.919665336608887 6.910765647888184 0.11345876008272171
8.880416870117188 6.909895420074463 0.11254435777664185
8.837581634521484 6.9061689376831055 0.11218343675136566
8.805376052856445 6.9112372398376465 0.1118718832731247
8.76417064666748 6.908335208892822 0.11093807220458984
8.73725700378418 6.9166789054870605 0.11077963560819626
8.704451560974121 6.920894622802734 0.11046172678470612
8.653700828552246 6.910016059875488 0.10941227525472641
8.622696876525879 6.914610385894775 0.10920150578022003
8.590432167053223 6.918828010559082 0.10897903144359589
8.55345630645752 6.918472766876221 0.10802111029624939
8.512166976928711 6.914346694946289 0.10768058896064758
8.487466812133789 6.924317359924316 0.10755443572998047
8.435260772705078 6.911043167114258 0.10640943050384521
8.376806259155273 6.922314643859863 0.10603883862495422
8.333473205566406 6.915659427642822 0.10509693622589111
8.262924194335938 6.916083335876465 0.10457361489534378
8.22701358795166 6.915109634399414 0.10364451259374619
8.153472900390625 6.912101745605469 0.10308385640382767
8.136539459228516 6.926817417144775 0.10239900648593903
8.05710506439209 6.9179277420043945 0.10176508873701096
8.024795532226562 6.919167995452881 0.1008913442492485
7.989188194274902 6.918276309967041 0.10062926262617111
7.966396331787109 6.927520275115967 0.10052305459976196
7.902575969696045 6.9306864738464355 0.09944353997707367
7.861988067626953 6.92400598526001 0.09911338984966278
7.782696723937988 6.912590980529785 0.09784454107284546
7.7557373046875 6.917490482330322 0.09768585860729218
7.684737205505371 6.912492752075195 0.09652648121118546
7.671547889709473 6.930222988128662 0.09654585272073746
7.607189178466797 6.929749488830566 0.09546960145235062
7.577660083770752 6.932416915893555 0.09528395533561707
7.539393424987793 6.926314830780029 0.09444081038236618
7.509324550628662 6.927481651306152 0.09370186179876328
7.478631496429443 6.928686141967773 0.09342125803232193
7.446820259094238 6.928098201751709 0.09266439080238342
7.414083957672119 6.926400661468506 0.09243573248386383
7.381213188171387 6.9252800941467285 0.09212936460971832
7.33928108215332 6.9146318435668945 0.09124995768070221
7.320287704467773 6.926205158233643 0.09119664132595062
7.286141872406006 6.922720432281494 0.0908706784248352
7.26008415222168 6.9266862869262695 0.090192511677742
7.231350421905518 6.928731918334961 0.0900183916091919
7.19940710067749 6.926947593688965 0.08972034603357315
7.162076950073242 6.9197096824646 0.08890565484762192
7.139821529388428 6.927648067474365 0.08881212025880814
7.100993633270264 6.918750286102295 0.08842906355857849
7.073302745819092 6.9204421043396 0.08773793280124664
7.044011116027832 6.9211859703063965 0.0874781608581543
7.022381782531738 6.928745269775391 0.0873885229229927
6.9813127517700195 6.916873455047607 0.08653464913368225
6.953713417053223 6.919027805328369 0.0862971842288971
6.935389995574951 6.929497718811035 0.08624807000160217
6.893337249755859 6.916858673095703 0.08538998663425446
6.868678569793701 6.920891761779785 0.08518507331609726
6.837790012359619 6.918424606323242 0.08446372300386429
6.8199005126953125 6.929760456085205 0.08390919864177704
6.777996063232422 6.915940761566162 0.0834931805729866
6.765030860900879 6.931426525115967 0.08299639821052551
6.735748767852783 6.930873394012451 0.08281788975000381
6.701025009155273 6.923944473266602 0.08249112963676453
6.671468734741211 6.922826290130615 0.08179859817028046
6.642270565032959 6.921327114105225 0.08161745965480804
6.616009712219238 6.922661781311035 0.08139438927173615
6.585885047912598 6.920568943023682 0.08069802075624466
6.5628437995910645 6.925188064575195 0.08059216290712357
6.540252685546875 6.930097579956055 0.08041533827781677
6.477649688720703 6.921932220458984 0.0794246718287468
6.450272560119629 6.921411037445068 0.07926478981971741
6.419383525848389 6.917837619781494 0.07856618613004684
6.394265651702881 6.9195122718811035 0.07835891842842102
6.364534854888916 6.916079521179199 0.07767181098461151
6.342460632324219 6.921708583831787 0.07758263498544693
6.31068229675293 6.915785789489746 0.07729484140872955
6.263777732849121 6.922712326049805 0.0765809416770935
6.234784126281738 6.919477939605713 0.0763276070356369
6.188525199890137 6.926575660705566 0.07555066794157028
6.155523777008057 6.918481826782227 0.07483185082674026
6.129329204559326 6.918746471405029 0.07420256733894348
6.111872673034668 6.927953720092773 0.07409094274044037
6.078002452850342 6.918448448181152 0.07336559891700745
6.059271812438965 6.926915168762207 0.07324483245611191
6.023730278015137 6.91519021987915 0.07298848032951355
6.00001859664917 6.916897773742676 0.07238953560590744
5.978321075439453 6.9217023849487305 0.0722324550151825
5.954167366027832 6.922726631164551 0.07211434096097946
5.928195953369141 6.922276020050049 0.07149457186460495
5.903903961181641 6.923050403594971 0.07130296528339386
5.870590686798096 6.912990570068359 0.07107323408126831
5.8584394454956055 6.928626537322998 0.07055158168077469
5.835433006286621 6.93053674697876 0.0704474225640297
5.802086353302002 6.920027732849121 0.06973880529403687
5.789007186889648 6.934462070465088 0.06968685984611511
5.750820159912109 6.917849540710449 0.0694003626704216
5.729197978973389 6.921753883361816 0.06884054094552994
5.715426445007324 6.934474945068359 0.06877588480710983
5.679173469543457 6.919698238372803 0.06851310282945633
5.656916618347168 6.922682285308838 0.06787686794996262
5.636124610900879 6.926524639129639 0.06779949367046356
5.62039852142334 6.936550617218018 0.06778290867805481
5.586093902587891 6.924403190612793 0.06700490415096283
5.558231830596924 6.919198989868164 0.06590142846107483
5.530277729034424 6.9137372970581055 0.06566941738128662
5.513275146484375 6.922746658325195 0.06564226746559143
5.486900806427002 6.9190449714660645 0.0650312677025795
5.462308883666992 6.917471885681152 0.06483941525220871
5.4365129470825195 6.915125370025635 0.06470862776041031
5.427246570587158 6.932900428771973 0.06430187821388245
5.391928672790527 6.918183326721191 0.06398840248584747
5.36223840713501 6.909613609313965 0.06334228068590164
5.3480730056762695 6.920965671539307 0.0632740929722786
5.324378490447998 6.920809268951416 0.06316952407360077
5.297281265258789 6.9152326583862305 0.06255573034286499
5.278086185455322 6.919874668121338 0.062428299337625504
5.263794422149658 6.931796073913574 0.06243443116545677
5.23836088180542 6.928107261657715 0.06184295192360878
5.202922344207764 6.911002159118652 0.061524271965026855
5.192506313323975 6.92791748046875 0.06157585605978966
5.182231903076172 6.944190502166748 0.06109565123915672
5.139115810394287 6.916311740875244 0.06075749173760414
5.126147270202637 6.929731845855713 0.06032072752714157
5.1029863357543945 6.928448677062988 0.060149189084768295
5.0732903480529785 6.919034957885742 0.05997386574745178
5.05558443069458 6.924977779388428 0.05947927013039589
5.035369396209717 6.927428722381592 0.059341248124837875
5.012848854064941 6.92751407623291 0.05879703536629677
4.9870100021362305 6.922006607055664 0.058141570538282394
4.974062442779541 6.934330940246582 0.05815703794360161
4.941407680511475 6.919970989227295 0.05749683827161789
4.928720474243164 6.932579040527344 0.05744940787553787
4.90332555770874 6.928151607513428 0.057326365262269974
4.884162902832031 6.931535720825195 0.056751590222120285
4.854907035827637 6.920472621917725 0.05657949671149254
4.83917760848999 6.9294891357421875 0.05656774714589119
4.814159870147705 6.924231052398682 0.05592818185687065
4.792658805847168 6.923917770385742 0.05584537982940674
4.774847030639648 6.92977237701416 0.05581040680408478
4.7389817237854 6.908360481262207 0.055048562586307526
4.73079252243042 6.927196979522705 0.055118996649980545
4.713666915893555 6.9338788986206055 0.054580479860305786
4.6884355545043945 6.927640914916992 0.0544549897313118
4.634519100189209 6.910494804382324 0.05365839973092079
4.630242347717285 6.935185432434082 0.05377456918358803
4.597845554351807 6.91862154006958 0.05350451171398163
4.571317672729492 6.909766674041748 0.05292355269193649
4.560408592224121 6.9244608879089355 0.05296166241168976
4.542976379394531 6.93017578125 0.05242610350251198
4.5214314460754395 6.92862606048584 0.05234312266111374
4.49917459487915 6.9258809089660645 0.05181356146931648
4.48061466217041 6.9296698570251465 0.05126677453517914
4.465126037597656 6.937246322631836 0.051253825426101685
4.440148830413818 6.929998874664307 0.051066312938928604
4.414497375488281 6.922473430633545 0.05050668492913246
4.396984100341797 6.926674842834473 0.050469812005758286
4.380007266998291 6.931804656982422 0.04994037747383118
4.347679138183594 6.913179397583008 0.049740031361579895
4.330146312713623 6.917110443115234 0.04963795095682144
4.311208724975586 6.91968297958374 0.04915823042392731
4.2957963943481445 6.926931858062744 0.0491456612944603
4.273735046386719 6.923518180847168 0.048992980271577835
4.252975940704346 6.9228081703186035 0.0484931655228138
4.2324395179748535 6.921543121337891 0.04835810139775276
4.213314533233643 6.923454284667969 0.047878943383693695
4.192098617553711 6.920892238616943 0.047800175845623016
4.1717023849487305 6.919581890106201 0.04766704887151718
4.149101734161377 6.915461540222168 0.04714955389499664
4.133005619049072 6.921150207519531 0.04712868854403496
4.116363525390625 6.925892353057861 0.047038622200489044
4.10000467300415 6.932041645050049 0.046593766659498215
4.068964004516602 6.912256717681885 0.04634029045701027
4.050485134124756 6.913643836975098 0.04586810618638992
4.034981727600098 6.921036720275879 0.04586026445031166
4.011338710784912 6.913415431976318 0.04526698216795921
3.991581439971924 6.912498474121094 0.04520614072680473
6.008228302001953 -11.34333610534668 0.08856254816055298
6.080815315246582 -11.307933807373047 0.08936671912670135
7.473998546600342 -11.267786026000977 0.10979460179805756
7.541243553161621 -11.265874862670898 0.11080493032932281
7.650330066680908 -11.274855613708496 0.1121957078576088
7.676603317260742 -11.26319694519043 0.11306913942098618
7.749201774597168 -11.2674560546875 0.1134384274482727
7.771252632141113 -11.2494478225708 0.11425473541021347
7.816061973571777 -11.264062881469727 0.11467678844928741
7.846312522888184 -11.256434440612793 0.11549805849790573
7.878552436828613 -11.252835273742676 0.11573638021945953
7.985979080200195 -11.255005836486816 0.11711597442626953
8.053791999816895 -11.249886512756348 0.11814966052770615
8.089803695678711 -11.250788688659668 0.1184457540512085
8.182535171508789 -11.230127334594727 0.12023909389972687
8.281377792358398 -11.216750144958496 0.12150304764509201
8.39285945892334 -11.219449996948242 0.12295771390199661
9.544852256774902 -11.165233612060547 0.13966618478298187
9.667301177978516 -11.165584564208984 0.1413308084011078
9.778857231140137 -11.1519775390625 0.1428370326757431
9.85444450378418 -11.1443510055542 0.1433814913034439
9.898054122924805 -11.14577865600586 0.1444638967514038
9.969799995422363 -11.13178825378418 0.14482441544532776
10.011877059936523 -11.13219928741455 0.14601224660873413
10.092547416687012 -11.127285957336426 0.14650563895702362
10.139524459838867 -11.132568359375 0.1477711796760559
10.17003059387207 -11.119622230529785 0.14788001775741577
10.212386131286621 -11.118146896362305 0.1481476128101349
10.2515869140625 -11.114439964294434 0.1491837203502655
10.297534942626953 -11.117873191833496 0.14963747560977936
10.337213516235352 -11.112998962402344 0.1498672068119049
10.374734878540039 -11.107026100158691 0.15007781982421875
10.428860664367676 -11.118451118469238 0.1514573097229004
10.468936920166016 -11.113680839538574 0.15250511467456818
10.500373840332031 -11.100807189941406 0.1527482271194458
10.549798011779785 -11.106621742248535 0.1540660858154297
10.625065803527832 -11.092111587524414 0.1544821560382843
10.757288932800293 -11.089561462402344 0.15633203089237213
10.886691093444824 -11.082691192626953 0.15814629197120667
12.150816917419434 -10.997220039367676 0.17570167779922485
12.287153244018555 -10.98088550567627 0.17754420638084412
12.393799781799316 -10.982664108276367 0.1794290393590927
12.437506675720215 -10.974225997924805 0.17972268164157867
12.534200668334961 -10.967184066772461 0.18147367238998413
12.591957092285156 -10.970490455627441 0.18197211623191833
12.687641143798828 -10.961380958557129 0.1846081018447876
12.73684310913086 -10.956635475158691 0.18498380482196808
12.835321426391602 -10.948808670043945 0.18678294122219086
12.899998664855957 -10.956635475158691 0.187384232878685
12.988120079040527 -10.937657356262207 0.18902727961540222
13.04981517791748 -10.943408012390137 0.18959642946720123
13.094890594482422 -10.93482494354248 0.18992044031620026
13.155129432678223 -10.937691688537598 0.19136469066143036
13.199955940246582 -10.928715705871582 0.19182109832763672
13.242546081542969 -10.917559623718262 0.19210900366306305
13.30826187133789 -10.924246788024902 0.19272659718990326
13.358880043029785 -10.919473648071289 0.1940455585718155
13.421536445617676 -10.924126625061035 0.19463124871253967
13.454755783081055 -10.903642654418945 0.19490955770015717
13.565119743347168 -10.899940490722656 0.19677068293094635
13.67407512664795 -10.893216133117676 0.19782592356204987
13.846235275268555 -10.888785362243652 0.20026011765003204
14.00353717803955 -10.870530128479004 0.2037031352519989
14.334973335266113 -10.841743469238281 0.20871736109256744
14.50890064239502 -10.83057689666748 0.2112163007259369
15.643152236938477 -10.73394775390625 0.2282695770263672
15.844989776611328 -10.726556777954102 0.23124364018440247
16.0252628326416 -10.701074600219727 0.2330312877893448
16.15494155883789 -10.690804481506348 0.23529553413391113
16.20880889892578 -10.676918029785156 0.2357466071844101
16.35297393798828 -10.674638748168945 0.23838847875595093
16.426074981689453 -10.67257022857666 0.23912715911865234
16.559907913208008 -10.661856651306152 0.24042627215385437
16.619861602783203 -10.650492668151855 0.24096724390983582
16.697336196899414 -10.651138305664062 0.2429773360490799
16.77111053466797 -10.649298667907715 0.24373029172420502
16.831478118896484 -10.637432098388672 0.24549554288387299
16.899227142333984 -10.631049156188965 0.24721984565258026
16.96735382080078 -10.62357234954834 0.24804314970970154
17.04656219482422 -10.623987197875977 0.24887850880622864
17.10956573486328 -10.613832473754883 0.24947614967823029
17.180828094482422 -10.607467651367188 0.2501837909221649
17.253435134887695 -10.6029052734375 0.2519984245300293
17.309221267700195 -10.587576866149902 0.2526471018791199
17.395349502563477 -10.589452743530273 0.25357526540756226
17.462854385375977 -10.580941200256348 0.2542394995689392
17.533950805664062 -10.574146270751953 0.25495269894599915
17.68474006652832 -10.563774108886719 0.2575915455818176
17.899126052856445 -10.539726257324219 0.25990793108940125
18.12666130065918 -10.520807266235352 0.2633605897426605
18.365705490112305 -10.505754470825195 0.2671622633934021
18.583187103271484 -10.475662231445312 0.2708287537097931
20.422054290771484 -10.301132202148438 0.29597729444503784
20.596202850341797 -10.280396461486816 0.2994566857814789
20.684978485107422 -10.269774436950684 0.3004303276538849
20.877342224121094 -10.25728702545166 0.30383455753326416
20.964014053344727 -10.24454116821289 0.30496492981910706
21.146469116210938 -10.224987983703613 0.3069983720779419
21.258129119873047 -10.223215103149414 0.30830544233322144
21.45258140563965 -10.207109451293945 0.3117687404155731
21.549345016479492 -10.19696044921875 0.3128611445426941
21.734487533569336 -10.174169540405273 0.31512022018432617
21.841079711914062 -10.167451858520508 0.31635430455207825
21.92247772216797 -10.149833679199219 0.31722286343574524
22.01467514038086 -10.135680198669434 0.31824108958244324
22.119401931762695 -10.128318786621094 0.320745050907135
22.21600914001465 -10.116623878479004 0.3218356966972351
22.316818237304688 -10.105240821838379 0.3229856491088867
22.417009353637695 -10.094602584838867 0.32413265109062195
22.523418426513672 -10.086136817932129 0.3255678415298462
22.631776809692383 -10.076889991760254 0.3268202245235443
22.725011825561523 -10.061732292175293 0.3278592526912689
22.8185977935791 -10.046584129333496 0.33022966980934143
22.932418823242188 -10.038484573364258 0.3319665193557739
23.029067993164062 -10.02367877960205 0.3343943953514099
23.151994705200195 -10.020087242126465 0.33587950468063354
23.368865966796875 -9.997309684753418 0.3384132981300354
23.681011199951172 -9.955196380615234 0.34222397208213806
24.013580322265625 -9.917826652526855 0.347502738237381
26.646839141845703 -9.465450286865234 0.3838100731372833
26.747695922851562 -9.312326431274414 0.38441529870033264
26.75811004638672 -9.253738403320312 0.38428667187690735
26.8173885345459 -9.147974014282227 0.3845885396003723
26.829299926757812 -9.088330268859863 0.38447386026382446
26.835800170898438 -8.966318130493164 0.3840258717536926
26.85068130493164 -8.907801628112793 0.38547366857528687
26.88130760192871 -8.855852127075195 0.3856503963470459
26.905778884887695 -8.802062034606934 0.3857392370700836
26.94921875 -8.690804481506348 0.38626405596733093
26.976852416992188 -8.63636589050293 0.3863968253135681
27.02421760559082 -8.589740753173828 0.38682228326797485
27.02493667602539 -8.528035163879395 0.3865717947483063
27.05514144897461 -8.474286079406738 0.3867456316947937
27.07916259765625 -8.42014217376709 0.3868391811847687
27.114261627197266 -8.369159698486328 0.38708528876304626
27.144607543945312 -8.315284729003906 0.387265145778656
27.181283950805664 -8.139962196350098 0.387273907661438
27.222057342529297 -8.090426445007324 0.3891329765319824
27.224000930786133 -8.029557228088379 0.38891613483428955
27.2681827545166 -7.9795355796813965 0.3893093466758728
27.28566551208496 -7.922989845275879 0.3893207013607025
27.347686767578125 -7.816495418548584 0.3897354006767273
27.360687255859375 -7.758603572845459 0.3896879255771637
27.358665466308594 -7.572535037994385 0.38896557688713074
27.435855865478516 -7.4085283279418945 0.3893917500972748
27.508668899536133 -7.242954730987549 0.39151105284690857
21.563936233520508 -4.530859470367432 0.3046695291996002
21.74544334411621 -4.426440715789795 0.3068687915802002
21.764400482177734 -4.382077693939209 0.3070071339607239
21.747915267944336 -4.331639766693115 0.30664345622062683
21.960092544555664 -4.326539039611816 0.30954402685165405
22.023805618286133 -4.290414333343506 0.3103226125240326
22.16716766357422 -4.270435333251953 0.312237024307251
22.51651954650879 -4.289292812347412 0.317085862159729
21.805267333984375 -4.105748176574707 0.3067077398300171
21.481521606445312 -3.9984631538391113 0.30210670828819275
21.480152130126953 -3.95210599899292 0.30197739601135254
21.461132049560547 -3.90140438079834 0.30158984661102295
21.47026824951172 -3.8568780422210693 0.30160805583000183
21.44355010986328 -3.8049864768981934 0.3011133670806885
21.451393127441406 -3.760300874710083 0.30111783742904663
21.447036743164062 -3.713679313659668 0.3009491562843323
21.473281860351562 -3.6711699962615967 0.3012082278728485
21.90739631652832 -3.6984329223632812 0.3072136342525482
21.949756622314453 -3.6587533950805664 0.3076797425746918
22.028257369995117 -3.6236703395843506 0.3086794912815094
22.923049926757812 -3.7218375205993652 0.3227003812789917
23.221717834472656 -3.6702122688293457 0.3266887664794922
24.45309066772461 -3.4983084201812744 0.3432405889034271
24.44793128967285 -3.3408687114715576 0.34286990761756897
28.06886863708496 -2.7604446411132812 0.39376625418663025
28.09111785888672 -2.5844337940216064 0.3938443958759308
28.091796875 -2.4064996242523193 0.39363330602645874
28.100126266479492 -2.2293553352355957 0.39204612374305725
28.08285140991211 -2.0504136085510254 0.39161327481269836
28.097562789916992 -1.9325623512268066 0.39147982001304626
28.08845329284668 -1.873379111289978 0.3912978768348694
28.09203338623047 -1.8135662078857422 0.39129459857940674
28.105329513549805 -1.7556473016738892 0.39143091440200806
28.096546173095703 -1.6965727806091309 0.39469441771507263
28.135028839111328 -1.6387993097305298 0.39519163966178894
28.091753005981445 -1.577574372291565 0.3945419490337372
28.097532272338867 -1.5179108381271362 0.3945751488208771
28.086288452148438 -1.4586386680603027 0.3943742513656616
28.026288986206055 -1.3972123861312866 0.39348265528678894
28.029226303100586 -1.33755624294281 0.39348116517066956
28.02287483215332 -1.278756856918335 0.39313530921936035
27.99679946899414 -1.2193529605865479 0.3912328779697418
28.01336669921875 -1.1603397130966187 0.39143526554107666
28.037052154541016 -1.1028268337249756 0.39173218607902527
28.03374671936035 -1.0444358587265015 0.39165717363357544
28.012868881225586 -0.983954906463623 0.3913278579711914
28.04479217529297 -0.9265928268432617 0.3917507827281952
28.037551879882812 -0.8681107759475708 0.3916226625442505
28.029329299926758 -0.8079255819320679 0.3914823532104492
28.033939361572266 -0.7498376965522766 0.3915233910083771
28.046497344970703 -0.6319857835769653 0.39166054129600525
28.059894561767578 -0.5740309953689575 0.39183130860328674
28.106176376342773 -0.45657074451446533 0.39244455099105835
28.084932327270508 -0.3979305326938629 0.392133891582489
33.95384979248047 0.016317319124937057 0.7518304586410522
33.92818832397461 0.15919218957424164 0.7510083317756653
33.93306350708008 0.22963479161262512 0.7493089437484741
33.94795227050781 0.3727165758609772 0.7496705651283264
33.708404541015625 2.2828166484832764 0.746026873588562
33.702850341796875 2.3527112007141113 0.7483360171318054
33.71005630493164 2.4959161281585693 0.748462438583374
33.689659118652344 2.5647125244140625 0.7481228709220886
33.67747116088867 2.7064828872680664 0.7480965256690979
33.69598388671875 2.778360605239868 0.746831476688385
33.70098876953125 2.851268768310547 0.7470797300338745
33.690643310546875 2.920820713043213 0.7469834089279175
33.68242645263672 2.992354154586792 0.7469409108161926
33.68079376220703 3.062930107116699 0.7467800378799438
33.681968688964844 3.1335253715515137 0.7469503283500671
33.69242477416992 3.2068474292755127 0.747330904006958
33.69221496582031 3.277655601501465 0.7474777102470398
33.6822509765625 3.347259521484375 0.747408390045166
33.64363479614258 3.415755033493042 0.7449080348014832
33.6059684753418 3.482666254043579 0.744234561920166
33.59347152709961 3.5518481731414795 0.7441208958625793
33.556339263916016 3.620424270629883 0.7432050704956055
33.529327392578125 3.687915325164795 0.7427705526351929
33.50546646118164 3.757486581802368 0.7424166202545166
33.484134674072266 3.8257334232330322 0.7421197295188904
33.45244598388672 3.892456531524658 0.7397987842559814
33.422237396240234 3.961061477661133 0.7393156290054321
33.38810729980469 4.0275559425354 0.7407987117767334
33.358123779296875 4.094188690185547 0.7403183579444885
33.31758117675781 4.231715202331543 0.7398083209991455
33.26809310913086 4.4381208419799805 0.7393175959587097
33.16536331176758 4.636804580688477 0.7356184124946594
33.08510208129883 4.837831974029541 0.7344955205917358
32.77355194091797 5.6393818855285645 0.728726327419281
32.67229461669922 5.833669662475586 0.7252505421638489
32.58320236206055 6.02937126159668 0.724094808101654
32.53887176513672 6.2329816818237305 0.7219491600990295
32.48337936401367 6.364287853240967 0.7213045954704285
32.463111877441406 6.430298805236816 0.7211508750915527
32.425514221191406 6.564886093139648 0.7206665277481079
32.4064826965332 6.631068229675293 0.7187825441360474
32.387203216552734 6.699239253997803 0.7186688780784607
32.36991500854492 6.765741348266602 0.7185964584350586
32.33657455444336 6.828838348388672 0.718167781829834
32.28648376464844 6.890341281890869 0.717381477355957
32.25755310058594 6.954186916351318 0.715036153793335
32.186439514160156 7.010581016540527 0.7137912511825562
32.22871017456055 7.09013557434082 0.7150573134422302
32.20330047607422 7.154641628265381 0.7148230671882629
32.16999816894531 7.219128131866455 0.7146735191345215
31.90349006652832 7.229153633117676 0.7073233127593994
31.66189956665039 7.2435197830200195 0.7022815942764282
31.33823013305664 7.239955902099609 0.6951849460601807
31.05943489074707 7.243474006652832 0.689333975315094
30.779613494873047 7.245596408843994 0.6834577322006226
30.484615325927734 7.244917869567871 0.6772447228431702
30.208242416381836 7.245498180389404 0.6697885990142822
29.975387573242188 7.255463600158691 0.6649595499038696
29.696531295776367 7.255157947540283 0.658872663974762
29.480411529541016 7.267218589782715 0.6544123291969299
28.981964111328125 7.27395486831665 0.6424292922019958
28.744739532470703 7.277857303619385 0.6375062465667725
28.295562744140625 7.291069984436035 0.6279903650283813
25.284128189086914 7.371503829956055 0.5600035786628723
24.7109317779541 7.373255252838135 0.5467473268508911
24.16362762451172 7.375694274902344 0.5356496572494507
23.991355895996094 7.377570629119873 0.5308365821838379
23.651975631713867 7.382378101348877 0.5238136649131775
23.45533561706543 7.374452590942383 0.5197948217391968
23.276491165161133 7.372898101806641 0.5161777138710022
23.133481979370117 7.380458354949951 0.5120566487312317
22.95475196838379 7.375956058502197 0.5082482099533081
22.806867599487305 7.382225513458252 0.5053220391273499
22.648883819580078 7.3830485343933105 0.5021613240242004
22.48442840576172 7.381092071533203 0.49885088205337524
22.322925567626953 7.380937576293945 0.4931179881095886
22.190778732299805 7.388364315032959 0.4905342757701874
22.033979415893555 7.388482570648193 0.4874160885810852
21.902511596679688 7.394997596740723 0.48484957218170166
21.7303524017334 7.387139797210693 0.48119258880615234
21.605377197265625 7.396180629730225 0.4775598645210266
21.448383331298828 7.39219856262207 0.47442707419395447
21.339975357055664 7.404415607452393 0.47237056493759155
21.176605224609375 7.398452281951904 0.4689245820045471
21.030534744262695 7.396424770355225 0.46484291553497314
20.896997451782227 7.398224830627441 0.46222877502441406
20.76193618774414 7.4003586769104 0.45959004759788513
20.637866973876953 7.404439449310303 0.4571828246116638
20.503137588500977 7.405576705932617 0.4543747901916504
20.370145797729492 7.405364036560059 0.45061513781547546
20.246156692504883 7.407892227172852 0.4482104480266571
20.113018035888672 7.407934188842773 0.4456116259098053
19.979660034179688 7.405938625335693 0.44282716512680054
19.84634780883789 7.403403282165527 0.4390855133533478
19.588603973388672 7.401379585266113 0.4340694546699524
19.485668182373047 7.408732891082764 0.4321288466453552
19.240053176879883 7.408236980438232 0.4261109232902527
18.87957000732422 7.4060540199279785 0.418072909116745
18.54756736755371 7.4106950759887695 0.4105226993560791
17.891536712646484 7.412054061889648 0.39686182141304016
17.59760284423828 7.420241355895996 0.3902032971382141
17.29003143310547 7.418912887573242 0.3832606077194214
17.10028648376465 7.421847343444824 0.3797340393066406
16.984703063964844 7.414679527282715 0.37653177976608276
16.794391632080078 7.415963172912598 0.37285667657852173
16.707305908203125 7.418976783752441 0.37029141187667847
16.517831802368164 7.418275833129883 0.3658190071582794
16.443191528320312 7.425799369812012 0.3645089566707611
16.23906898498535 7.416111469268799 0.3595817983150482
16.143009185791016 7.41276741027832 0.3577944040298462
16.05940818786621 7.4149250984191895 0.35628199577331543
15.97174072265625 7.4157280921936035 0.35468682646751404
15.877700805664062 7.412155628204346 0.351870059967041
15.786791801452637 7.410831451416016 0.3502036929130554
15.724621772766113 7.421508312225342 0.3491668105125427
15.630855560302734 7.417107105255127 0.3474281132221222
15.528645515441895 7.409139156341553 0.34445425868034363
15.456267356872559 7.414020538330078 0.34318727254867554
15.372932434082031 7.413478374481201 0.34168025851249695
15.283888816833496 7.410672187805176 0.33914756774902344
15.200218200683594 7.409102439880371 0.33749765157699585
15.132779121398926 7.416279315948486 0.3363517224788666
15.044681549072266 7.411863803863525 0.33473432064056396
14.970857620239258 7.414140701293945 0.3325469195842743
14.8822021484375 7.4098663330078125 0.3307954668998718
14.816375732421875 7.415500640869141 0.32967448234558105
14.736692428588867 7.414046764373779 0.3282434344291687
14.656949043273926 7.413060665130615 0.3259456157684326
14.570467948913574 7.407331943511963 0.32423412799835205
14.505178451538086 7.412205696105957 0.323253870010376
14.411683082580566 7.403153419494629 0.3206588923931122
14.343512535095215 7.405795574188232 0.31935638189315796
14.21888542175293 7.417459011077881 0.31642162799835205
14.13377857208252 7.4104156494140625 0.31487008929252625
13.904276847839355 7.402036666870117 0.30982547998428345
13.695799827575684 7.401926517486572 0.3060871958732605
13.491308212280273 7.40137243270874 0.3016115427017212
13.346588134765625 7.395273208618164 0.29825910925865173
13.149298667907715 7.39438009262085 0.29396194219589233
12.95280933380127 7.391446590423584 0.2896920442581177
