VERSION .7
FIELDS x y z
SIZE 4 4 4
TYPE F F F
COUNT 1 1 1
WIDTH 841
HEIGHT 1
VIEWPOINT 0 0 0 1 0 0 0
POINTS 841
DATA ascii
29.448596954345703 2.3624393939971924 0.34299811720848083
29.2235107421875 2.4682912826538086 0.34047651290893555
29.136322021484375 2.5226261615753174 0.33952832221984863
28.8783016204834 2.622074842453003 0.3405906558036804
28.777259826660156 2.673908233642578 0.3394588232040405
28.587223052978516 2.7769503593444824 0.3363795876502991
27.953857421875 3.071430206298828 0.3285859525203705
27.661029815673828 3.2153735160827637 0.3244174122810364
27.472827911376953 3.3108181953430176 0.3223714828491211
27.368133544921875 3.356780529022217 0.32122451066970825
27.16910171508789 3.447631359100342 0.3183172643184662
27.076915740966797 3.4939799308776855 0.3173258900642395
26.8928279876709 3.585432529449463 0.31441324949264526
26.799461364746094 3.6296024322509766 0.31341129541397095
26.708131790161133 3.674424648284912 0.312427818775177
26.61884307861328 3.7193660736083984 0.310757577419281
26.530391693115234 3.7631537914276123 0.31254950165748596
26.438495635986328 3.806833028793335 0.311557799577713
26.3526554107666 3.851227283477783 0.30973243713378906
26.269115447998047 3.894713878631592 0.30812618136405945
26.17281723022461 3.93668270111084 0.30709511041641235
26.07345199584961 3.977994441986084 0.30602729320526123
26.00333023071289 4.0225324630737305 0.3053036332130432
25.914749145507812 4.065532207489014 0.3043653964996338
25.834064483642578 4.107823371887207 0.30351412296295166
25.744264602661133 4.149049758911133 0.3016687035560608
25.64708709716797 4.18890905380249 0.3006342351436615
25.575462341308594 4.231719493865967 0.2991945147514343
25.486190795898438 4.27200984954834 0.2982553243637085
25.407398223876953 4.313920021057129 0.29743945598602295
25.327884674072266 4.355216026306152 0.2966192066669464
25.20433807373047 4.387841701507568 0.2952854633331299
25.105253219604492 4.425169944763184 0.2942301332950592
25.047760009765625 4.4693474769592285 0.2927931547164917
24.943065643310547 4.504974365234375 0.2909928560256958
24.82703971862793 4.5372419357299805 0.2897370457649231
24.704317092895508 4.5684990882873535 0.2884021997451782
24.552745819091797 4.59405517578125 0.2867385745048523
24.36893081665039 4.612022399902344 0.28470465540885925
24.043018341064453 4.655307769775391 0.28064998984336853
23.85025405883789 4.670016765594482 0.277680903673172
23.541919708251953 4.7120208740234375 0.27431410551071167
23.385868072509766 4.731931686401367 0.2726098895072937
22.90967559814453 4.785693168640137 0.2667767107486725
22.15192413330078 4.870645046234131 0.25714752078056335
21.713451385498047 4.917539596557617 0.25164473056793213
21.439172744750977 4.950433731079102 0.24870499968528748
21.295852661132812 4.963912010192871 0.2465779185295105
21.036975860595703 4.997071266174316 0.24307431280612946
20.884628295898438 5.007451057434082 0.24143682420253754
20.755481719970703 5.022056579589844 0.24006511270999908
20.63871955871582 5.039746284484863 0.23640751838684082
20.51968765258789 5.056572914123535 0.23516744375228882
20.391326904296875 5.069850921630859 0.23381473124027252
20.262115478515625 5.083709239959717 0.2324601113796234
20.135122299194336 5.096285343170166 0.23112258315086365
20.01913833618164 5.111725330352783 0.22936388850212097
19.88166046142578 5.1213226318359375 0.22791188955307007
19.75896453857422 5.133464813232422 0.22592446208000183
19.65215301513672 5.149832725524902 0.2248271405696869
19.513591766357422 5.157540321350098 0.2233656644821167
19.408254623413086 5.172812461853027 0.22228196263313293
19.298847198486328 5.18712043762207 0.22061952948570251
19.17746925354004 5.197902202606201 0.21867215633392334
19.072277069091797 5.212445259094238 0.21759670972824097
18.961753845214844 5.225255012512207 0.2164611667394638
18.84754180908203 5.235888957977295 0.21528059244155884
18.720876693725586 5.243108749389648 0.21344244480133057
18.615697860717773 5.256030559539795 0.21236896514892578
18.51253890991211 5.268939971923828 0.2106528878211975
18.406524658203125 5.280082702636719 0.2095714807510376
18.292390823364258 5.289134502410889 0.20839719474315643
18.1976318359375 5.303204536437988 0.20744478702545166
18.083494186401367 5.310680389404297 0.20576786994934082
17.978853225708008 5.321177959442139 0.20405665040016174
17.886842727661133 5.334856986999512 0.2008589655160904
17.79339599609375 5.347891330718994 0.19880133867263794
17.694305419921875 5.358170032501221 0.19781821966171265
17.594011306762695 5.368192672729492 0.19682273268699646
17.393896102905273 5.387310981750488 0.19483467936515808
17.11749267578125 5.419867515563965 0.19102008640766144
16.82602882385254 5.4441986083984375 0.18767805397510529
16.56561279296875 5.475219249725342 0.18454812467098236
16.37329864501953 5.488250732421875 0.1826639175415039
16.13051986694336 5.5199127197265625 0.17929942905902863
16.05528450012207 5.532034873962402 0.17859071493148804
15.983514785766602 5.544911861419678 0.177921861410141
15.89572525024414 5.55143928527832 0.1760433167219162
15.797494888305664 5.554555892944336 0.17508575320243835
15.716403007507324 5.56318473815918 0.1717020571231842
15.64297866821289 5.5737504959106445 0.17102637887001038
15.554892539978027 5.579377174377441 0.17019179463386536
15.462713241577148 5.5830183029174805 0.16874286532402039
15.391791343688965 5.594146728515625 0.16766496002674103
15.310909271240234 5.600747108459473 0.1669096052646637
15.236421585083008 5.609833717346191 0.16622675955295563
15.166625022888184 5.620500564575195 0.16559255123138428
15.102327346801758 5.632798194885254 0.16446173191070557
15.016079902648926 5.636747360229492 0.16322848200798035
14.943265914916992 5.644822120666504 0.16256427764892578
14.877941131591797 5.6559038162231445 0.1619875133037567
14.771291732788086 5.651056289672852 0.1609531044960022
14.695340156555176 5.656986236572266 0.15971097350120544
14.62385368347168 5.664785385131836 0.1586453765630722
14.566139221191406 5.677799224853516 0.15815061330795288
14.469501495361328 5.675190448760986 0.15722927451133728
14.412729263305664 5.687461853027344 0.1567397117614746
14.345763206481934 5.696045398712158 0.15560635924339294
14.27204704284668 5.701528549194336 0.1545306146144867
14.188352584838867 5.7028350830078125 0.1537528932094574
14.136030197143555 5.715906143188477 0.15331509709358215
14.067014694213867 5.7224273681640625 0.15269717574119568
13.991910934448242 5.726308822631836 0.15108871459960938
13.927547454833984 5.734170913696289 0.14895744621753693
13.860507011413574 5.740237236022949 0.14797407388687134
13.800508499145508 5.749528884887695 0.14746132493019104
13.734260559082031 5.755833148956299 0.14688047766685486
13.67392349243164 5.763935565948486 0.14584657549858093
13.605164527893066 5.768787384033203 0.1452425867319107
13.524433135986328 5.768118381500244 0.14412197470664978
13.391607284545898 5.77824592590332 0.14296342432498932
13.338732719421387 5.788294792175293 0.1420229971408844
13.205391883850098 5.796638488769531 0.14048144221305847
13.167173385620117 5.812481880187988 0.14019976556301117
13.042756080627441 5.823314666748047 0.13863781094551086
12.845626831054688 5.832427978515625 0.13655629754066467
12.733625411987305 5.846381187438965 0.13514119386672974
12.678760528564453 5.853078842163086 0.13431888818740845
12.549873352050781 5.857820987701416 0.13321155309677124
12.498659133911133 5.865534782409668 0.13231992721557617
12.384279251098633 5.875624656677246 0.13005438446998596
12.318614959716797 5.876345634460449 0.129495307803154
12.276811599731445 5.888106822967529 0.1291840523481369
12.212631225585938 5.8885297775268555 0.12863467633724213
12.1653413772583 5.897396087646484 0.12743990123271942
12.102829933166504 5.898534774780273 0.1269158273935318
12.070159912109375 5.913641452789307 0.1266995668411255
12.021764755249023 5.9214186668396 0.12631718814373016
11.963096618652344 5.92379093170166 0.12548589706420898
11.921497344970703 5.934548377990723 0.12471463531255722
11.858924865722656 5.934528350830078 0.12418831884860992
11.80174732208252 5.93657112121582 0.12372271716594696
11.747413635253906 5.940331935882568 0.12293616682291031
11.70067024230957 5.947603225708008 0.12211909890174866
11.63438892364502 5.9443254470825195 0.12155590951442719
11.58409309387207 5.949484825134277 0.12115871906280518
11.5328369140625 5.953821182250977 0.12075702846050262
11.474874496459961 5.954596996307373 0.11949096620082855
11.428735733032227 5.960789680480957 0.11914145946502686
11.379701614379883 5.965666770935059 0.11875677108764648
11.336365699768066 5.973476409912109 0.11843828856945038
11.280131340026855 5.974164009094238 0.11764448881149292
11.230480194091797 5.977743625640869 0.11681119352579117
11.175298690795898 5.97866678237915 0.11703164875507355
11.13189697265625 5.985569000244141 0.1163799911737442
11.074634552001953 5.984438896179199 0.11546824872493744
11.025556564331055 5.9883832931518555 0.11509048938751221
10.977456092834473 5.991792678833008 0.11471721529960632
10.932777404785156 5.997382164001465 0.11405947059392929
10.86755657196045 5.991347312927246 0.1130795031785965
10.836429595947266 6.003542900085449 0.112881600856781
10.793012619018555 6.009288787841797 0.11255832016468048
10.750938415527344 6.015491962432861 0.11225244402885437
10.692377090454102 6.011894226074219 0.11101914197206497
10.653533935546875 6.019676208496094 0.11075043678283691
10.60141372680664 6.019650936126709 0.11033765971660614
10.563177108764648 6.026961803436279 0.10975071787834167
10.517251968383789 6.030576229095459 0.10898331552743912
10.465255737304688 6.029654502868652 0.1085735410451889
10.362299919128418 6.028604507446289 0.10777121782302856
10.330015182495117 6.038548469543457 0.10683213919401169
10.238141059875488 6.0428361892700195 0.10614292323589325
10.11593246459961 6.056775093078613 0.10455083847045898
10.019857406616211 6.056722164154053 0.10453209280967712
9.997238159179688 6.071412086486816 0.10442638397216797
9.89860725402832 6.068721294403076 0.10366281867027283
9.851552963256836 6.068037033081055 0.10259535908699036
9.827579498291016 6.082267761230469 0.10248344391584396
9.779052734375 6.0803375244140625 0.10210983455181122
9.732027053833008 6.079610824584961 0.10174968093633652
9.703561782836914 6.090212821960449 0.1008874848484993
9.657073974609375 6.089006423950195 0.10053306818008423
9.613631248474121 6.090005397796631 0.10021209716796875
9.57896900177002 6.09628963470459 0.09998315572738647
9.539909362792969 6.0992841720581055 0.09901834279298782
9.492929458618164 6.097504615783691 0.09866701066493988
9.460393905639648 6.104725360870361 0.09845906496047974
9.409677505493164 6.099693298339844 0.09738108515739441
9.375045776367188 6.1057257652282715 0.09715649485588074
9.325416564941406 6.101001739501953 0.09677435457706451
9.303071975708008 6.114455223083496 0.0966731458902359
9.258159637451172 6.112833023071289 0.09605209529399872
9.224347114562988 6.118032455444336 0.09544835984706879
9.18466567993164 6.119660377502441 0.0951671451330185
9.142431259155273 6.119297027587891 0.0948641449213028
9.11012077331543 6.125546455383301 0.09600330889225006
9.074163436889648 6.129096984863281 0.09547439217567444
9.033936500549316 6.129263877868652 0.09518241137266159
8.991934776306152 6.128514766693115 0.09487748146057129
8.955344200134277 6.1311750411987305 0.09396541118621826
8.922074317932129 6.135629653930664 0.09374867379665375
8.889169692993164 6.140669822692871 0.09353857487440109
8.859533309936523 6.147737503051758 0.09298276156187057
8.822579383850098 6.149257659912109 0.09244697540998459
8.780166625976562 6.14760684967041 0.09214164316654205
8.73345947265625 6.141951084136963 0.09178569912910461
8.711016654968262 6.153682231903076 0.09131190925836563
8.67186450958252 6.153380393981934 0.09076336026191711
8.638535499572754 6.156722545623779 0.09054380655288696
8.560680389404297 6.155764579772949 0.08935718238353729
8.538619995117188 6.166822910308838 0.08926001191139221
8.497200965881348 6.164572715759277 0.0889611542224884
8.464902877807617 6.16799259185791 0.08875738829374313
8.430171012878418 6.169508934020996 0.08789084106683731
8.390121459960938 6.167764186859131 0.0876113623380661
8.363161087036133 6.174721717834473 0.08746194839477539
8.301834106445312 6.18363094329834 0.08646099269390106
8.277461051940918 6.192225456237793 0.08796615153551102
8.206807136535645 6.193445205688477 0.08722327649593353
8.17435073852539 6.195618152618408 0.08701314777135849
8.13477897644043 6.193030834197998 0.08610918372869492
8.108226776123047 6.199437141418457 0.08596397936344147
8.040803909301758 6.201719284057617 0.08490253984928131
7.9975504875183105 6.194870471954346 0.08458425104618073
7.97654914855957 6.2059125900268555 0.08450035750865936
7.931209564208984 6.197100639343262 0.0841580480337143
7.914820671081543 6.21079158782959 0.0835055410861969
7.877817153930664 6.208991527557373 0.08325599133968353
7.8440704345703125 6.208826541900635 0.0830344557762146
7.814078330993652 6.211505889892578 0.0822417140007019
7.782663822174072 6.213710784912109 0.08205316960811615
7.754458427429199 6.21758508682251 0.08189056813716888
7.721981525421143 6.218361854553223 0.08168470859527588
7.681520462036133 6.21243143081665 0.08079493045806885
7.657809257507324 6.219585418701172 0.08067993819713593
7.63189172744751 6.225640296936035 0.08054652810096741
7.606963157653809 6.231639862060547 0.0801621824502945
7.556093215942383 6.216215133666992 0.07941929996013641
7.5444183349609375 6.233682155609131 0.07943598926067352
7.503261566162109 6.225922584533691 0.08016273379325867
7.478240013122559 6.2318525314331055 0.08003567159175873
7.447763442993164 6.23301887512207 0.0795087069272995
7.429216384887695 6.243758201599121 0.0791984498500824
7.3804426193237305 6.22938871383667 0.07881852239370346
7.359604835510254 6.23832893371582 0.07839880138635635
7.327539443969727 6.237326622009277 0.07794377207756042
7.305024147033691 6.245121955871582 0.07784608751535416
7.272415637969971 6.24341344833374 0.07763434946537018
7.241687774658203 6.243625640869141 0.0768653005361557
7.211674690246582 6.2442145347595215 0.07668454200029373
7.18361759185791 6.246051788330078 0.07652393728494644
7.1437578201293945 6.238242149353027 0.07566215097904205
7.12461519241333 6.24763298034668 0.07559777051210403
7.104442119598389 6.256070613861084 0.07552048563957214
7.075643539428711 6.257596969604492 0.07502488791942596
7.043701171875 6.25544548034668 0.07457683980464935
7.019002437591553 6.259613037109375 0.07445451617240906
6.998706817626953 6.268405914306641 0.07438032329082489
6.9551849365234375 6.255485534667969 0.07348480820655823
6.9047136306762695 6.262892723083496 0.07322929799556732
6.8749237060546875 6.261926651000977 0.07248330116271973
6.838673114776611 6.255688667297363 0.07224200665950775
6.819756507873535 6.264429092407227 0.07315309345722198
6.800748825073242 6.273039817810059 0.07284818589687347
6.760451316833496 6.262650966644287 0.07223646342754364
6.746311187744141 6.275616645812988 0.07222441583871841
6.720483779907227 6.277656078338623 0.07208701968193054
6.685514450073242 6.271788120269775 0.07129629701375961
6.668382167816162 6.281783580780029 0.07125239074230194
6.608964920043945 6.278553009033203 0.07034289836883545
6.5795488357543945 6.276635646820068 0.0701679065823555
6.5489821434021 6.274251937866211 0.06998518109321594
6.535478591918945 6.28737735748291 0.06942640244960785
6.496211051940918 6.276050567626953 0.06914996355772018
6.469207763671875 6.276297092437744 0.06900281459093094
6.447726249694824 6.281482696533203 0.06836297363042831
6.425879955291748 6.28701114654541 0.06827366352081299
6.402285575866699 6.289982795715332 0.06816159188747406
6.370199203491211 6.284492015838623 0.06772616505622864
6.353606224060059 6.294960975646973 0.0673789530992508
6.337141990661621 6.304762363433838 0.06734313070774078
6.296210289001465 6.290093421936035 0.06704623252153397
6.265470027923584 6.286182403564453 0.06632038950920105
6.24014949798584 6.2868170738220215 0.06619033962488174
6.228945255279541 6.302073001861572 0.06621211767196655
6.196032524108887 6.295174598693848 0.06608335673809052
6.167468070983887 6.292219161987305 0.06538012623786926
6.1511688232421875 6.302465438842773 0.06534978747367859
6.124580383300781 6.301331043243408 0.06520605087280273
6.09455680847168 6.296532154083252 0.06449063122272491
6.0775346755981445 6.305845737457275 0.06445290148258209
6.049581050872803 6.302967071533203 0.06429483741521835
6.028382778167725 6.307028770446777 0.06367605924606323
5.99617338180542 6.300220489501953 0.06347809731960297
5.98100471496582 6.310453414916992 0.06345552206039429
5.953643798828125 6.308194637298584 0.06330683827400208
5.9342041015625 6.314122200012207 0.06271205842494965
5.905570030212402 6.30984354019165 0.06254751235246658
5.887179374694824 6.317188262939453 0.06249585747718811
5.868321418762207 6.323212146759033 0.06190812587738037
5.834685325622559 6.313193321228027 0.0616915225982666
5.810542106628418 6.314077377319336 0.06157878041267395
5.801871299743652 6.330972194671631 0.06110209971666336
5.768825054168701 6.321642875671387 0.060894109308719635
5.74819278717041 6.325675964355469 0.060816872864961624
5.728772163391113 6.330650329589844 0.0602288655936718
5.701032638549805 6.327110290527344 0.06007911637425423
5.673042297363281 6.322380065917969 0.05992237851023674
5.660167694091797 6.334427833557129 0.05940677598118782
5.629098415374756 6.326807975769043 0.05929877981543541
5.601724624633789 6.322412490844727 0.05885281786322594
5.57041072845459 6.340668201446533 0.05858520418405533
5.544032096862793 6.337116718292236 0.05815128982067108
5.526042938232422 6.3438496589660645 0.05810435861349106
5.503106117248535 6.344051361083984 0.05778351053595543
5.484076499938965 6.348682403564453 0.05742727592587471
5.4510698318481445 6.337790489196777 0.05722314119338989
5.439532279968262 6.350987434387207 0.05702441185712814
5.420054912567139 6.354891777038574 0.05666477978229523
5.393673896789551 6.351391315460205 0.056530456990003586
5.3695149421691895 6.349601745605469 0.056199949234724045
5.353337287902832 6.357180595397949 0.05587640404701233
5.320714950561523 6.345905303955078 0.055677540600299835
5.307019233703613 6.356316566467285 0.05545732378959656
5.279079437255859 6.350377082824707 0.055016547441482544
5.256481170654297 6.349953651428223 0.0549192950129509
5.233481407165527 6.348945617675781 0.05460265278816223
5.2178544998168945 6.357611179351807 0.05429258942604065
5.194591522216797 6.356118202209473 0.054187409579753876
5.167529106140137 6.350306034088135 0.05404423922300339
5.147885322570801 6.353387832641602 0.053479328751564026
5.129725456237793 6.357904434204102 0.05342772975564003
5.107786178588867 6.358458995819092 0.05284270644187927
5.089122772216797 6.362222671508789 0.052575282752513885
5.065037250518799 6.359119415283203 0.05217684060335159
5.044073104858398 6.360633850097656 0.05210039019584656
5.022341728210449 6.360297203063965 0.05180293694138527
5.0038933753967285 6.364043235778809 0.05146385729312897
4.983966827392578 6.366643905639648 0.05139901489019394
4.964338779449463 6.368756294250488 0.051123328506946564
4.943944931030273 6.370273590087891 0.050769153982400894
4.923982620239258 6.372148036956787 0.050700847059488297
4.901841163635254 6.370776176452637 0.05040130764245987
4.880227088928223 6.370797634124756 0.05003705248236656
4.863681316375732 6.3765668869018555 0.05000275373458862
4.840759754180908 6.3739013671875 0.049696020781993866
4.817328453063965 6.3712615966796875 0.0493137389421463
4.793611526489258 6.367318153381348 0.04920651391148567
4.778037071228027 6.374114990234375 0.048976048827171326
4.763602256774902 6.38322639465332 0.04868743568658829
4.740692138671875 6.380105972290039 0.04858880490064621
4.726202964782715 6.389071464538574 0.04837452247738838
4.698173522949219 6.378824234008789 0.04794484004378319
4.676064491271973 6.376476287841797 0.047853581607341766
4.655948162078857 6.377569198608398 0.047786932438611984
4.647488117218018 6.393799304962158 0.04735413193702698
4.615668296813965 6.377810478210449 0.04640718549489975
4.606123924255371 6.393333435058594 0.04644836485385895
4.581544876098633 6.387123107910156 0.0460575632750988
4.567474365234375 6.396313667297363 0.045850202441215515
4.538708686828613 6.384000778198242 0.04569430649280548
4.522303581237793 6.388959884643555 0.04538711905479431
4.498075485229492 6.38360595703125 0.045078426599502563
4.48551082611084 6.393912315368652 0.045085642486810684
4.464779376983643 6.3925371170043945 0.04473630338907242
4.439626693725586 6.385538101196289 0.0444197952747345
4.422945022583008 6.389795303344727 0.04438558220863342
4.407073497772217 6.395184516906738 0.044358961284160614
4.387433052062988 6.395882606506348 0.04382534697651863
4.364427089691162 6.390736103057861 0.043728217482566833
4.347074508666992 6.394615173339844 0.04369107633829117
4.331088542938232 6.399624347686768 0.04319204390048981
4.310119152069092 6.397199630737305 0.04311520978808403
4.296356201171875 6.4062628746032715 0.04311443120241165
4.274190902709961 6.401891708374023 0.042555272579193115
4.259444236755371 6.408562183380127 0.04254107177257538
4.234011650085449 6.399912357330322 0.04242304712533951
4.2230987548828125 6.412294387817383 0.04217708110809326
4.198333740234375 6.403581619262695 0.041864678263664246
4.18072509765625 6.406528472900391 0.041825346648693085
4.1678056716918945 6.415782928466797 0.041021522134542465
4.14504337310791 6.410678863525391 0.040734950453042984
4.125802040100098 6.410055160522461 0.04067651182413101
4.104730606079102 6.406492233276367 0.040599480271339417
4.087733745574951 6.410067558288574 0.04010287672281265
4.071777820587158 6.414370536804199 0.040076930075883865
4.0409979820251465 6.395541191101074 0.039906375110149384
4.038130760192871 6.420971393585205 0.03954830765724182
4.0155205726623535 6.414518356323242 0.039457373321056366
3.9991629123687744 6.418835163116455 0.03943101689219475
3.9782662391662598 6.414917945861816 0.038895729929208755
3.9588723182678223 6.413320541381836 0.03883624076843262
3.943204879760742 6.418575763702393 0.03881683200597763
3.931018352508545 6.428612232208252 0.03836788982152939
3.899062156677246 6.406184196472168 0.038185857236385345
3.8887290954589844 6.420047760009766 0.03821871429681778
3.871502161026001 6.421641826629639 0.03772251307964325
3.8554282188415527 6.425473213195801 0.037697769701480865
3.833648681640625 6.419846057891846 0.03761722892522812
3.816072940826416 6.420644760131836 0.037119247019290924
3.7990684509277344 6.4232378005981445 0.037087008357048035
3.7772858142852783 6.41676139831543 0.0370045006275177
3.762807846069336 6.422616004943848 0.03653908148407936
3.7497458457946777 6.431783676147461 0.036545414477586746
3.7271556854248047 6.423635482788086 0.0359322726726532
3.7096667289733887 6.424167633056641 0.03589262440800667
5.930832862854004 -11.208358764648438 0.08281630277633667
5.951362609863281 -11.19091796875 0.08277851343154907
5.97276496887207 -11.175159454345703 0.0835268646478653
6.00201940536499 -11.172418594360352 0.08360202610492706
6.030508995056152 -11.169788360595703 0.0836758017539978
6.0510358810424805 -11.15145492553711 0.08440835028886795
6.081166744232178 -11.151021957397461 0.08450160920619965
6.133850574493408 -11.192310333251953 0.08524344861507416
6.162229537963867 -11.187320709228516 0.08541916310787201
6.188878059387207 -11.18073558807373 0.08546659350395203
6.224241733551025 -11.189754486083984 0.08596810698509216
6.249422550201416 -11.178743362426758 0.08643369376659393
6.281590461730957 -11.181740760803223 0.0865572988986969
6.313503265380859 -11.183218002319336 0.08700666576623917
6.3453521728515625 -11.184671401977539 0.08757150173187256
6.374520778656006 -11.181955337524414 0.08798885345458984
6.401573181152344 -11.173861503601074 0.08848293125629425
6.430917739868164 -11.171271324157715 0.08856818079948425
6.463359355926514 -11.173933029174805 0.0890316367149353
6.48879337310791 -11.162816047668457 0.08950481563806534
6.526735305786133 -11.174650192260742 0.08970826864242554
6.55033016204834 -11.161796569824219 0.09005122631788254
6.585975646972656 -11.167816162109375 0.09066662192344666
6.617295265197754 -11.167892456054688 0.09077869355678558
6.646398067474365 -11.164116859436035 0.09165298938751221
6.679149150848389 -11.164799690246582 0.09177535772323608
6.705468654632568 -11.156179428100586 0.09215784817934036
6.739648342132568 -11.158988952636719 0.09275616705417633
6.767418384552002 -11.152604103088379 0.09281925112009048
6.799910068511963 -11.15389347076416 0.0932876318693161
6.826084136962891 -11.143198013305664 0.09377676993608475
6.856023788452148 -11.140106201171875 0.09387058019638062
6.8941650390625 -11.150177001953125 0.09407559037208557
6.9214653968811035 -11.141053199768066 0.09412333369255066
6.954653263092041 -11.142820358276367 0.09426015615463257
6.983434677124023 -11.137411117553711 0.09513925015926361
7.014734268188477 -11.13440990447998 0.09524083137512207
7.045352935791016 -11.131721496582031 0.09534330666065216
7.0782365798950195 -11.130987167358398 0.09627103805541992
7.105766296386719 -11.123235702514648 0.09633146226406097
7.136523723602295 -11.120448112487793 0.09643523395061493
7.179913520812988 -11.135652542114258 0.09750860184431076
7.199495315551758 -11.115309715270996 0.09746123850345612
7.232170104980469 -11.115135192871094 0.09759090840816498
7.271276473999023 -11.123186111450195 0.098609060049057
7.2903032302856445 -11.101921081542969 0.09855426847934723
7.325099945068359 -11.103141784667969 0.09905058890581131
7.360752582550049 -11.106968879699707 0.09968695789575577
7.385967254638672 -11.094947814941406 0.09971623122692108
7.423895835876465 -11.100442886352539 0.10072335600852966
7.450258255004883 -11.089988708496094 0.10076837986707687
7.491018295288086 -11.100826263427734 0.1010076180100441
7.526239395141602 -11.101795196533203 0.10198171436786652
7.552059173583984 -11.090263366699219 0.10201926529407501
7.586544513702393 -11.091360092163086 0.10217369347810745
7.620892524719238 -11.090659141540527 0.1031387597322464
7.6542863845825195 -11.089881896972656 0.10198500752449036
7.687058925628662 -11.086627960205078 0.10257767885923386
7.717191696166992 -11.08090877532959 0.1030246913433075
7.7479567527771 -11.076001167297363 0.1031283438205719
7.786473274230957 -11.080589294433594 0.1037994772195816
7.814460754394531 -11.071504592895508 0.10421915352344513
7.849278926849365 -11.07199478149414 0.10437686741352081
7.882984161376953 -11.069343566894531 0.1049857959151268
7.913569927215576 -11.063629150390625 0.10544154793024063
7.945059299468994 -11.059080123901367 0.10555510222911835
7.979718208312988 -11.057397842407227 0.10617853701114655
8.016220092773438 -11.059540748596191 0.10671452432870865
8.042720794677734 -11.04697036743164 0.10675673931837082
8.083598136901855 -11.054224967956543 0.10746988654136658
8.109366416931152 -11.041301727294922 0.10786452889442444
8.143868446350098 -11.038774490356445 0.10800955444574356
8.179213523864746 -11.038660049438477 0.10865458846092224
8.208349227905273 -11.03005599975586 0.10909589380025864
8.246777534484863 -11.032407760620117 0.1092931404709816
8.283137321472168 -11.03322982788086 0.10995366424322128
8.309617042541504 -11.019393920898438 0.11035235226154327
8.35374641418457 -11.03022575378418 0.11063419282436371
8.386329650878906 -11.025632858276367 0.11124679446220398
8.420701026916504 -11.02187728881836 0.11175180971622467
8.46103286743164 -11.027156829833984 0.11064880341291428
8.485677719116211 -11.011882781982422 0.11152027547359467
8.529170989990234 -11.019556045532227 0.11178252100944519
8.555377006530762 -11.00615119934082 0.11182625591754913
8.602493286132812 -11.019493103027344 0.1125076413154602
8.626699447631836 -11.00196647644043 0.11300539970397949
8.677129745483398 -11.019112586975098 0.11336623132228851
8.73395824432373 -10.995689392089844 0.11435993760824203
8.768369674682617 -10.992097854614258 0.11451143026351929
8.807350158691406 -10.992712020874023 0.11508090794086456
8.847594261169434 -10.996099472045898 0.11580155789852142
8.880422592163086 -10.990127563476562 0.11593274772167206
8.91408920288086 -10.983711242675781 0.11606575548648834
8.956245422363281 -10.988971710205078 0.1171826422214508
8.992327690124512 -10.98660659790039 0.11735652387142181
9.030328750610352 -10.98507308959961 0.11754558980464935
9.06191635131836 -10.976983070373535 0.11803114414215088
9.137895584106445 -10.97454833984375 0.1189170777797699
9.171600341796875 -10.968658447265625 0.11943219602108002
9.206348419189453 -10.962541580200195 0.12007980048656464
9.250617980957031 -10.968954086303711 0.12036004662513733
9.27784538269043 -10.954252243041992 0.12041346728801727
9.322439193725586 -10.960123062133789 0.12056559324264526
9.353093147277832 -10.950037002563477 0.12104347348213196
9.40263557434082 -10.961118698120117 0.12138421833515167
9.429421424865723 -10.945716857910156 0.121938556432724
9.4724702835083 -10.949655532836914 0.12220056354999542
9.510320663452148 -10.946062088012695 0.12276487052440643
9.543488502502441 -10.93830680847168 0.1229005753993988
9.581746101379395 -10.936259269714355 0.12360794842243195
9.62464714050293 -10.937994003295898 0.12423998862504959
9.663300514221191 -10.936079025268555 0.1244458556175232
9.692985534667969 -10.923133850097656 0.12453074753284454
9.735306739807129 -10.924501419067383 0.12529057264328003
9.777750015258789 -10.92639446258545 0.1259273886680603
9.816255569458008 -10.922952651977539 0.12612637877464294
9.84480094909668 -10.908523559570312 0.12671297788619995
9.891718864440918 -10.914885520935059 0.12740816175937653
9.934001922607422 -10.914594650268555 0.12765292823314667
9.961406707763672 -10.899181365966797 0.12771347165107727
10.009920120239258 -10.90672492980957 0.12856310606002808
10.041157722473145 -10.893953323364258 0.1290515810251236
10.091817855834961 -10.903425216674805 0.12941081821918488
10.12270736694336 -10.890609741210938 0.13003292679786682
10.156890869140625 -10.881444931030273 0.1305658221244812
10.197174072265625 -10.879253387451172 0.13079166412353516
10.249944686889648 -10.889408111572266 0.13104195892810822
10.276686668395996 -10.871953964233398 0.13109245896339417
10.327522277832031 -10.880416870117188 0.13236744701862335
10.366523742675781 -10.874884605407715 0.13256947696208954
10.40563678741455 -10.870657920837402 0.13278083503246307
10.488040924072266 -10.86477279663086 0.13416798412799835
10.530498504638672 -10.863550186157227 0.13442116975784302
10.610057830810547 -10.853784561157227 0.13524913787841797
10.649125099182129 -10.848621368408203 0.13599325716495514
10.694334030151367 -10.848220825195312 0.13627131283283234
10.7352294921875 -10.844600677490234 0.1365082561969757
10.775461196899414 -10.840155601501465 0.1371297687292099
10.819650650024414 -10.838205337524414 0.13793200254440308
10.858076095581055 -10.831646919250488 0.13813678920269012
10.951865196228027 -10.833571434020996 0.13915011286735535
10.98393726348877 -10.820291519165039 0.1398109793663025
11.07403564453125 -10.817530632019043 0.14078167080879211
11.121933937072754 -10.819307327270508 0.1411024034023285
11.15180778503418 -10.802098274230957 0.141733318567276
11.192294120788574 -10.796385765075684 0.14196090400218964
11.24319076538086 -10.800529479980469 0.14313599467277527
11.278234481811523 -10.7879638671875 0.14369672536849976
11.33453369140625 -10.79686164855957 0.1441253423690796
11.370560646057129 -10.785506248474121 0.1442946493625641
11.41470718383789 -10.781905174255371 0.14511540532112122
11.461524963378906 -10.781209945678711 0.1458355188369751
11.513557434082031 -10.784452438354492 0.14620700478553772
11.545970916748047 -10.769355773925781 0.14633344113826752
11.600898742675781 -10.775656700134277 0.14729930460453033
11.644755363464355 -10.770711898803711 0.14797931909561157
11.684192657470703 -10.761719703674316 0.1481926441192627
11.737563133239746 -10.765186309814453 0.14857950806617737
11.785341262817383 -10.76349925994873 0.14889779686927795
11.811925888061523 -10.74290657043457 0.14992797374725342
11.865898132324219 -10.746330261230469 0.15032343566417694
11.912299156188965 -10.742877960205078 0.15062691271305084
11.955389022827148 -10.736834526062012 0.15089204907417297
12.005143165588379 -10.735275268554688 0.15221035480499268
12.052770614624023 -10.732937812805176 0.1525309532880783
12.093358039855957 -10.724166870117188 0.15276286005973816
12.148354530334473 -10.726663589477539 0.15316708385944366
12.18029499053955 -10.709964752197266 0.15428102016448975
12.242956161499023 -10.719338417053223 0.15478813648223877
12.28398609161377 -10.709747314453125 0.15501883625984192
12.33176326751709 -10.706440925598145 0.15718908607959747
12.381105422973633 -10.703543663024902 0.15753379464149475
12.421010971069336 -10.69251823425293 0.15775352716445923
12.473723411560059 -10.692909240722656 0.15871554613113403
12.534467697143555 -10.699176788330078 0.15962746739387512
12.572848320007324 -10.686351776123047 0.15983307361602783
12.621095657348633 -10.682327270507812 0.1601596176624298
12.675064086914062 -10.68161392211914 0.16055828332901
12.721729278564453 -10.67586898803711 0.16187959909439087
12.781492233276367 -10.68013858795166 0.1623540222644806
12.823333740234375 -10.669424057006836 0.16259901225566864
12.868243217468262 -10.661676406860352 0.16288793087005615
12.92161750793457 -10.659994125366211 0.1638699173927307
12.967917442321777 -10.652475357055664 0.1646084189414978
13.061084747314453 -10.637767791748047 0.1652228683233261
13.126054763793945 -10.64488410949707 0.16576063632965088
13.22958755493164 -10.636801719665527 0.1675345003604889
13.276084899902344 -10.628902435302734 0.16784130036830902
13.369440078735352 -10.61155891418457 0.1689070761203766
13.439432144165039 -10.621728897094727 0.17010879516601562
13.542963981628418 -10.611199378967285 0.17235121130943298
13.644719123840332 -10.598489761352539 0.1736801266670227
13.693132400512695 -10.590607643127441 0.17447158694267273
13.801610946655273 -10.581914901733398 0.17528146505355835
13.85771369934082 -10.579339981079102 0.17632484436035156
13.971097946166992 -10.573066711425781 0.177652508020401
14.013259887695312 -10.55931282043457 0.17790938913822174
14.083044052124023 -10.565378189086914 0.17850807309150696
14.133485794067383 -10.556880950927734 0.17948737740516663
14.187874794006348 -10.55093765258789 0.1803538203239441
14.235862731933594 -10.540239334106445 0.18068349361419678
14.304596900939941 -10.545243263244629 0.18127673864364624
14.34990406036377 -10.531978607177734 0.18157070875167847
14.413077354431152 -10.531817436218262 0.1820881962776184
14.47003173828125 -10.527443885803223 0.18362361192703247
14.526018142700195 -10.521370887756348 0.18405219912528992
14.587656021118164 -10.519351959228516 0.18455365300178528
14.641145706176758 -10.511034965515137 0.18494994938373566
14.693288803100586 -10.502330780029297 0.18580275774002075
14.745477676391602 -10.492890357971191 0.1868140995502472
14.811639785766602 -10.492959976196289 0.18737126886844635
14.867860794067383 -10.48593807220459 0.19002266228199005
14.931533813476562 -10.484514236450195 0.19055883586406708
14.983773231506348 -10.474058151245117 0.19094350934028625
15.04876708984375 -10.472484588623047 0.19213104248046875
15.10993480682373 -10.468578338623047 0.1931188702583313
15.16695785522461 -10.460786819458008 0.19355684518814087
15.245655059814453 -10.467860221862793 0.19428236782550812
15.288984298706055 -10.450206756591797 0.19455331563949585
15.362443923950195 -10.453124046325684 0.19634099304676056
15.411489486694336 -10.439773559570312 0.19669578969478607
15.469633102416992 -10.431602478027344 0.19715198874473572
15.537193298339844 -10.429737091064453 0.19773659110069275
15.603878021240234 -10.427593231201172 0.19831052422523499
15.667238235473633 -10.4221773147583 0.19883276522159576
15.728515625 -10.415331840515137 0.2004842311143875
15.854211807250977 -10.403377532958984 0.20153051614761353
15.909018516540527 -10.391584396362305 0.20195215940475464
16.033384323120117 -10.376750946044922 0.20347169041633606
16.101530075073242 -10.373506546020508 0.20473265647888184
16.235910415649414 -10.36358642578125 0.20588448643684387
16.422401428222656 -10.337900161743164 0.20996931195259094
16.618549346923828 -10.316071510314941 0.21283641457557678
16.768705368041992 -10.311704635620117 0.2142047882080078
16.831336975097656 -10.302145004272461 0.2147269994020462
16.968441009521484 -10.288081169128418 0.2171327769756317
17.03868865966797 -10.28237533569336 0.21776196360588074
17.17239761352539 -10.264657974243164 0.21891427040100098
17.250225067138672 -10.261834144592285 0.2196328341960907
17.31903839111328 -10.253561019897461 0.2207554578781128
17.388031005859375 -10.245736122131348 0.22207191586494446
17.452648162841797 -10.234258651733398 0.222619891166687
17.5301513671875 -10.230264663696289 0.22333312034606934
17.607141494750977 -10.226271629333496 0.22404265403747559
17.661640167236328 -10.208145141601562 0.22446227073669434
17.751182556152344 -10.210198402404785 0.22586309909820557
17.82311248779297 -10.20240592956543 0.22722479701042175
17.888784408569336 -10.189943313598633 0.22778894007205963
17.969493865966797 -10.185965538024902 0.22854405641555786
18.048404693603516 -10.180434226989746 0.23144569993019104
18.11959457397461 -10.17046070098877 0.23208671808242798
18.195289611816406 -10.163351058959961 0.23333019018173218
18.272502899169922 -10.155952453613281 0.23404529690742493
18.354137420654297 -10.15090274810791 0.23481853306293488
18.42889404296875 -10.141525268554688 0.23549920320510864
18.510183334350586 -10.136270523071289 0.2362717241048813
18.574636459350586 -10.120889663696289 0.23756036162376404
18.648027420043945 -10.109905242919922 0.23877835273742676
18.739521026611328 -10.109245300292969 0.2396797239780426
18.80840301513672 -10.095438003540039 0.24029070138931274
18.898523330688477 -10.092500686645508 0.24116885662078857
18.98792266845703 -10.089022636413574 0.24203777313232422
19.052776336669922 -10.072836875915527 0.24259638786315918
19.132465362548828 -10.06336784362793 0.24409830570220947
19.22226333618164 -10.059091567993164 0.2455369532108307
19.2973690032959 -10.04658031463623 0.24622471630573273
19.36815643310547 -10.031760215759277 0.24686038494110107
19.46588706970215 -10.03120231628418 0.24784240126609802
19.53980255126953 -10.017169952392578 0.2485094666481018
19.630203247070312 -10.011480331420898 0.24939566850662231
19.704761505126953 -9.998031616210938 0.2508469820022583
19.78857421875 -9.988107681274414 0.2522233724594116
19.874019622802734 -9.978889465332031 0.2530452609062195
19.955482482910156 -9.967994689941406 0.25479644536972046
20.04611587524414 -9.960469245910645 0.2556821405887604
20.13250732421875 -9.950700759887695 0.2565191984176636
20.305795669555664 -9.930164337158203 0.2581899166107178
20.39929962158203 -9.923487663269043 0.25911739468574524
20.571460723876953 -9.900317192077637 0.2621643543243408
20.8461971282959 -9.871618270874023 0.26487135887145996
21.11562728881836 -9.837173461914062 0.26750195026397705
21.408306121826172 -9.810203552246094 0.27186092734336853
21.5924072265625 -9.784747123718262 0.2736721336841583
21.690643310546875 -9.774147033691406 0.2746562957763672
21.876314163208008 -9.748102188110352 0.27648839354515076
21.973609924316406 -9.735934257507324 0.277457058429718
22.08673858642578 -9.73058795928955 0.2786265015602112
22.188182830810547 -9.720349311828613 0.27986642718315125
22.288894653320312 -9.70846176147461 0.2808782756328583
22.392520904541016 -9.697669982910156 0.2819266617298126
22.494421005249023 -9.68641471862793 0.2838122844696045
22.603622436523438 -9.676948547363281 0.28493210673332214
22.70783233642578 -9.665151596069336 0.2859889268875122
22.81032943725586 -9.651976585388184 0.28702303767204285
22.91427230834961 -9.639941215515137 0.2880779206752777
23.01665496826172 -9.626138687133789 0.2891104519367218
23.12868309020996 -9.615701675415039 0.2909144163131714
23.239112854003906 -9.604390144348145 0.29204946756362915
23.34160614013672 -9.590085983276367 0.2930867671966553
23.567724227905273 -9.567180633544922 0.29541629552841187
23.68668556213379 -9.557300567626953 0.29754722118377686
23.79192352294922 -9.542399406433105 0.29861974716186523
23.909046173095703 -9.531105041503906 0.2998387813568115
24.244056701660156 -9.488457679748535 0.30328553915023804
24.355571746826172 -9.472883224487305 0.30511000752449036
24.480525970458984 -9.462311744689941 0.3064265847206116
24.59136199951172 -9.446542739868164 0.30756843090057373
24.698266983032227 -9.427848815917969 0.3086559772491455
24.831623077392578 -9.419021606445312 0.30776089429855347
24.947311401367188 -9.402734756469727 0.3096436858177185
25.06852149963379 -9.388307571411133 0.31090307235717773
25.18600845336914 -9.372758865356445 0.31211817264556885
25.443435668945312 -9.34675407409668 0.31481677293777466
25.943252563476562 -9.284905433654785 0.32099461555480957
26.205543518066406 -9.254465103149414 0.3237544000148773
26.585979461669922 -9.201250076293945 0.32773298025131226
26.868885040283203 -9.172635078430176 0.33148282766342163
27.282062530517578 -9.122594833374023 0.33586549758911133
27.416458129882812 -9.10325813293457 0.338293194770813
27.688461303710938 -9.065361022949219 0.34117966890335083
27.83529281616211 -9.048445701599121 0.34275245666503906
28.114233016967773 -9.00947093963623 0.3418554663658142
28.255775451660156 -8.989126205444336 0.3433438241481781
28.401336669921875 -8.969759941101074 0.344882071018219
28.553916931152344 -8.951727867126465 0.3465045690536499
28.713895797729492 -8.936481475830078 0.3482213020324707
28.855064392089844 -8.913955688476562 0.34970396757125854
29.0047607421875 -8.893196105957031 0.35129034519195557
29.152084350585938 -8.8713960647583 0.35284844040870667
29.3094539642334 -8.852871894836426 0.35452914237976074
29.46904754638672 -8.833263397216797 0.35623323917388916
29.632076263427734 -8.814313888549805 0.357979416847229
29.7769775390625 -8.790196418762207 0.35950931906700134
29.948240280151367 -8.772092819213867 0.3613520860671997
30.1021728515625 -8.748544692993164 0.3629873991012573
30.266033172607422 -8.726948738098145 0.36474037170410156
30.58660888671875 -8.681184768676758 0.3681635856628418
30.7525691986084 -8.658208847045898 0.3699404001235962
30.919330596923828 -8.63508129119873 0.37256479263305664
31.112464904785156 -8.61828899383545 0.37580037117004395
31.269481658935547 -8.59195327758789 0.37747982144355774
31.443523406982422 -8.568757057189941 0.3793639540672302
31.603538513183594 -8.540763854980469 0.3810756206512451
31.80524444580078 -8.524490356445312 0.3778272867202759
31.957393646240234 -8.493334770202637 0.3805784583091736
32.14134216308594 -8.469650268554688 0.3825550079345703
32.33125305175781 -8.447979927062988 0.3846043050289154
32.511085510253906 -8.42203140258789 0.3865310549736023
32.69792175292969 -8.396842956542969 0.38854366540908813
32.88259506225586 -8.370655059814453 0.3905279040336609
33.243282318115234 -8.314477920532227 0.39439475536346436
33.4409065246582 -8.289281845092773 0.3965315818786621
28.233400344848633 -6.810344696044922 0.3330186605453491
28.459169387817383 -6.738104343414307 0.3353172838687897
20.640012741088867 -4.841599464416504 0.2439674437046051
20.63457679748535 -4.74873161315918 0.24366307258605957
20.563663482666016 -4.596484184265137 0.24246875941753387
27.47998809814453 -5.960551738739014 0.32601335644721985
36.95890426635742 -7.773303985595703 0.43170231580734253
30.09421157836914 -6.198369979858398 0.34860140085220337
30.940439224243164 -6.304389476776123 0.3585387170314789
20.530086517333984 -4.094121932983398 0.23926684260368347
20.45534896850586 -4.034350395202637 0.23826736211776733
20.626869201660156 -3.9780101776123047 0.2401082068681717
20.71355628967285 -3.905073642730713 0.24092388153076172
20.760534286499023 -3.868583917617798 0.24139167368412018
20.844348907470703 -3.8394603729248047 0.242267906665802
20.932764053344727 -3.810286521911621 0.24320176243782043
21.03175163269043 -3.782471179962158 0.24425840377807617
21.093856811523438 -3.747901201248169 0.2448866367340088
21.192516326904297 -3.7200798988342285 0.24594171345233917
21.28093910217285 -3.689328193664551 0.24687659740447998
20.909320831298828 -3.5796635150909424 0.24230587482452393
20.959938049316406 -3.5428009033203125 0.2427905946969986
21.01416015625 -3.5071258544921875 0.24331718683242798
20.433582305908203 -3.3661346435546875 0.236660897731781
20.431018829345703 -3.321439266204834 0.23615539073944092
20.424245834350586 -3.276848077774048 0.23599454760551453
20.41407585144043 -3.230499744415283 0.23579703271389008
20.419160842895508 -3.1878843307495117 0.23578539490699768
20.443565368652344 -3.147709846496582 0.23600740730762482
20.527090072631836 -3.116240978240967 0.2369363158941269
21.338266372680664 -3.1022934913635254 0.24627763032913208
21.39387321472168 -3.0650579929351807 0.2468630075454712
22.08389663696289 -3.11655855178833 0.25455063581466675
32.41391372680664 -4.436444282531738 0.378396213054657
36.913108825683594 -4.814647197723389 0.4197719693183899
23.36736297607422 -2.898569107055664 0.2686402499675751
23.51917266845703 -2.7673840522766113 0.26965975761413574
34.93720245361328 -3.961787223815918 0.4054419994354248
51.054752349853516 -5.46461296081543 0.5868411064147949
52.22516632080078 -5.258026123046875 0.599901556968689
52.22520446777344 -4.9247727394104 0.5986640453338623
51.686851501464844 -4.656275272369385 0.5928353071212769
51.24448776245117 -4.507519245147705 0.588009238243103
50.628028869628906 -4.347440719604492 0.5808688402175903
49.943748474121094 -4.182895660400391 0.5729427337646484
49.08457565307617 -4.006739616394043 0.5629980564117432
48.3463249206543 -3.845492362976074 0.5543609857559204
47.63788604736328 -3.688347101211548 0.5461483597755432
46.75373840332031 -3.5207390785217285 0.5359593033790588
46.038875579833984 -3.370837926864624 0.5276429653167725
45.44043731689453 -3.229442596435547 0.5206592679023743
44.861167907714844 -3.0947179794311523 0.5138855576515198
44.274017333984375 -2.960686683654785 0.5055446624755859
43.77288818359375 -2.8344688415527344 0.5012165307998657
43.262901306152344 -2.71130108833313 0.49384236335754395
42.835968017578125 -2.5941340923309326 0.49673861265182495
42.38906478881836 -2.4773592948913574 0.49143722653388977
41.99437713623047 -2.366858959197998 0.48539167642593384
41.61867904663086 -2.257911205291748 0.4824047386646271
41.239990234375 -2.150148868560791 0.4754146933555603
40.853126525878906 -2.0438599586486816 0.4708985984325409
40.526206970214844 -1.9418325424194336 0.4670684337615967
40.13569259643555 -1.8396492004394531 0.46253615617752075
39.82209014892578 -1.7413806915283203 0.45886021852493286
39.447486877441406 -1.6416558027267456 0.454507052898407
39.091552734375 -1.5455864667892456 0.4503593444824219
38.819374084472656 -1.4517743587493896 0.4471725523471832
38.525882720947266 -1.3607456684112549 0.4437847137451172
38.2366828918457 -1.2710869312286377 0.4403865933418274
37.667640686035156 -1.0933811664581299 0.43375951051712036
36.941932678222656 -0.8399198651313782 0.4253377318382263
36.75288391113281 -0.7583152055740356 0.42188942432403564
36.325477600097656 -0.5974485874176025 0.41592729091644287
35.79273223876953 -0.3636297285556793 0.4163339138031006
35.28739929199219 -0.13568830490112305 0.40946659445762634
51.02326202392578 0.015571065247058868 1.0017975568771362
50.46192169189453 0.12181708216667175 0.9907156229019165
49.803321838378906 0.22358009219169617 0.977792501449585
49.25196838378906 0.3246636390686035 0.9670310616493225
48.35791015625 0.522441565990448 0.9494751691818237
43.968502044677734 1.4899814128875732 0.8677592277526855
43.067222595214844 1.7305588722229004 0.850174605846405
42.140167236328125 1.9601550102233887 0.8320881724357605
