VERSION .7
FIELDS x y z
SIZE 4 4 4
TYPE F F F
COUNT 1 1 1
WIDTH 846
HEIGHT 1
VIEWPOINT 0 0 0 1 0 0 0
POINTS 846
DATA ascii
11.637359619140625 -9.933549880981445 0.3143802881240845
11.690149307250977 -9.936424255371094 0.3154759705066681
11.732135772705078 -9.929347038269043 0.3160572052001953
11.78010082244873 -9.928057670593262 0.31773555278778076
11.833133697509766 -9.930502891540527 0.31863582134246826
11.875580787658691 -9.923293113708496 0.3194039463996887
11.933090209960938 -9.929366111755371 0.3203868269920349
11.95527458190918 -9.905586242675781 0.3214491605758667
12.026511192321777 -9.921682357788086 0.32272815704345703
12.109601974487305 -9.905725479125977 0.32438892126083374
12.15569019317627 -9.900486946105957 0.3250722289085388
12.205283164978027 -9.898491859436035 0.3260939121246338
12.339082717895508 -9.87906265258789 0.3289802670478821
12.500990867614746 -9.880370140075684 0.33257627487182617
13.424264907836914 -9.809613227844238 0.35168206691741943
13.586627960205078 -9.797832489013672 0.3545932173728943
13.749412536621094 -9.784424781799316 0.3585149049758911
13.916558265686035 -9.772162437438965 0.3615664839744568
14.019261360168457 -9.756386756896973 0.36421194672584534
14.084429740905762 -9.757484436035156 0.3653634190559387
14.200095176696777 -9.750304222106934 0.3675772547721863
14.242530822753906 -9.735076904296875 0.36893415451049805
14.309216499328613 -9.737152099609375 0.37041908502578735
14.366065979003906 -9.731940269470215 0.3713414669036865
14.425718307495117 -9.72779655456543 0.37265968322753906
14.474543571472168 -9.717086791992188 0.37339842319488525
14.533397674560547 -9.712565422058105 0.37516435980796814
14.599898338317871 -9.71229362487793 0.3766152858734131
14.658888816833496 -9.70737361907959 0.37632429599761963
14.778188705444336 -9.697436332702637 0.3791316747665405
14.831887245178223 -9.688358306884766 0.38031741976737976
14.947458267211914 -9.674286842346191 0.38250255584716797
15.017498016357422 -9.675457000732422 0.3837493658065796
15.14137077331543 -9.665273666381836 0.3870118260383606
15.316545486450195 -9.642110824584961 0.390201210975647
15.515130996704102 -9.631465911865234 0.39482179284095764
16.49873924255371 -9.535789489746094 0.41472941637039185
16.72627067565918 -9.527524948120117 0.4192470908164978
16.92416763305664 -9.499833106994629 0.423866331577301
16.99800682067871 -9.49394702911377 0.42526042461395264
17.129043579101562 -9.473718643188477 0.42788127064704895
17.207984924316406 -9.469793319702148 0.42931056022644043
17.27732276916504 -9.460928916931152 0.4308684468269348
17.355039596557617 -9.456724166870117 0.43232908844947815
17.42915916442871 -9.44924545288086 0.43457889556884766
17.504066467285156 -9.442543029785156 0.43620648980140686
17.586496353149414 -9.438928604125977 0.43773508071899414
17.650196075439453 -9.425992012023926 0.438872367143631
17.733190536499023 -9.42270278930664 0.4407652020454407
17.81704330444336 -9.418874740600586 0.44231313467025757
17.890872955322266 -9.410455703735352 0.44313299655914307
17.962017059326172 -9.399970054626465 0.4443967342376709
18.044952392578125 -9.394693374633789 0.4459463059902191
18.10393524169922 -9.377328872680664 0.4472942650318146
18.26608657836914 -9.364338874816895 0.45123037695884705
18.356700897216797 -9.362363815307617 0.45322340726852417
18.51295280456543 -9.344018936157227 0.4561719596385956
18.583377838134766 -9.331226348876953 0.4577723741531372
18.751371383666992 -9.316908836364746 0.46097996830940247
18.83631134033203 -9.310422897338867 0.4625462293624878
18.997533798217773 -9.290763854980469 0.46678853034973145
20.57597541809082 -9.116434097290039 0.49959006905555725
20.654678344726562 -9.100074768066406 0.5010847449302673
20.847103118896484 -9.080209732055664 0.5058664679527283
20.946992874145508 -9.072049140930176 0.5082218647003174
21.14684295654297 -9.053032875061035 0.5120852589607239
21.23455810546875 -9.038487434387207 0.5137978196144104
21.333362579345703 -9.026763916015625 0.5161420106887817
21.42033576965332 -9.011199951171875 0.5177614688873291
21.542503356933594 -9.008889198303223 0.5202250480651855
21.623184204101562 -8.989543914794922 0.5217611193656921
21.73686981201172 -8.98394775390625 0.5243886113166809
21.81643295288086 -8.962727546691895 0.5268936157226562
21.94286346435547 -8.961077690124512 0.5294306874275208
22.050321578979492 -8.95046329498291 0.531552255153656
22.165536880493164 -8.94369888305664 0.5339350700378418
22.24901580810547 -8.923320770263672 0.5354446768760681
22.34764862060547 -8.907926559448242 0.5378040075302124
22.44564437866211 -8.892633438110352 0.539761483669281
22.5659122467041 -8.886146545410156 0.5421377420425415
22.663867950439453 -8.869268417358398 0.5451744794845581
22.777629852294922 -8.858899116516113 0.5478471517562866
22.883922576904297 -8.845611572265625 0.5499886274337769
22.989004135131836 -8.829829216003418 0.5520834922790527
23.093093872070312 -8.814859390258789 0.5541053414344788
23.32750701904297 -8.791961669921875 0.5592582821846008
23.44123077392578 -8.779312133789062 0.5615448951721191
23.776973724365234 -8.735010147094727 0.5686601996421814
24.132152557373047 -8.693702697753906 0.5769792199134827
25.626413345336914 -8.50861644744873 0.6094202399253845
25.880294799804688 -8.472071647644043 0.6146529912948608
26.009946823120117 -8.454795837402344 0.6173166036605835
26.276309967041016 -8.41919231414795 0.6240329742431641
26.403034210205078 -8.399419784545898 0.6271424293518066
26.68609046936035 -8.365870475769043 0.6329741477966309
26.80253028869629 -8.341327667236328 0.6353289484977722
26.950180053710938 -8.32417106628418 0.6383809447288513
27.088287353515625 -8.305291175842285 0.6412450671195984
27.240053176879883 -8.290019989013672 0.644897997379303
27.365610122680664 -8.264400482177734 0.6475110054016113
27.509246826171875 -8.245523452758789 0.650463342666626
27.656009674072266 -8.227004051208496 0.6535024046897888
27.806941986083984 -8.207284927368164 0.6566842794418335
27.954437255859375 -8.18779182434082 0.6597073674201965
28.107845306396484 -8.16806411743164 0.6655665636062622
28.413753509521484 -8.128727912902832 0.6719908714294434
28.547557830810547 -8.101072311401367 0.6747586131095886
28.713621139526367 -8.083850860595703 0.6782393455505371
28.854934692382812 -8.05765151977539 0.6811966896057129
29.01622200012207 -8.037313461303711 0.6851801872253418
29.176807403564453 -8.016636848449707 0.6884790658950806
29.346311569213867 -7.995826721191406 0.6920619606971741
29.491666793823242 -7.969724178314209 0.6951234936714172
29.6564998626709 -7.948267936706543 0.6986443996429443
29.987733840942383 -7.901830673217773 0.7056324481964111
30.141815185546875 -7.875575065612793 0.7102916240692139
30.39260482788086 -7.804518699645996 0.7161164879798889
30.59539031982422 -7.651899814605713 0.7206780910491943
30.75164031982422 -7.48588752746582 0.7243369817733765
30.89889907836914 -7.315744400024414 0.7301348447799683
31.214679718017578 -6.975811958312988 0.7382838726043701
31.313758850097656 -6.859626293182373 0.7407105565071106
31.37656021118164 -6.805179595947266 0.7422635555267334
23.706708908081055 -4.9858222007751465 0.5555490255355835
23.684598922729492 -4.877105236053467 0.555600643157959
23.67688751220703 -4.824321746826172 0.5551964640617371
23.668312072753906 -4.718845844268799 0.5542261004447937
24.051143646240234 -4.74329137802124 0.561711311340332
24.12860870361328 -4.7050461769104 0.5639231204986572
27.239660263061523 -5.13431453704834 0.6631244421005249
27.23638916015625 -5.0751953125 0.6633360385894775
27.331758499145508 -5.033683776855469 0.6661572456359863
23.728715896606445 -4.318145275115967 0.5587271451950073
23.311405181884766 -4.192225456237793 0.5454239845275879
23.76362419128418 -4.2222580909729 0.5588017702102661
23.55139923095703 -4.133070945739746 0.5510073900222778
23.51854133605957 -4.076614856719971 0.5493482947349548
23.694799423217773 -4.055444717407227 0.5534845590591431
23.842945098876953 -4.029890060424805 0.5566539764404297
23.852481842041016 -3.980207920074463 0.5567469596862793
23.859159469604492 -3.9293527603149414 0.556871771812439
23.830339431762695 -3.873821496963501 0.5545920729637146
23.791147232055664 -3.7646820545196533 0.5540168285369873
23.998313903808594 -3.74644136428833 0.5601401925086975
23.79559898376465 -3.6122124195098877 0.5561960339546204
23.51573371887207 -3.4186174869537354 0.5470823049545288
23.4921875 -3.3650379180908203 0.5463512539863586
23.486923217773438 -3.2637906074523926 0.5459353923797607
23.9207706451416 -3.170529842376709 0.5560451149940491
25.300033569335938 -3.1916284561157227 0.5880751609802246
26.483888626098633 -3.058882713317871 0.6147607564926147
26.463817596435547 -2.9997267723083496 0.614177405834198
26.440975189208984 -2.8856043815612793 0.6133880019187927
26.61058235168457 -2.847038984298706 0.6167739629745483
30.601909637451172 -3.079746723175049 0.7321444749832153
32.634788513183594 -3.1455180644989014 0.7731621265411377
32.638248443603516 -3.077505588531494 0.7731693387031555
32.63662338256836 -3.008401393890381 0.7730106115341187
32.64292907714844 -2.939305305480957 0.7729957103729248
32.632591247558594 -2.8701205253601074 0.7727500796318054
32.627872467041016 -2.8008501529693604 0.7724848985671997
32.62760543823242 -2.7312605381011963 0.7723296880722046
32.63355255126953 -2.662940502166748 0.7723990678787231
32.615116119384766 -2.591944694519043 0.7718313932418823
32.6212158203125 -2.524317979812622 0.7719367742538452
32.602928161621094 -2.4542176723480225 0.7712172269821167
32.60294723510742 -2.3848209381103516 0.7711557149887085
32.55525207519531 -2.3127903938293457 0.7697921991348267
32.56495666503906 -2.245570182800293 0.769842267036438
32.53554153442383 -2.1743483543395996 0.7691012620925903
32.51820373535156 -2.1047863960266113 0.7685866355895996
32.51898956298828 -2.0370798110961914 0.7685233354568481
32.50679397583008 -1.967240333557129 0.7681693434715271
32.48295593261719 -1.897521734237671 0.7674470543861389
32.48017120361328 -1.8283743858337402 0.7673356533050537
32.45697784423828 -1.758880615234375 0.7667028307914734
32.478179931640625 -1.6924407482147217 0.7670877575874329
32.45654296875 -1.6224255561828613 0.7665330171585083
32.44671630859375 -1.5538122653961182 0.7662315368652344
32.44027328491211 -1.4172242879867554 0.7658919095993042
32.40839385986328 -1.3478292226791382 0.7630674839019775
32.40211486816406 -1.211521863937378 0.7627999782562256
32.39181900024414 -1.1432032585144043 0.7624963521957397
32.397823333740234 -1.0068236589431763 0.763120174407959
32.356475830078125 -0.8019665479660034 0.7620530724525452
32.34814453125 -0.6654579043388367 0.7617639303207397
32.36539077758789 -0.5986225008964539 0.7614970207214355
32.34699249267578 -0.46201851963996887 0.760903000831604
32.33164978027344 -0.3946930468082428 0.7606717348098755
32.34283447265625 -0.25860607624053955 0.759421706199646
32.34987258911133 -0.19017496705055237 0.7594887018203735
32.27336883544922 -0.12212881445884705 0.757867693901062
32.26670837402344 -0.05514334887266159 0.757668673992157
5.603335380554199 7.813155174255371 0.10729401558637619
5.565077781677246 7.793911933898926 0.10633844137191772
5.5220184326171875 7.802884101867676 0.10550779104232788
5.448505401611328 7.802573204040527 0.10411665588617325
5.375209331512451 7.801639556884766 0.10251553356647491
5.304309844970703 7.803282737731934 0.10202691704034805
5.230515480041504 7.799742221832275 0.10069450736045837
5.153505802154541 7.790335178375244 0.09898609668016434
4.5093231201171875 7.773064613342285 0.08665139973163605
4.447680950164795 7.767764568328857 0.08563470840454102
5.513005256652832 8.146611213684082 0.18580737709999084
5.441989898681641 8.151609420776367 0.18391451239585876
5.386512756347656 8.142562866210938 0.18250960111618042
5.355440139770508 8.13221549987793 0.1818373054265976
5.312623500823975 8.14163875579834 0.18097423017024994
5.287240028381348 8.139595985412598 0.180043026804924
5.23525857925415 8.134358406066895 0.17956328392028809
5.206722736358643 8.127030372619629 0.17899450659751892
5.142477989196777 8.138944625854492 0.17718419432640076
5.055651664733887 8.114045143127441 0.17522478103637695
4.996633529663086 8.132794380187988 0.17360126972198486
4.325596809387207 8.096518516540527 0.1578269749879837
34.10610580444336 0.014571703970432281 0.8870994448661804
34.107181549072266 0.08600300550460815 0.8869568705558777
34.02886199951172 0.15784984827041626 0.8850369453430176
33.99853515625 0.3008981943130493 0.8843469023704529
33.92892837524414 0.4417668879032135 0.882575273513794
33.929988861083984 0.5136279463768005 0.8826127052307129
33.912254333496094 0.5837525129318237 0.8808016180992126
33.94542694091797 0.6568630337715149 0.8816613554954529
33.798805236816406 1.149486780166626 0.8781076669692993
33.72492980957031 1.2191071510314941 0.8760979175567627
33.63201141357422 1.4275071620941162 0.8703258633613586
33.59537124633789 1.4958008527755737 0.8694475889205933
33.53025817871094 1.6344189643859863 0.8662129640579224
33.52947998046875 1.7041338682174683 0.8663053512573242
33.4571418762207 1.8417547941207886 0.8646802306175232
33.374935150146484 2.048398494720459 0.862237811088562
33.33024597167969 2.116492986679077 0.8612687587738037
33.33323669433594 2.1861438751220703 0.860057532787323
33.312129974365234 2.2548372745513916 0.8595447540283203
33.26890563964844 2.3226771354675293 0.8586643934249878
33.25307846069336 2.3909249305725098 0.8583894968032837
33.230003356933594 2.459232807159424 0.857372522354126
33.215110778808594 2.5288445949554443 0.8570353984832764
33.19255828857422 2.597059726715088 0.8566124439239502
33.17366409301758 2.664856195449829 0.8562424182891846
33.14494323730469 2.733182907104492 0.8542997241020203
33.132930755615234 2.8020694255828857 0.8540706634521484
33.081085205078125 2.868232488632202 0.8529183864593506
33.076786041259766 2.9370296001434326 0.8528950214385986
33.05070114135742 3.0044922828674316 0.8482033014297485
33.01370620727539 3.0716123580932617 0.84686678647995
32.992733001708984 3.1393723487854004 0.8465021252632141
32.996280670166016 3.2088170051574707 0.8452519178390503
32.94060516357422 3.2738137245178223 0.8440587520599365
32.907325744628906 3.4105210304260254 0.8435896039009094
32.886085510253906 3.4779512882232666 0.8426388502120972
32.86463928222656 3.544661521911621 0.8422560095787048
32.80499267578125 3.7483949661254883 0.8399662971496582
32.654457092285156 4.14774751663208 0.8353801965713501
32.5698356628418 4.345226287841797 0.8332352638244629
32.475120544433594 4.471869468688965 0.8300257921218872
32.361297607421875 4.663679122924805 0.8246835470199585
32.221927642822266 4.851191520690918 0.8212037086486816
32.11555480957031 4.9729509353637695 0.817690372467041
32.07637023925781 5.035698413848877 0.8170377612113953
31.97852897644043 5.1584248542785645 0.8143582344055176
31.93724822998047 5.219789505004883 0.8136321306228638
31.895252227783203 5.280905246734619 0.8114233016967773
31.862810134887695 5.345491409301758 0.810293972492218
31.816619873046875 5.405650615692139 0.8095232248306274
31.775630950927734 5.467922210693359 0.8087153434753418
31.736316680908203 5.5296196937561035 0.8079720735549927
31.695880889892578 5.590370178222656 0.8052165508270264
31.650875091552734 5.6521759033203125 0.8044254779815674
31.620624542236328 5.714509963989258 0.8038275241851807
31.58352279663086 5.7755126953125 0.8031970262527466
31.542755126953125 5.837719917297363 0.8018259406089783
31.497970581054688 5.897062301635742 0.7996805310249329
31.447505950927734 5.957176208496094 0.7987850904464722
31.409210205078125 6.0174665451049805 0.7967864274978638
31.373001098632812 6.078052520751953 0.7955349683761597
31.312402725219727 6.1357421875 0.7943779230117798
31.290210723876953 6.198846817016602 0.7926620244979858
31.241195678710938 6.256540298461914 0.7911983728408813
31.17237091064453 6.312049865722656 0.7898959517478943
31.134075164794922 6.37158203125 0.7892206311225891
31.061403274536133 6.493118762969971 0.786017894744873
31.00042724609375 6.547544479370117 0.784869372844696
30.943771362304688 6.671831130981445 0.783480167388916
30.905067443847656 6.730631351470947 0.7815070748329163
30.793224334716797 6.8422346115112305 0.7788264155387878
30.416364669799805 7.36503791809082 0.7689113616943359
30.29187774658203 7.53680419921875 0.7639076113700867
30.189233779907227 7.7131195068359375 0.7617602944374084
29.904985427856445 7.841087341308594 0.7528136968612671
29.78632354736328 7.87606954574585 0.7496782541275024
29.66948699951172 7.913023948669434 0.7454509735107422
29.56728744506836 7.951521396636963 0.7421251535415649
29.439159393310547 7.983196258544922 0.7388284206390381
29.34206199645996 8.023605346679688 0.7363373041152954
29.23556137084961 8.059724807739258 0.7318746447563171
29.132200241088867 8.098227500915527 0.7291080951690674
29.083412170410156 8.149718284606934 0.7277626395225525
28.973590850830078 8.184392929077148 0.7231388092041016
28.765701293945312 8.191497802734375 0.7182022333145142
28.576950073242188 8.201896667480469 0.7137314677238464
28.35011100769043 8.201061248779297 0.7079625129699707
28.13593292236328 8.203727722167969 0.7016836404800415
27.94112777709961 8.209878921508789 0.6971827745437622
27.70806121826172 8.204442977905273 0.6913095116615295
27.50834083557129 8.208722114562988 0.6879427433013916
27.09560775756836 8.20998764038086 0.6768033504486084
26.8792667388916 8.205374717712402 0.6705845594406128
26.514400482177734 8.21622085571289 0.6617158651351929
26.33476448059082 8.220489501953125 0.656387448310852
25.93614959716797 8.216090202331543 0.6467698812484741
25.393220901489258 8.220109939575195 0.6327123045921326
22.91649055480957 8.224205017089844 0.5722059011459351
22.45626449584961 8.218758583068848 0.5604198575019836
22.0384521484375 8.223311424255371 0.5496339797973633
21.88037872314453 8.21653938293457 0.5447293519973755
21.743663787841797 8.217802047729492 0.5417625904083252
21.61876678466797 8.222347259521484 0.5386250019073486
21.472753524780273 8.217859268188477 0.53436279296875
21.326377868652344 8.2136812210083 0.5307774543762207
21.203433990478516 8.217329025268555 0.5281058549880981
21.062606811523438 8.213067054748535 0.5240288972854614
20.942279815673828 8.217303276062012 0.5210484266281128
20.79555320739746 8.209993362426758 0.5177654027938843
20.682785034179688 8.21616268157959 0.5139051675796509
20.428001403808594 8.213695526123047 0.5080444812774658
20.308563232421875 8.215696334838867 0.5045313835144043
20.07563591003418 8.218999862670898 0.49818405508995056
19.951221466064453 8.217462539672852 0.4979875385761261
19.720905303955078 8.219910621643066 0.491730272769928
19.594995498657227 8.215200424194336 0.488646537065506
19.351221084594727 8.208988189697266 0.48206081986427307
19.016616821289062 8.208488464355469 0.4736711084842682
16.898296356201172 8.195250511169434 0.4213631749153137
16.80156135559082 8.191807746887207 0.41853752732276917
16.6350040435791 8.197488784790039 0.41488540172576904
16.53673553466797 8.191758155822754 0.41173994541168213
16.375732421875 8.198070526123047 0.40741676092147827
16.281057357788086 8.192972183227539 0.40551650524139404
16.107894897460938 8.191028594970703 0.4005659818649292
16.013761520385742 8.185029983520508 0.3987003266811371
15.9371337890625 8.188501358032227 0.39607977867126465
15.840811729431152 8.180953979492188 0.39411813020706177
15.761903762817383 8.181678771972656 0.3914477229118347
15.582223892211914 8.17189884185791 0.3875381648540497
15.51201343536377 8.177033424377441 0.3854340612888336
15.347569465637207 8.172266006469727 0.3807949125766754
15.263639450073242 8.169136047363281 0.38062912225723267
15.111307144165039 8.168807029724121 0.37663698196411133
14.876124382019043 8.163783073425293 0.3709758520126343
13.318643569946289 8.130383491516113 0.33055657148361206
13.117934226989746 8.121499061584473 0.3256911039352417
12.93433666229248 8.120752334594727 0.3204583525657654
12.816364288330078 8.1221342086792 0.3173937499523163
12.756967544555664 8.121646881103516 0.3163524270057678
12.638667106628418 8.121332168579102 0.3130550980567932
12.574838638305664 8.117238998413086 0.31129080057144165
12.463196754455566 8.119733810424805 0.3088037371635437
12.3931245803833 8.110766410827637 0.3068590462207794
12.275639533996582 8.107921600341797 0.3038455545902252
12.212318420410156 8.102548599243164 0.30246251821517944
12.097135543823242 8.099705696105957 0.2995443344116211
12.056612014770508 8.108858108520508 0.2976491451263428
11.933680534362793 8.09937858581543 0.294582337141037
11.7742338180542 8.099742889404297 0.2907367944717407
10.35013198852539 8.055198669433594 0.25320005416870117
10.217567443847656 8.055675506591797 0.25013303756713867
10.07502269744873 8.046512603759766 0.24630358815193176
9.948099136352539 8.048093795776367 0.24285295605659485
9.89654541015625 8.040423393249512 0.24182277917861938
9.855698585510254 8.042248725891113 0.24042531847953796
9.809000015258789 8.038108825683594 0.23947858810424805
9.723238945007324 8.036515235900879 0.23742716014385223
9.685822486877441 8.039478302001953 0.23523420095443726
9.597447395324707 8.034629821777344 0.23292222619056702
9.55565071105957 8.033425331115723 0.23229405283927917
9.434892654418945 8.03367805480957 0.22886987030506134
8.12924861907959 7.989140510559082 0.19528841972351074
8.033620834350586 7.995061874389648 0.19329833984375
7.954504013061523 7.983285903930664 0.19136518239974976
7.916668891906738 7.978359222412109 0.1901598870754242
7.846631050109863 7.974668502807617 0.1881202608346939
7.819249153137207 7.97989559173584 0.1876431703567505
7.748069763183594 7.974156379699707 0.18587668240070343
7.721669673919678 7.980053901672363 0.18495795130729675
7.653354167938232 7.9763994216918945 0.18340209126472473
7.613195896148682 7.967577934265137 0.18218940496444702
7.555271625518799 7.973919868469238 0.18072877824306488
7.451442718505859 7.964025020599365 0.17860332131385803
7.363147735595703 7.969493865966797 0.17617586255073547
7.2606916427612305 7.958398342132568 0.17359285056591034
6.257387161254883 7.92689323425293 0.1490851640701294
6.174581527709961 7.923919677734375 0.14734524488449097
6.143080711364746 7.917326927185059 0.14636355638504028
6.095067024230957 7.924124717712402 0.1452324092388153
6.058019161224365 7.909872055053711 0.1441434621810913
6.043830394744873 7.926364898681641 0.1440247893333435
6.007927894592285 7.9132843017578125 0.1431412398815155
5.980517864227295 7.911215782165527 0.1422726809978485
5.9524149894714355 7.9091057777404785 0.14180761575698853
5.938251495361328 7.924459457397461 0.14125053584575653
5.846996784210205 7.905766487121582 0.13892224431037903
5.770885944366455 7.906342029571533 0.13690662384033203
5.694336891174316 7.905353546142578 0.13577887415885925
5.628519058227539 7.918475151062012 0.13444653153419495
5.540268898010254 7.899013519287109 0.13220453262329102
4.929203033447266 7.876491069793701 0.11795257031917572
4.855666637420654 7.8688507080078125 0.11611005663871765
4.788093566894531 7.869619846343994 0.1143784299492836
4.719413757324219 7.867702960968018 0.11262591928243637
4.656291961669922 7.874272346496582 0.11102689057588577
4.604579925537109 7.861908912658691 0.10945045948028564
4.582224369049072 7.861401557922363 0.10917830467224121
4.563380241394043 7.866549491882324 0.10938148945569992
4.526630401611328 7.841444969177246 0.10833720862865448
5.483767509460449 -10.312768936157227 0.1491173952817917
5.530200481414795 -10.295661926269531 0.15011607110500336
5.55181360244751 -10.284245491027832 0.15082259476184845
5.598613739013672 -10.267261505126953 0.15182240307331085
5.632043361663818 -10.277767181396484 0.15286189317703247
5.655755043029785 -10.270404815673828 0.15318676829338074
5.695140838623047 -10.289844512939453 0.1538190245628357
5.727819442749023 -10.29838752746582 0.1548299342393875
5.7587761878967285 -10.303653717041016 0.15579994022846222
5.788151741027832 -10.304462432861328 0.15621230006217957
5.811776161193848 -10.296418190002441 0.15699180960655212
5.839362144470215 -10.295323371887207 0.15784908831119537
5.8737382888793945 -10.304573059082031 0.15838724374771118
5.893770694732666 -10.290023803710938 0.15909402072429657
5.925597667694092 -10.294923782348633 0.1600792407989502
5.9565300941467285 -10.298785209655762 0.1605147421360016
5.984656810760498 -10.29804801940918 0.16143831610679626
6.009589195251465 -10.290285110473633 0.16225221753120422
6.039682388305664 -10.292707443237305 0.16319160163402557
6.070669651031494 -10.295448303222656 0.16365641355514526
6.095355033874512 -10.28807544708252 0.16446368396282196
6.127114295959473 -10.292913436889648 0.16546368598937988
6.154313087463379 -10.28891372680664 0.16579198837280273
6.181977272033691 -10.286270141601562 0.16670212149620056
6.205756187438965 -10.277470588684082 0.16751140356063843
6.2413835525512695 -10.287121772766113 0.16805791854858398
6.269217491149902 -10.284435272216797 0.16897720098495483
6.294021129608154 -10.277077674865723 0.16981501877307892
6.321115016937256 -10.272356986999512 0.17015524208545685
6.353358268737793 -10.276541709899902 0.17114949226379395
6.380823135375977 -10.27324104309082 0.17206993699073792
6.414703845977783 -10.278733253479004 0.17258696258068085
6.4407830238342285 -10.272994995117188 0.17344313859939575
6.470646858215332 -10.272175788879395 0.1744144707918167
6.528682708740234 -10.269180297851562 0.17575716972351074
6.619515895843506 -10.26889419555664 0.17815054953098297
6.702805042266846 -10.255940437316895 0.1801467388868332
6.797521591186523 -10.258445739746094 0.182632178068161
6.883037567138672 -10.247011184692383 0.1849161684513092
6.971749305725098 -10.23941707611084 0.1873040497303009
7.035218238830566 -10.239669799804688 0.18882101774215698
7.070551872253418 -10.245122909545898 0.1904573142528534
7.136180400848389 -10.247983932495117 0.19185520708560944
7.162904262542725 -10.240623474121094 0.19274714589118958
7.222681522369385 -10.234399795532227 0.1941920816898346
7.2545599937438965 -10.234070777893066 0.19521072506904602
7.31781530380249 -10.232049942016602 0.19674307107925415
7.3473429679870605 -10.228059768676758 0.19774293899536133
7.3767290115356445 -10.223158836364746 0.1981557160615921
7.404758930206299 -10.217253684997559 0.1991087794303894
7.43978214263916 -10.220524787902832 0.20024622976779938
7.468767166137695 -10.214759826660156 0.20065143704414368
7.506809711456299 -10.222200393676758 0.20185063779354095
7.5377607345581055 -10.219477653503418 0.20233944058418274
7.558747291564941 -10.202581405639648 0.2029084414243698
7.589012145996094 -10.198768615722656 0.20391800999641418
7.614199161529541 -10.18840217590332 0.2042580544948578
7.656325340270996 -10.199605941772461 0.2055499404668808
7.688022613525391 -10.197341918945312 0.20659759640693665
7.713126182556152 -10.18564510345459 0.20692655444145203
7.748905181884766 -10.188892364501953 0.20808210968971252
7.775518417358398 -10.1796293258667 0.20843559503555298
7.810454845428467 -10.180553436279297 0.21072915196418762
7.8340606689453125 -10.167220115661621 0.21104851365089417
7.87440824508667 -10.175838470458984 0.21209725737571716
7.906394958496094 -10.172541618347168 0.21257098019123077
7.93743896484375 -10.168522834777832 0.21359306573867798
7.970786094665527 -10.166731834411621 0.21472950279712677
7.997152328491211 -10.156883239746094 0.21511845290660858
8.043079376220703 -10.17137336730957 0.21654891967773438
8.07579517364502 -10.168365478515625 0.2176302969455719
8.112292289733887 -10.170907974243164 0.21825151145458221
8.134567260742188 -10.155195236206055 0.21909180283546448
8.174394607543945 -10.160694122314453 0.21982309222221375
8.211133003234863 -10.163104057312012 0.22080904245376587
8.242385864257812 -10.158252716064453 0.22188426554203033
8.279505729675293 -10.159902572631836 0.22251518070697784
8.308106422424316 -10.151569366455078 0.22349432110786438
8.34600830078125 -10.153885841369629 0.2241632342338562
8.377548217773438 -10.149247169494629 0.22522452473640442
8.413944244384766 -10.150028228759766 0.2264520525932312
8.444356918334961 -10.142873764038086 0.22692164778709412
8.474658966064453 -10.136419296264648 0.2279725968837738
8.548852920532227 -10.138089179992676 0.229598730802536
8.587226867675781 -10.140819549560547 0.23029416799545288
8.664651870727539 -10.145305633544922 0.23343800008296967
8.691436767578125 -10.134008407592773 0.23418115079402924
8.760310173034668 -10.127687454223633 0.23594608902931213
8.82646369934082 -10.117731094360352 0.23761120438575745
8.875723838806152 -10.131678581237793 0.23918157815933228
8.944023132324219 -10.123308181762695 0.24093258380889893
8.974311828613281 -10.115208625793457 0.24179707467556
9.015453338623047 -10.117959976196289 0.2425316423177719
9.050292015075684 -10.114721298217773 0.24372218549251556
9.120932579040527 -10.107681274414062 0.24553407728672028
9.166460037231445 -10.115849494934082 0.24638956785202026
9.19371223449707 -10.103377342224121 0.24716641008853912
9.226476669311523 -10.096302032470703 0.24832287430763245
9.257853507995605 -10.088515281677246 0.24883651733398438
9.302814483642578 -10.095046997070312 0.25027430057525635
9.343986511230469 -10.096687316894531 0.2510564625263214
9.37311840057373 -10.086098670959473 0.25211504101753235
9.410100936889648 -10.08261489868164 0.2525511085987091
9.459562301635742 -10.093538284301758 0.25412845611572266
9.48478889465332 -10.078455924987793 0.2563566267490387
9.526407241821289 -10.079448699951172 0.2571382224559784
9.556852340698242 -10.069718360900879 0.25823575258255005
9.608331680297852 -10.081649780273438 0.25902190804481506
9.636561393737793 -10.068443298339844 0.26009905338287354
9.668558120727539 -10.059998512268066 0.261266827583313
9.718879699707031 -10.07011604309082 0.262226939201355
9.744431495666504 -10.053848266601562 0.2632443904876709
9.788167953491211 -10.05712890625 0.26405397057533264
9.829076766967773 -10.05609130859375 0.2652234137058258
9.877347946166992 -10.063612937927246 0.2661382555961609
9.913033485412598 -10.058135986328125 0.2674564719200134
9.953423500061035 -10.05605697631836 0.26815474033355713
9.994088172912598 -10.055318832397461 0.2695631980895996
10.029677391052246 -10.049330711364746 0.2699449062347412
10.065144538879395 -10.041872024536133 0.2712348699569702
10.109947204589844 -10.044795036315918 0.27273130416870117
10.149641990661621 -10.041238784790039 0.27343401312828064
10.183685302734375 -10.033186912536621 0.2746860086917877
10.219561576843262 -10.026824951171875 0.27514395117759705
10.26376724243164 -10.027254104614258 0.2765907645225525
10.314776420593262 -10.035337448120117 0.2776221036911011
10.340095520019531 -10.018287658691406 0.2786346673965454
10.387002944946289 -10.020804405212402 0.2795521318912506
10.430781364440918 -10.021328926086426 0.28081321716308594
10.473871231079102 -10.020689010620117 0.28231292963027954
10.51671314239502 -10.019060134887695 0.2831171452999115
10.546406745910645 -10.005681037902832 0.2842438817024231
10.57943344116211 -9.994159698486328 0.2848115563392639
10.633699417114258 -10.003746032714844 0.28638318181037903
10.676490783691406 -10.0023193359375 0.28717321157455444
10.716880798339844 -9.997257232666016 0.28861182928085327
10.76385498046875 -9.999382019042969 0.2894986569881439
10.802576065063477 -9.993668556213379 0.29066744446754456
10.834552764892578 -9.980382919311523 0.2912324070930481
10.888105392456055 -9.988025665283203 0.2929689884185791
10.972799301147461 -9.98094654083252 0.29506146907806396
11.017580032348633 -9.979978561401367 0.2958948016166687
11.061934471130371 -9.977216720581055 0.2974663972854614
11.091204643249512 -9.961956024169922 0.29791373014450073
11.143148422241211 -9.966909408569336 0.2994243800640106
11.185797691345215 -9.962124824523926 0.3002697825431824
11.227348327636719 -9.957428932189941 0.30171966552734375
11.33010482788086 -9.963631629943848 0.30428165197372437
11.35405158996582 -9.94298267364502 0.3046305477619171
11.452909469604492 -9.944644927978516 0.3079734742641449
11.502248764038086 -9.945695877075195 0.30964916944503784
11.544320106506348 -9.939053535461426 0.3102143704891205
11.587993621826172 -9.934857368469238 0.31174010038375854
11.623899459838867 -9.923863410949707 0.3124876618385315
11.679597854614258 -9.928357124328613 0.3142998218536377
11.71864128112793 -9.91972827911377 0.3148038983345032
11.774847984313965 -9.92420768737793 0.31669682264328003
11.814605712890625 -9.915855407714844 0.3174380958080292
11.866965293884277 -9.917900085449219 0.3189767897129059
11.918009757995605 -9.917394638061523 0.3200424313545227
11.967512130737305 -9.91662883758545 0.3217253088951111
12.012771606445312 -9.912158012390137 0.3226744532585144
12.051004409790039 -9.900510787963867 0.3231067359447479
12.101327896118164 -9.899864196777344 0.3248724341392517
12.145797729492188 -9.894240379333496 0.32579880952835083
12.195821762084961 -9.8917236328125 0.32725656032562256
12.296610832214355 -9.887909889221191 0.3300839066505432
12.34759521484375 -9.886786460876465 0.3311307430267334
12.394039154052734 -9.881834030151367 0.33252042531967163
12.440435409545898 -9.8754301071167 0.33349454402923584
12.479716300964355 -9.864463806152344 0.33496585488319397
12.537271499633789 -9.866843223571777 0.3359582722187042
12.588178634643555 -9.86434555053711 0.3369993269443512
12.6363525390625 -9.859837532043457 0.3387523889541626
12.681583404541016 -9.851948738098145 0.3396971523761749
12.732970237731934 -9.849236488342285 0.3411708176136017
12.778034210205078 -9.841779708862305 0.34212708473205566
12.845012664794922 -9.84972095489502 0.343605637550354
12.88605785369873 -9.838797569274902 0.34515708684921265
12.953351974487305 -9.84677791595459 0.3463498055934906
12.98320484161377 -9.826695442199707 0.34764599800109863
13.04008960723877 -9.827253341674805 0.3488962948322296
13.143045425415039 -9.818330764770508 0.3515090346336365
13.205918312072754 -9.822667121887207 0.3536374866962433
13.248265266418457 -9.810275077819824 0.3542110323905945
13.31082820892334 -9.813899040222168 0.3555770516395569
13.351423263549805 -9.801126480102539 0.35719531774520874
13.432428359985352 -9.816503524780273 0.3587286174297333
13.479331970214844 -9.80793285369873 0.360512375831604
13.587457656860352 -9.799357414245605 0.363278329372406
13.624780654907227 -9.78335952758789 0.3640071451663971
13.747282028198242 -9.783836364746094 0.36721301078796387
13.849311828613281 -9.76884651184082 0.36940115690231323
13.90707015991211 -9.766430854797363 0.3704204559326172
14.013751983642578 -9.753484725952148 0.37321722507476807
14.06281852722168 -9.744378089904785 0.3742592930793762
14.124933242797852 -9.743160247802734 0.37641775608062744
14.179295539855957 -9.736957550048828 0.37729400396347046
14.242300987243652 -9.73679256439209 0.37874507904052734
14.293830871582031 -9.727619171142578 0.38062387704849243
14.352776527404785 -9.723876953125 0.38163089752197266
14.416251182556152 -9.722352981567383 0.383838951587677
14.471810340881348 -9.715852737426758 0.38475146889686584
14.5341215133667 -9.713991165161133 0.38696232438087463
14.584493637084961 -9.70298957824707 0.3880078196525574
14.6537504196167 -9.704916000366211 0.3893536329269409
14.717109680175781 -9.703001022338867 0.3915427327156067
14.768068313598633 -9.691400527954102 0.3923547565937042
14.832073211669922 -9.689428329467773 0.39381352066993713
14.887167930603027 -9.680451393127441 0.39581820368766785
14.95489501953125 -9.68005084991455 0.3970394730567932
15.011098861694336 -9.672287940979004 0.3991395831108093
15.067392349243164 -9.663415908813477 0.4003908336162567
15.124483108520508 -9.655448913574219 0.4013561010360718
15.191852569580078 -9.65318489074707 0.4036719799041748
15.244111061096191 -9.642043113708496 0.40291666984558105
15.310697555541992 -9.639386177062988 0.40443482995033264
15.3658447265625 -9.628679275512695 0.4053836762905121
15.439655303955078 -9.63001823425293 0.4078952670097351
15.488807678222656 -9.616086959838867 0.40896445512771606
15.5484037399292 -9.607479095458984 0.4099993407726288
15.610757827758789 -9.600953102111816 0.41225945949554443
15.692519187927246 -9.60641098022461 0.4138514995574951
15.749006271362305 -9.595149993896484 0.4159448742866516
15.82738208770752 -9.597570419311523 0.4177602529525757
15.953081130981445 -9.582136154174805 0.42116808891296387
16.008981704711914 -9.570563316345215 0.422107994556427
16.147357940673828 -9.561210632324219 0.4258694052696228
16.209983825683594 -9.552915573120117 0.42730069160461426
16.363052368164062 -9.550508499145508 0.4313849210739136
16.491186141967773 -9.532411575317383 0.43406933546066284
16.54825210571289 -9.519637107849121 0.43619656562805176
16.692705154418945 -9.509397506713867 0.4392118453979492
16.91841697692871 -9.497602462768555 0.44211336970329285
16.974672317504883 -9.481912612915039 0.4439774751663208
17.037500381469727 -9.470311164855957 0.4454387128353119
17.12360191345215 -9.471710205078125 0.44719648361206055
17.259902954101562 -9.452394485473633 0.4512194097042084
17.330596923828125 -9.444413185119629 0.4525338411331177
17.41022300720215 -9.43998908996582 0.4552876949310303
17.49654769897461 -9.439496994018555 0.4570656418800354
17.567859649658203 -9.429941177368164 0.45870888233184814
17.647090911865234 -9.424982070922852 0.46112918853759766
17.716739654541016 -9.4149808883667 0.4627806544303894
17.794038772583008 -9.407735824584961 0.46428266167640686
17.862491607666016 -9.39617919921875 0.46676966547966003
17.943592071533203 -9.391352653503418 0.4683871269226074
18.01898956298828 -9.382203102111816 0.470165491104126
18.256086349487305 -9.359871864318848 0.47601211071014404
18.319074630737305 -9.344207763671875 0.4775538742542267
18.407581329345703 -9.340229034423828 0.48018985986709595
18.487279891967773 -9.332101821899414 0.48215341567993164
18.56413459777832 -9.321563720703125 0.48362284898757935
18.633533477783203 -9.308043479919434 0.4840517044067383
18.716062545776367 -9.300410270690918 0.48563846945762634
18.8096866607666 -9.297264099121094 0.48791778087615967
18.886150360107422 -9.285959243774414 0.48941075801849365
18.973169326782227 -9.279902458190918 0.49207788705825806
19.052927017211914 -9.268909454345703 0.4940149784088135
19.1337947845459 -9.258813858032227 0.4956238269805908
19.31410789489746 -9.246268272399902 0.5005010366439819
19.39299201965332 -9.23422908782959 0.5024335384368896
19.5668888092041 -9.216144561767578 0.5072520971298218
19.65432357788086 -9.207542419433594 0.5090296864509583
19.825044631958008 -9.185904502868652 0.5128108263015747
19.921314239501953 -9.180341720581055 0.5161649584770203
20.010143280029297 -9.16950511932373 0.5179119110107422
20.089069366455078 -9.155278205871582 0.5195164680480957
20.277345657348633 -9.138145446777344 0.5246937870979309
20.358423233032227 -9.123903274536133 0.5266664028167725
20.556636810302734 -9.108970642089844 0.5321567058563232
20.656618118286133 -9.100930213928223 0.5342193245887756
20.843196868896484 -9.079619407653809 0.5391249656677246
20.92303466796875 -9.06167221069336 0.5406557321548462
21.024322509765625 -9.053369522094727 0.5431481003761292
21.127979278564453 -9.046076774597168 0.5453392267227173
21.215723037719727 -9.030470848083496 0.5471459031105042
21.304210662841797 -9.01555347442627 0.5503601431846619
21.415363311767578 -9.009108543395996 0.552703320980072
21.506656646728516 -8.99502944946289 0.5549593567848206
21.609844207763672 -8.985133171081543 0.5571320652961731
21.70703125 -8.971614837646484 0.5602061152458191
21.822067260742188 -8.965771675109863 0.5630497336387634
21.92197036743164 -8.953691482543945 0.5651402473449707
22.015289306640625 -8.937393188476562 0.5674920678138733
22.12653923034668 -8.92870044708252 0.5709184408187866
22.338016510009766 -8.904829025268555 0.5758099555969238
22.435518264770508 -8.889784812927246 0.5778388381004333
22.651451110839844 -8.865156173706055 0.5839443802833557
22.96923065185547 -8.823416709899902 0.5910704135894775
23.206754684448242 -8.80268383026123 0.5983951091766357
23.319671630859375 -8.790203094482422 0.600840151309967
23.416933059692383 -8.770211219787598 0.6028872132301331
23.533172607421875 -8.757669448852539 0.6058149337768555
23.643753051757812 -8.743002891540527 0.6093675494194031
23.876195907592773 -8.714832305908203 0.614818274974823
24.108156204223633 -8.684616088867188 0.6198448538780212
24.233444213867188 -8.672977447509766 0.6241500973701477
24.46275520324707 -8.63900089263916 0.629102885723114
24.60744857788086 -8.632707595825195 0.6327550411224365
24.715728759765625 -8.611441612243652 0.6350879669189453
24.824203491210938 -8.591508865356445 0.6390417814254761
25.0767822265625 -8.560837745666504 0.6445980072021484
25.218626022338867 -8.55086898803711 0.6478028297424316
25.48016929626465 -8.520076751708984 0.6540043354034424
25.58243179321289 -8.495287895202637 0.6573627591133118
25.862791061401367 -8.467625617980957 0.6641088128089905
25.99871253967285 -8.451143264770508 0.6671158671379089
26.121400833129883 -8.430663108825684 0.6723195910453796
26.248672485351562 -8.41163444519043 0.6763787865638733
26.40365982055664 -8.399618148803711 0.6798673868179321
26.542064666748047 -8.382561683654785 0.6834309697151184
26.653671264648438 -8.357020378112793 0.685901939868927
26.792619705200195 -8.338241577148438 0.6890204548835754
26.93960189819336 -8.322227478027344 0.6923303008079529
27.08578872680664 -8.304524421691895 0.6973434686660767
27.219268798828125 -8.28321361541748 0.7002903819084167
27.356590270996094 -8.263012886047363 0.7034446001052856
27.52094268798828 -8.249028205871582 0.707646369934082
27.662376403808594 -8.228409767150879 0.7108641862869263
27.79446029663086 -8.204954147338867 0.7138663530349731
27.938459396362305 -8.182621002197266 0.7184085845947266
28.094398498535156 -8.165027618408203 0.7224407196044922
28.242656707763672 -8.143223762512207 0.7258126139640808
28.39178466796875 -8.12194538116455 0.7292357087135315
28.556224822998047 -8.104914665222168 0.7334527969360352
28.70140838623047 -8.080411911010742 0.7367813587188721
28.85216522216797 -8.057767868041992 0.7402310371398926
29.013694763183594 -8.036612510681152 0.7452948093414307
29.163877487182617 -8.012577056884766 0.7492133378982544
29.333118438720703 -7.993644714355469 0.7531148195266724
29.468416213989258 -7.963440895080566 0.7561933994293213
29.645366668701172 -7.944768905639648 0.7643945813179016
29.804676055908203 -7.921207427978516 0.7680559158325195
29.957632064819336 -7.893898963928223 0.7715860605239868
30.13490104675293 -7.873247146606445 0.7761919498443604
30.29922103881836 -7.849045753479004 0.7799993753433228
30.47080421447754 -7.824070930480957 0.7839905023574829
30.63921356201172 -7.7995758056640625 0.789325475692749
30.97165870666504 -7.745464324951172 0.7975777983665466
31.15617561340332 -7.722945213317871 0.8018811941146851
31.327953338623047 -7.694527626037598 0.8058909773826599
31.518829345703125 -7.672090530395508 0.8103204965591431
31.698902130126953 -7.646279335021973 0.8150840997695923
31.875621795654297 -7.61688756942749 0.8191698789596558
32.05275344848633 -7.588936805725098 0.8248378038406372
32.241207122802734 -7.490303993225098 0.8299002051353455
32.38816833496094 -7.380823612213135 0.833463191986084
32.43613815307617 -7.320981025695801 0.8346844911575317
32.5047492980957 -7.264091491699219 0.8363884687423706
32.546695709228516 -7.202019214630127 0.8380770683288574
32.58888244628906 -7.140448093414307 0.8391881585121155
32.658424377441406 -7.083177089691162 0.8408953547477722
26.451892852783203 -5.621752738952637 0.7018601894378662
23.710676193237305 -4.986253261566162 0.6115210056304932
23.694515228271484 -4.93153190612793 0.6109058260917664
23.693714141845703 -4.878983020782471 0.6105774641036987
23.711254119873047 -4.830921649932861 0.6118285059928894
23.689571380615234 -4.775325298309326 0.6110689043998718
23.59931182861328 -4.704690933227539 0.6078723669052124
23.940317153930664 -4.721038818359375 0.6156162023544312
24.0441951751709 -4.6897077560424805 0.618208646774292
33.395111083984375 -6.367688179016113 0.8671017289161682
33.53658676147461 -6.322566986083984 0.8706048130989075
27.664295196533203 -5.094926834106445 0.7361370325088501
26.984281539916992 -4.9101128578186035 0.7207087278366089
23.396595001220703 -4.207149505615234 0.6019922494888306
23.828401565551758 -4.233767509460449 0.6165031790733337
23.88739585876465 -4.191629409790039 0.6175305247306824
23.51146697998047 -4.0753889083862305 0.604158878326416
23.689598083496094 -4.054554462432861 0.609935998916626
23.815444946289062 -4.024843215942383 0.613315761089325
23.811918258666992 -3.9734389781951904 0.6131181120872498
24.032297134399414 -3.9062576293945312 0.6186613440513611
24.049718856811523 -3.857879877090454 0.6184085011482239
24.028581619262695 -3.8018555641174316 0.6181315183639526
24.337779998779297 -3.7990245819091797 0.6288882493972778
24.44732666015625 -3.7626447677612305 0.631854236125946
23.801984786987305 -3.6127734184265137 0.6168720722198486
23.519853591918945 -3.41882586479187 0.6072027087211609
23.505067825317383 -3.3668830394744873 0.6066511869430542
23.501497268676758 -3.315152406692505 0.6063657402992249
23.50402069091797 -3.2657768726348877 0.6066197752952576
23.881669998168945 -3.2157914638519287 0.6150811314582825
23.921791076660156 -3.170665740966797 0.6162675619125366
25.149477005004883 -3.225670099258423 0.6483708620071411
25.292850494384766 -3.189573287963867 0.6517592072486877
26.470745086669922 -3.0000767707824707 0.6812622547149658
26.442941665649414 -2.941359519958496 0.6820240616798401
26.448307037353516 -2.8847711086273193 0.68197101354599
26.552576065063477 -2.8403995037078857 0.6842312216758728
26.834125518798828 -2.81420636177063 0.6911102533340454
30.66504669189453 -3.1497573852539062 0.8154218196868896
34.48764419555664 -3.3978090286254883 0.9035598039627075
34.45930480957031 -3.320704936981201 0.9026907682418823
34.46625518798828 -3.2492005825042725 0.902718186378479
34.48030090332031 -3.1776885986328125 0.902887225151062
34.46589279174805 -3.102782964706421 0.9023635387420654
34.464847564697266 -3.0306015014648438 0.9023218750953674
34.47162628173828 -2.957002878189087 0.9023045897483826
34.45086669921875 -2.883216381072998 0.9023418426513672
34.46153259277344 -2.812105894088745 0.9024208784103394
34.471229553222656 -2.738781213760376 0.9025400876998901
34.46200942993164 -2.666093349456787 0.9022419452667236
34.44829559326172 -2.5910146236419678 0.9018292427062988
34.457115173339844 -2.5197794437408447 0.901925802230835
34.46060562133789 -2.448150634765625 0.9019027948379517
34.45098876953125 -2.373511791229248 0.9015556573867798
34.43833923339844 -2.300845146179199 0.9011700749397278
34.4088020324707 -2.1533546447753906 0.9000638723373413
34.394248962402344 -2.080798864364624 0.9002444744110107
34.372093200683594 -2.005772352218628 0.8995523452758789
34.35548400878906 -1.933274745941162 0.8988865613937378
34.3383674621582 -1.860835075378418 0.8983787298202515
34.31349182128906 -1.7859785556793213 0.897742748260498
34.31552505493164 -1.7146878242492676 0.8976775407791138
34.30312728881836 -1.5692721605300903 0.8971220254898071
34.27692413330078 -1.4967999458312988 0.8964340686798096
34.26710510253906 -1.423035979270935 0.8961303234100342
34.27101516723633 -1.3519625663757324 0.8961107730865479
34.23971939086914 -1.279569149017334 0.8953342437744141
34.25395965576172 -1.2068305015563965 0.8956165313720703
34.23979187011719 -1.135193943977356 0.8952116966247559
34.2198486328125 -1.0613560676574707 0.8932256698608398
34.21379852294922 -0.9901041984558105 0.8930833339691162
34.1968879699707 -0.9185943603515625 0.8925410509109497
34.198909759521484 -0.8455433249473572 0.8925312161445618
34.17641067504883 -0.7740243673324585 0.8919759392738342
34.18231964111328 -0.7025363445281982 0.8920390605926514
34.206790924072266 -0.6305921077728271 0.8926146030426025
34.18009948730469 -0.5591481924057007 0.8919846415519714
