VERSION .7
FIELDS x y z
SIZE 4 4 4
TYPE F F F
COUNT 1 1 1
WIDTH 855
HEIGHT 1
VIEWPOINT 0 0 0 1 0 0 0
POINTS 855
DATA ascii
11.330052375793457 6.984438896179199 0.4070063829421997
11.27202033996582 6.981531143188477 0.4049871563911438
11.211048126220703 6.976405143737793 0.402517169713974
11.158305168151855 6.975748538970947 0.4007970690727234
11.099124908447266 6.971773147583008 0.3987477719783783
11.044706344604492 6.969594955444336 0.39651352167129517
10.993371963500977 6.96967887878418 0.3948576748371124
10.924943923950195 6.958523273468018 0.3920198082923889
10.873053550720215 6.95723295211792 0.3909006118774414
10.806212425231934 6.947043418884277 0.38903021812438965
10.76487922668457 6.952085494995117 0.38727787137031555
10.702885627746582 6.943565845489502 0.3847857713699341
10.65542221069336 6.945160865783691 0.3831682801246643
10.59587287902832 6.93772029876709 0.3812117874622345
10.5459566116333 6.936873435974121 0.37917056679725647
10.490188598632812 6.931814670562744 0.376920223236084
10.437272071838379 6.928008079528809 0.37553465366363525
10.376401901245117 6.919582366943359 0.37311363220214844
10.321008682250977 6.913628578186035 0.37087804079055786
10.281301498413086 6.917983055114746 0.3699662685394287
10.230895042419434 6.915862083435059 0.36792880296707153
10.183530807495117 6.91467809677124 0.3659887909889221
10.137535095214844 6.91422700881958 0.36485058069229126
10.080135345458984 6.906674385070801 0.3625684976577759
10.035250663757324 6.9065656661987305 0.3607245683670044
9.988834381103516 6.905726432800293 0.3588372468948364
9.938488960266113 6.901830673217773 0.3575488328933716
9.892009735107422 6.900024890899658 0.3556543290615082
9.842405319213867 6.896727085113525 0.35366562008857727
9.785175323486328 6.8869452476501465 0.3521219491958618
9.748228073120117 6.891236305236816 0.3505769968032837
9.680669784545898 6.874539375305176 0.34846875071525574
9.649857521057129 6.882826805114746 0.34714609384536743
9.600824356079102 6.878844261169434 0.34518927335739136
9.554659843444824 6.875819206237793 0.3436317443847656
9.503202438354492 6.868767738342285 0.3419853448867798
9.458759307861328 6.867454528808594 0.34019917249679565
9.412504196166992 6.86374568939209 0.3386402130126953
9.366926193237305 6.860329627990723 0.3372073471546173
9.321416854858398 6.857640743255615 0.3353874087333679
9.264993667602539 6.845808029174805 0.33316439390182495
9.2244291305542 6.845476150512695 0.33181580901145935
9.187568664550781 6.848605155944824 0.33071625232696533
9.147611618041992 6.848397254943848 0.3290899395942688
9.108549118041992 6.849564552307129 0.3275139331817627
9.047821044921875 6.83333683013916 0.32544317841529846
9.014972686767578 6.837954521179199 0.3244764804840088
8.96854019165039 6.832964897155762 0.32264140248298645
8.940011978149414 6.840597152709961 0.32143643498420715
8.879951477050781 6.823904037475586 0.31910139322280884
8.836586952209473 6.820654392242432 0.3176736831665039
8.807119369506836 6.827122211456299 0.3168322443962097
8.768922805786133 6.826690673828125 0.31528961658477783
8.716991424560547 6.816219329833984 0.31326913833618164
8.677611351013184 6.8144917488098145 0.31197589635849
8.631479263305664 6.807636260986328 0.309968501329422
8.599712371826172 6.8120646476745605 0.3090532422065735
8.558444023132324 6.808326244354248 0.30740851163864136
8.51561450958252 6.804009437561035 0.3057261109352112
8.484991073608398 6.808438301086426 0.3044707775115967
8.43950080871582 6.801138877868652 0.3029711842536926
8.399482727050781 6.798172950744629 0.30176493525505066
8.372536659240723 6.805168628692627 0.3006483316421509
8.322200775146484 6.793829917907715 0.298702210187912
8.280817985534668 6.788732051849365 0.29706770181655884
8.244221687316895 6.7873854637146 0.2962546646595001
8.203590393066406 6.783389568328857 0.2946704626083374
8.15507698059082 6.771818161010742 0.2927832007408142
8.125892639160156 6.776124000549316 0.29159116744995117
8.085299491882324 6.771608352661133 0.2902863025665283
8.05036449432373 6.770823001861572 0.2892613410949707
8.010211944580078 6.765841484069824 0.28768861293792725
7.97807502746582 6.767594337463379 0.28640609979629517
7.93535041809082 6.759718894958496 0.28474029898643494
7.896415710449219 6.755714416503906 0.28322285413742065
7.871696472167969 6.762908935546875 0.2828400731086731
7.8305559158325195 6.755858421325684 0.281233012676239
7.79859733581543 6.75739860534668 0.27997273206710815
7.75886344909668 6.751211166381836 0.27842095494270325
7.728262424468994 6.752815246582031 0.27674442529678345
7.689474105834961 6.7479448318481445 0.27560871839523315
7.655956268310547 6.746705055236816 0.27428102493286133
7.617690086364746 6.741119384765625 0.2727939188480377
7.58413028717041 6.740365028381348 0.27148744463920593
7.548830032348633 6.7370829582214355 0.27037012577056885
7.475602149963379 6.72850227355957 0.26788291335105896
7.440402984619141 6.724822044372559 0.26650702953338623
7.414161682128906 6.729936599731445 0.265472412109375
7.375309467315674 6.722639083862305 0.2639661133289337
7.301223278045654 6.711621284484863 0.26172134280204773
7.278931617736816 6.719052791595459 0.2608141303062439
7.209606170654297 6.711513519287109 0.25813767313957214
7.172116279602051 6.704449653625488 0.2566946744918823
7.1519775390625 6.7143096923828125 0.25588563084602356
7.103806495666504 6.69687557220459 0.25440549850463867
7.0811662673950195 6.703340530395508 0.25374722480773926
7.043721675872803 6.696483612060547 0.25232526659965515
7.020902633666992 6.702582359313965 0.25141221284866333
6.983715057373047 6.6948370933532715 0.24998772144317627
6.951993942260742 6.692984580993652 0.24877873063087463
6.918089866638184 6.68806266784668 0.2471325397491455
6.889892578125 6.688867568969727 0.24637344479560852
6.853821277618408 6.682000637054443 0.24500587582588196
6.828042030334473 6.684561729431152 0.2439974993467331
6.795264720916748 6.680493354797363 0.24274149537086487
6.767492771148682 6.681332588195801 0.2416730523109436
6.730979919433594 6.672924041748047 0.24028223752975464
6.69857931137085 6.669236183166504 0.23930585384368896
6.675453186035156 6.673852920532227 0.23872654139995575
6.6353302001953125 6.66132926940918 0.23721495270729065
6.605803489685059 6.66008186340332 0.2360929250717163
6.574773788452148 6.656368255615234 0.23490875959396362
6.552473068237305 6.661384582519531 0.23403188586235046
6.513504505157471 6.650124549865723 0.23257958889007568
6.488182544708252 6.651828765869141 0.23159770667552948
6.466279983520508 6.657303333282471 0.2307479828596115
6.435636043548584 6.6537885665893555 0.2301551103591919
6.407150745391846 6.6519060134887695 0.2290622591972351
6.368444442749023 6.639588356018066 0.2276182472705841
6.342010498046875 6.640019416809082 0.22661256790161133
6.31298828125 6.637154579162598 0.22550666332244873
6.292510986328125 6.643989562988281 0.22472354769706726
6.257963180541992 6.635036468505859 0.22342349588871002
6.236883163452148 6.6405863761901855 0.22261062264442444
6.199397563934326 6.628649711608887 0.2207459658384323
6.177738666534424 6.633028984069824 0.22014513611793518
6.144726753234863 6.625442981719971 0.21891291439533234
6.122559070587158 6.629544258117676 0.2180723249912262
6.093108654022217 6.625187397003174 0.21696379780769348
6.060636043548584 6.618198394775391 0.2160767912864685
6.035815238952637 6.618618488311768 0.21513265371322632
6.009188175201416 6.616948127746582 0.2141253650188446
5.981120586395264 6.614377021789551 0.21308429539203644
5.957100868225098 6.615357875823975 0.21217353641986847
5.927020072937012 6.609485149383545 0.211048424243927
5.905844688415527 6.614243984222412 0.2102518081665039
5.868555545806885 6.599999904632568 0.2088741660118103
5.846376419067383 6.602945327758789 0.20804104208946228
5.8270392417907715 6.609152793884277 0.20753681659698486
5.794551372528076 6.599863529205322 0.20633557438850403
5.768031120300293 6.597567081451416 0.20534566044807434
5.7437028884887695 6.597785472869873 0.20474696159362793
5.717355728149414 6.59510612487793 0.2037632018327713
5.661508560180664 6.586525917053223 0.20169955492019653
5.63887882232666 6.587804794311523 0.2008482664823532
5.608401298522949 6.58060359954834 0.19973617792129517
5.591022491455078 6.587855339050293 0.19907918572425842
5.554598331451416 6.572535037994385 0.19759170711040497
5.538622856140137 6.582101821899414 0.19699573516845703
5.514160633087158 6.580702304840088 0.19608822464942932
5.485718250274658 6.574425220489502 0.19503915309906006
5.465116500854492 6.578250885009766 0.19428226351737976
5.4351115226745605 6.569823741912842 0.19318032264709473
5.38173246383667 6.561367988586426 0.19122791290283203
5.360132217407227 6.562760353088379 0.19042494893074036
5.308148384094238 6.555269718170166 0.18852779269218445
5.285196304321289 6.554690361022949 0.18768319487571716
5.257493019104004 6.548914909362793 0.18668119609355927
5.239407539367676 6.554201126098633 0.18630218505859375
5.2145891189575195 6.550983428955078 0.18539214134216309
5.194336414337158 6.554225444793701 0.18465697765350342
5.1648406982421875 6.544862747192383 0.18358319997787476
5.1445136070251465 6.5473480224609375 0.18305793404579163
5.115468978881836 6.538739204406738 0.1817907989025116
5.096782207489014 6.542785167694092 0.18131819367408752
5.075446128845215 6.54418420791626 0.18055185675621033
5.0481767654418945 6.536990165710449 0.17955763638019562
5.023656368255615 6.533220291137695 0.1786642223596573
5.001740455627441 6.533555030822754 0.1778792142868042
4.979620933532715 6.532703399658203 0.1769317090511322
4.958910942077637 6.533611297607422 0.1764635443687439
4.936643600463867 6.533207893371582 0.1756676882505417
4.907476902008057 6.522705554962158 0.17461243271827698
4.888812065124512 6.526043891906738 0.17393222451210022
4.865889549255371 6.524443626403809 0.173115074634552
4.844963073730469 6.524594306945801 0.17235584557056427
4.817831039428711 6.516263961791992 0.17137625813484192
4.802084445953369 6.524075031280518 0.17081713676452637
4.777925491333008 6.519548416137695 0.16994468867778778
4.7540974617004395 6.515350341796875 0.16908520460128784
4.735450744628906 6.5189971923828125 0.16842499375343323
4.702657699584961 6.5021867752075195 0.16724815964698792
4.683143615722656 6.504422187805176 0.16655850410461426
4.663271903991699 6.5052490234375 0.16584312915802002
4.642385482788086 6.504577159881592 0.16509130597114563
4.616811752319336 6.498056411743164 0.164188951253891
4.595734596252441 6.496904373168945 0.16343268752098083
4.569941520690918 6.488961219787598 0.16250906884670258
4.557591438293457 6.500880241394043 0.1620786190032959
4.538293361663818 6.502017498016357 0.16138750314712524
4.514443874359131 6.4965314865112305 0.16053584218025208
4.490495204925537 6.491617202758789 0.15969480574131012
4.460923671722412 6.47755765914917 0.15864089131355286
4.444809913635254 6.482917308807373 0.15820716321468353
4.425208568572998 6.48398494720459 0.15752187371253967
4.4023942947387695 6.47939395904541 0.15670998394489288
4.382975101470947 6.48018741607666 0.1560266613960266
4.365447044372559 6.483588218688965 0.15541106462478638
4.34494686126709 6.4821367263793945 0.15468260645866394
4.3128204345703125 6.463655471801758 0.15354882180690765
4.303854465484619 6.479667663574219 0.1532396674156189
4.279807090759277 6.472567081451416 0.15211695432662964
4.264373302459717 6.479269504547119 0.15158599615097046
4.240741729736328 6.472572326660156 0.15075010061264038
4.220338821411133 6.470684051513672 0.1500302255153656
4.1941046714782715 6.4605817794799805 0.14911773800849915
4.182931900024414 6.472742080688477 0.14872698485851288
4.141402721405029 6.468071937561035 0.14728042483329773
4.1098527908325195 6.448225498199463 0.14616654813289642
4.082720756530762 6.465572357177734 0.1452345848083496
4.059613227844238 6.458627700805664 0.14442355930805206
4.033121109008789 6.447007656097412 0.14350634813308716
4.011178970336914 6.441625595092773 0.1427372545003891
3.989431858062744 6.436429023742676 0.14197656512260437
3.9792120456695557 6.450673580169678 0.14164048433303833
3.9622955322265625 6.453183174133301 0.14138446748256683
3.9353647232055664 6.439250946044922 0.14044108986854553
3.91748046875 6.44087028503418 0.13983218371868134
3.9003872871398926 6.442843437194824 0.13923904299736023
3.8826136589050293 6.443629741668701 0.13862265646457672
3.8637194633483887 6.4433698654174805 0.1379806399345398
3.837393283843994 6.42968225479126 0.13705694675445557
3.7976083755493164 6.424347877502441 0.13569074869155884
3.7825417518615723 6.429279327392578 0.13491417467594147
3.7452969551086426 6.427758693695068 0.13364067673683167
3.7234601974487305 6.420876502990723 0.13268956542015076
7.081512928009033 -12.064533233642578 0.21285730600357056
7.1808271408081055 -12.05942440032959 0.21649444103240967
7.278393745422363 -12.05029582977295 0.2202194333076477
7.380599021911621 -12.047710418701172 0.2244667112827301
7.480095863342285 -12.038850784301758 0.2277727723121643
7.5817413330078125 -12.033029556274414 0.23203299939632416
7.612009048461914 -12.025662422180176 0.23306387662887573
7.681713104248047 -12.023435592651367 0.23575809597969055
7.711023330688477 -12.014286041259766 0.23726427555084229
7.747747421264648 -12.015649795532227 0.2384864091873169
7.784634590148926 -12.017341613769531 0.23971810936927795
7.8086442947387695 -11.999757766723633 0.2405652403831482
7.847514629364014 -12.004002571105957 0.24172621965408325
7.883169651031494 -12.003400802612305 0.2410600483417511
7.910195827484131 -11.99024772644043 0.24200204014778137
7.951443195343018 -11.997613906860352 0.24374106526374817
7.979758262634277 -11.985573768615723 0.24471548199653625
8.018529891967773 -11.98979663848877 0.24652805924415588
8.084117889404297 -11.978389739990234 0.24875593185424805
8.128597259521484 -11.990559577941895 0.2502428889274597
8.19865894317627 -11.98492431640625 0.25350329279899597
8.226587295532227 -11.972360610961914 0.25448498129844666
8.304080963134766 -11.976759910583496 0.2570992112159729
8.332221031188965 -11.963350296020508 0.2584570050239563
8.412801742553711 -11.972124099731445 0.2617034316062927
8.445161819458008 -11.964422225952148 0.26281818747520447
8.51803970336914 -11.961324691772461 0.2657034397125244
8.548964500427246 -11.951292991638184 0.267293781042099
8.662612915039062 -11.950681686401367 0.2711963653564453
9.911325454711914 -11.852697372436523 0.3158417344093323
9.948543548583984 -11.846536636352539 0.31717753410339355
10.03207015991211 -11.844974517822266 0.3206981420516968
10.06561279296875 -11.834070205688477 0.321923166513443
10.138715744018555 -11.819417953491211 0.324983686208725
10.176216125488281 -11.812820434570312 0.3263402283191681
10.266931533813477 -11.817733764648438 0.33012109994888306
10.298863410949707 -11.804299354553223 0.3313055634498596
10.346487045288086 -11.808488845825195 0.3334030508995056
10.390745162963867 -11.809469223022461 0.3349980413913727
10.427116394042969 -11.800718307495117 0.33633363246917725
10.47060489654541 -11.79965591430664 0.33844897150993347
10.507306098937988 -11.791021347045898 0.33979976177215576
10.555503845214844 -11.795732498168945 0.3398634195327759
10.59469223022461 -11.789365768432617 0.3406136929988861
10.639010429382324 -11.788763999938965 0.34221234917640686
10.682907104492188 -11.788129806518555 0.34380674362182617
10.759502410888672 -11.772624969482422 0.3470340371131897
10.802604675292969 -11.769815444946289 0.3486005365848541
10.892711639404297 -11.768945693969727 0.3524405360221863
10.937739372253418 -11.767682075500488 0.3540762960910797
11.026309967041016 -11.764067649841309 0.3573209047317505
11.07489013671875 -11.766033172607422 0.3594922423362732
11.190974235534668 -11.740591049194336 0.3643966615200043
11.32486343383789 -11.732479095458984 0.3693338930606842
11.457804679870605 -11.72182846069336 0.3752627968788147
12.41872787475586 -11.632513046264648 0.4103378653526306
12.563520431518555 -11.620725631713867 0.4162823557853699
12.711515426635742 -11.610187530517578 0.41888946294784546
12.757648468017578 -11.603251457214355 0.41976386308670044
12.801631927490234 -11.593985557556152 0.4214591383934021
12.854204177856445 -11.593134880065918 0.42390334606170654
12.899526596069336 -11.584953308105469 0.42565345764160156
12.95488452911377 -11.58537483215332 0.42773473262786865
12.999617576599121 -11.57691764831543 0.4294799864292145
13.051168441772461 -11.573748588562012 0.4314444959163666
13.112480163574219 -11.578779220581055 0.43373072147369385
13.153596878051758 -11.566596984863281 0.4359804689884186
13.200719833374023 -11.558120727539062 0.43779459595680237
13.249135971069336 -11.55202865600586 0.4396781623363495
13.309191703796387 -11.555257797241211 0.4419413208961487
13.34814739227295 -11.53976821899414 0.4435022175312042
13.405965805053711 -11.541228294372559 0.4457063674926758
13.454554557800293 -11.53392505645752 0.44759881496429443
13.511774063110352 -11.53359603881836 0.4497760534286499
13.564029693603516 -11.529631614685059 0.4522671699523926
13.61783218383789 -11.526164054870605 0.45434173941612244
13.660626411437988 -11.512992858886719 0.4560489058494568
13.721818923950195 -11.515951156616211 0.458388090133667
13.782302856445312 -11.51744270324707 0.46069568395614624
13.833541870117188 -11.510769844055176 0.4633259177207947
13.87960433959961 -11.500436782836914 0.4651692509651184
13.926007270812988 -11.488800048828125 0.4620978832244873
13.982246398925781 -11.486515998840332 0.46427619457244873
14.087677001953125 -11.474102020263672 0.468388170003891
14.149277687072754 -11.47551441192627 0.4707568287849426
14.302339553833008 -11.4513521194458 0.4768006205558777
15.147527694702148 -11.364189147949219 0.5101478695869446
15.269155502319336 -11.355254173278809 0.5086211562156677
15.332155227661133 -11.352767944335938 0.5110971927642822
15.438145637512207 -11.33089828491211 0.515373706817627
15.50355339050293 -11.329477310180664 0.5179461240768433
15.627555847167969 -11.319442749023438 0.5228468775749207
15.693483352661133 -11.317615509033203 0.5254502296447754
15.742600440979004 -11.302616119384766 0.5274747610092163
15.804403305053711 -11.29673957824707 0.529935896396637
15.865358352661133 -11.290637016296387 0.532381534576416
15.925905227661133 -11.282552719116211 0.5347957611083984
15.991327285766602 -11.279132843017578 0.5374012589454651
16.057933807373047 -11.275442123413086 0.5400367975234985
16.113086700439453 -11.263694763183594 0.5422950983047485
16.194581985473633 -11.270706176757812 0.5454531311988831
16.23654556274414 -11.248502731323242 0.5472657084465027
16.30648422241211 -11.24694538116455 0.5500454306602478
16.375560760498047 -11.244513511657715 0.5527986288070679
16.435001373291016 -11.23374080657959 0.5552124977111816
16.508731842041016 -11.2339448928833 0.558131217956543
16.565086364746094 -11.222070693969727 0.560468852519989
16.634071350097656 -11.217037200927734 0.5632145404815674
16.686630249023438 -11.202176094055176 0.565437376499176
16.755367279052734 -11.197097778320312 0.560442328453064
16.824100494384766 -11.191967010498047 0.5631848573684692
16.887269973754883 -11.18350601196289 0.5657596588134766
17.02250862121582 -11.170223236083984 0.5704768896102905
17.085329055786133 -11.16079330444336 0.5730524659156799
17.22540283203125 -11.149078369140625 0.5786808729171753
17.283281326293945 -11.134857177734375 0.5810878872871399
17.425310134887695 -11.123656272888184 0.5868237018585205
17.487274169921875 -11.11134147644043 0.5893843173980713
17.637004852294922 -11.10249137878418 0.5948517322540283
17.8426513671875 -11.07594108581543 0.6025383472442627
18.053743362426758 -11.050355911254883 0.6111927032470703
18.27891731262207 -11.030172348022461 0.620362401008606
18.416305541992188 -11.008193969726562 0.6172553300857544
18.490413665771484 -10.999825477600098 0.6202800273895264
18.644865036010742 -10.98631477355957 0.6265548467636108
18.705289840698242 -10.969036102294922 0.6291408538818359
18.86969566345215 -10.958911895751953 0.6344414353370667
18.945770263671875 -10.950578689575195 0.637574315071106
19.02111053466797 -10.940641403198242 0.640669584274292
19.097675323486328 -10.931343078613281 0.6438170075416565
19.18501853942871 -10.928543090820312 0.6473419666290283
19.24738883972168 -10.910337448120117 0.6500159502029419
19.32485580444336 -10.90066146850586 0.6524425148963928
19.492401123046875 -10.887880325317383 0.6586952209472656
19.56582260131836 -10.875017166137695 0.6617740392684937
19.643497467041016 -10.863994598388672 0.6649945974349976
19.720840454101562 -10.852721214294434 0.6682205200195312
19.808666229248047 -10.847558975219727 0.6710096597671509
19.88483238220215 -10.834785461425781 0.6742023229598999
19.974613189697266 -10.829337120056152 0.67726731300354
20.047283172607422 -10.814057350158691 0.6803467869758606
20.14095687866211 -10.810015678405762 0.684151291847229
20.308574676513672 -10.790738105773926 0.6826851963996887
20.390056610107422 -10.779155731201172 0.6860686540603638
20.47089958190918 -10.767599105834961 0.6886352300643921
20.55511474609375 -10.75657844543457 0.6915206909179688
20.651588439941406 -10.751850128173828 0.6954231858253479
20.721389770507812 -10.732669830322266 0.698433518409729
20.909866333007812 -10.719778060913086 0.7053205370903015
20.99630355834961 -10.708196640014648 0.7082982063293457
21.16213607788086 -10.680707931518555 0.7152699828147888
21.26013946533203 -10.674871444702148 0.7184465527534485
21.432464599609375 -10.6486177444458 0.7250469923019409
21.535133361816406 -10.643964767456055 0.7292487621307373
21.710426330566406 -10.617072105407715 0.7357581853866577
22.17731475830078 -10.558361053466797 0.7537868618965149
22.277935028076172 -10.548903465270996 0.7573211193084717
22.469135284423828 -10.5245361328125 0.7579922080039978
22.564002990722656 -10.511218070983887 0.761325478553772
22.759370803833008 -10.486520767211914 0.7686086297035217
22.86028289794922 -10.474843978881836 0.7721529006958008
22.961925506591797 -10.46284294128418 0.77637779712677
23.05589485168457 -10.447216033935547 0.7794733047485352
23.15738868713379 -10.435338020324707 0.783724308013916
23.258743286132812 -10.422016143798828 0.7873018980026245
23.369632720947266 -10.412798881530762 0.7909791469573975
23.476219177246094 -10.400968551635742 0.7954051494598389
23.5762939453125 -10.386829376220703 0.7996410131454468
23.683578491210938 -10.37472915649414 0.8025386929512024
23.790613174438477 -10.361833572387695 0.8070082664489746
23.893863677978516 -10.347129821777344 0.8113619685173035
24.002470016479492 -10.335064888000488 0.8152387142181396
24.108928680419922 -10.320648193359375 0.8187922239303589
24.213510513305664 -10.30527400970459 0.8232156038284302
24.323368072509766 -10.29145622253418 0.8271387219429016
24.429264068603516 -10.276543617248535 0.8307000398635864
24.53528594970703 -10.260520935058594 0.8351965546607971
24.647268295288086 -10.246295928955078 0.8392091989517212
24.765972137451172 -10.23466682434082 0.8432132005691528
24.87238883972168 -10.218267440795898 0.8477497696876526
24.99042510986328 -10.20517349243164 0.8468328714370728
25.0979061126709 -10.187591552734375 0.8514053225517273
25.229387283325195 -10.179000854492188 0.8568017482757568
25.567916870117188 -10.129151344299316 0.869477391242981
25.796884536743164 -10.094377517700195 0.8775019645690918
25.926321029663086 -10.083036422729492 0.8828876614570618
26.16153335571289 -10.047877311706543 0.8911638259887695
26.269023895263672 -10.026655197143555 0.8941146731376648
26.526531219482422 -9.997159957885742 0.9049023389816284
26.779605865478516 -9.963940620422363 0.9138401746749878
26.892528533935547 -9.942472457885742 0.9177331924438477
27.145416259765625 -9.90622329711914 0.9277141094207764
27.280885696411133 -9.890755653381348 0.9316273927688599
27.670257568359375 -9.835550308227539 0.9463847875595093
27.794143676757812 -9.813570022583008 0.9517111778259277
27.93258285522461 -9.797306060791016 0.9539952874183655
28.068796157836914 -9.778900146484375 0.9587146043777466
28.192106246948242 -9.755193710327148 0.9632701277732849
28.332780838012695 -9.737260818481445 0.9681531190872192
28.473388671875 -9.718448638916016 0.9733120203018188
28.60297393798828 -9.696454048156738 0.9778357148170471
28.749794006347656 -9.678924560546875 0.9832233190536499
28.89096450805664 -9.658618927001953 0.989213228225708
29.026485443115234 -9.637005805969238 0.9939597845077515
29.165971755981445 -9.615326881408691 0.9991223812103271
29.313095092773438 -9.595293045043945 1.004266619682312
29.44949722290039 -9.571483612060547 1.0093365907669067
29.602947235107422 -9.55233383178711 1.0147086381912231
29.735122680664062 -9.526899337768555 1.0196585655212402
29.881301879882812 -9.50455093383789 1.0247983932495117
30.03420639038086 -9.483439445495605 1.0304598808288574
30.187496185302734 -9.462136268615723 1.0358555316925049
30.332609176635742 -9.438535690307617 1.0412776470184326
30.486557006835938 -9.41592025756836 1.047827124595642
30.637643814086914 -9.392114639282227 1.0523399114608765
30.793498992919922 -9.36884880065918 1.0589780807495117
30.940929412841797 -9.343595504760742 1.0642181634902954
31.09414291381836 -9.318618774414062 1.069953203201294
31.25846290588379 -9.2960205078125 1.0757763385772705
31.579383850097656 -9.246882438659668 1.0883901119232178
31.740203857421875 -9.222502708435059 1.093270182609558
32.056148529052734 -9.168081283569336 1.1048506498336792
32.21062469482422 -9.139994621276855 1.1106948852539062
32.53424072265625 -9.08395004272461 1.1225872039794922
32.87619400024414 -9.030352592468262 1.1351494789123535
33.059814453125 -9.007049560546875 1.1417317390441895
19.45196533203125 -5.167948246002197 0.6725733876228333
19.435710906982422 -5.076636791229248 0.6717914342880249
19.41242218017578 -5.027007102966309 0.6713260412216187
19.482622146606445 -5.001338958740234 0.6739128232002258
19.593887329101562 -4.986583709716797 0.6781165599822998
19.656326293945312 -4.958521366119385 0.6804347038269043
19.654653549194336 -4.914007186889648 0.6807287931442261
19.681411743164062 -4.876781463623047 0.6818259954452515
86.21068572998047 -20.97922134399414 2.9793128967285156
35.74535369873047 -8.539278984069824 1.2422670125961304
35.92308044433594 -8.502973556518555 1.2478235960006714
36.13119888305664 -8.47210693359375 1.2567039728164673
36.34083557128906 -8.440394401550293 1.2633728981018066
36.52328872680664 -8.401930809020996 1.2690997123718262
36.730411529541016 -8.368003845214844 1.2779812812805176
36.93103790283203 -8.333131790161133 1.2843583822250366
37.14315414428711 -8.299016952514648 1.2924656867980957
37.33382797241211 -8.258939743041992 1.2994821071624756
37.54911804199219 -8.223847389221191 1.3063697814941406
37.75741958618164 -8.186004638671875 1.3153748512268066
37.945152282714844 -8.144298553466797 1.3213261365890503
38.18009948730469 -8.110847473144531 1.3289098739624023
38.378265380859375 -8.068338394165039 1.3376100063323975
38.59617233276367 -8.030550956726074 1.3446210622787476
38.8148078918457 -7.989573001861572 1.3530333042144775
39.03236770629883 -7.949959754943848 1.3610706329345703
39.47997283935547 -7.868107795715332 1.3769288063049316
39.70157241821289 -7.82664680480957 1.3851377964019775
40.16204833984375 -7.741856575012207 1.4014935493469238
40.394569396972656 -7.699770927429199 1.4101097583770752
40.633705139160156 -7.655433177947998 1.4229366779327393
40.8714599609375 -7.612434387207031 1.43217134475708
41.34400939941406 -7.520430088043213 1.4476096630096436
41.594093322753906 -7.476781845092773 1.4584009647369385
42.071754455566406 -7.379873752593994 1.4740464687347412
42.583099365234375 -7.284852981567383 1.4935091733932495
42.834190368652344 -7.236347675323486 1.5017883777618408
43.095741271972656 -7.185878276824951 1.5104211568832397
43.34486389160156 -7.135000228881836 1.5213098526000977
43.610816955566406 -7.084697246551514 1.53011953830719
43.857295989990234 -7.029775142669678 1.5382448434829712
44.12483596801758 -6.978768825531006 1.5482733249664307
44.391231536865234 -6.925331115722656 1.5586891174316406
44.91901397705078 -6.815207481384277 1.5762054920196533
45.21343994140625 -6.761100769042969 1.5888192653656006
45.48124694824219 -6.704684257507324 1.5977391004562378
45.75436019897461 -6.64675235748291 1.6068332195281982
46.03071594238281 -6.587738990783691 1.6160547733306885
46.308753967285156 -6.529492378234863 1.6281918287277222
46.59484100341797 -6.470012664794922 1.6377696990966797
46.88279724121094 -6.409180641174316 1.6527578830718994
47.174583435058594 -6.348128318786621 1.6638062000274658
47.462677001953125 -6.28494930267334 1.6734930276870728
47.75653076171875 -6.22304630279541 1.6833953857421875
48.0545654296875 -6.157512664794922 1.693432331085205
48.359130859375 -6.0945634841918945 1.7054314613342285
48.654998779296875 -6.029305458068848 1.7154191732406616
48.95537567138672 -5.960370063781738 1.7268345355987549
49.272274017333984 -5.8952131271362305 1.737579345703125
49.564186096191406 -5.824534893035889 1.7474374771118164
49.89201736450195 -5.756343841552734 1.7603315114974976
50.19099426269531 -5.685321807861328 1.7704570293426514
50.519775390625 -5.613284111022949 1.782948613166809
50.83916091918945 -5.541991710662842 1.793811559677124
51.167579650878906 -5.470372200012207 1.8049949407577515
51.48596954345703 -5.393194198608398 1.8158185482025146
51.81644058227539 -5.319125175476074 1.8289129734039307
52.49895477294922 -5.165857315063477 1.853588342666626
52.82939147949219 -5.087701797485352 1.864876627922058
53.173484802246094 -5.006218910217285 1.876643180847168
53.532501220703125 -4.927966117858887 1.888948917388916
54.24723434448242 -4.763455390930176 1.915360927581787
54.627906799316406 -4.68266487121582 1.9350510835647583
54.99459457397461 -4.595774173736572 1.9476876258850098
55.34529113769531 -4.509446620941162 1.9597723484039307
55.719810485839844 -4.423583984375 1.9727046489715576
56.103515625 -4.333461761474609 1.985957145690918
56.47763442993164 -4.244475841522217 1.9988842010498047
56.873207092285156 -4.152042865753174 2.012566089630127
57.23454284667969 -4.05903434753418 2.027069091796875
57.62059020996094 -3.966254949569702 2.0404458045959473
58.02608108520508 -3.869640350341797 2.0545082092285156
58.42015838623047 -3.774165153503418 2.0681796073913574
58.83281707763672 -3.67824125289917 2.084040880203247
59.230979919433594 -3.576125383377075 2.097869396209717
59.64137268066406 -3.4767003059387207 2.112145185470581
60.06603240966797 -3.372720241546631 2.1269240379333496
60.92873001098633 -3.1638145446777344 2.1569809913635254
61.332481384277344 -3.057173728942871 2.1710453033447266
61.778404235839844 -2.950892925262451 2.1866087913513184
62.236358642578125 -2.839526414871216 2.2025976181030273
62.679481506347656 -2.729412794113159 2.2202847003936768
63.1475944519043 -2.6185169219970703 2.2366695404052734
63.59803009033203 -2.501112937927246 2.252429246902466
64.05879974365234 -2.3861045837402344 2.2685675621032715
64.50338745117188 -2.2646899223327637 2.285675525665283
64.96978759765625 -2.1460835933685303 2.3020424842834473
65.87850189208984 -1.8983924388885498 2.3339388370513916
66.35253143310547 -1.7742514610290527 2.350595474243164
66.81765747070312 -1.6479374170303345 2.366948127746582
67.27909851074219 -1.5155143737792969 2.3831748962402344
67.761474609375 -1.3856968879699707 2.4001517295837402
68.26190948486328 -1.250052571296692 2.417776107788086
68.74170684814453 -1.116143822669983 2.437103271484375
69.7715835571289 -0.838968813419342 2.4734621047973633
70.30077362060547 -0.699426531791687 2.492166042327881
70.81380462646484 -0.5532441139221191 2.5103089809417725
70.80804443359375 -0.4062517285346985 2.5101466178894043
70.52269744873047 -0.25826296210289 2.500087261199951
69.7396240234375 -0.1064143031835556 2.4722633361816406
72.98920440673828 0.035639259964227676 3.1826629638671875
73.53050231933594 0.19298210740089417 3.20628023147583
74.08699035644531 0.34818971157073975 3.2305755615234375
74.62543487548828 0.5101428031921387 3.2540931701660156
75.152099609375 0.6697080731391907 3.277111053466797
75.73397827148438 0.8320717811584473 3.302546262741089
76.34628295898438 1.0019161701202393 3.329331398010254
76.95184326171875 1.169585108757019 3.355837821960449
80.43177795410156 2.237077236175537 3.506462574005127
80.9916763305664 2.422959089279175 3.5310912132263184
81.57261657714844 2.6097795963287354 3.5566420555114746
82.17835998535156 2.804903030395508 3.5833067893981934
82.78317260742188 2.9975509643554688 3.6099421977996826
83.42610168457031 3.1941964626312256 3.638258218765259
84.0660400390625 3.3985607624053955 3.666472911834717
84.65426635742188 3.5983176231384277 3.6924545764923096
84.4292984008789 3.769458293914795 3.6808743476867676
83.61685180664062 3.907068967819214 3.6459097862243652
81.01864624023438 4.127683639526367 3.5306999683380127
79.84100341796875 4.233819484710693 3.4796462059020996
78.85630798339844 4.348474502563477 3.4370970726013184
78.0047607421875 4.4659576416015625 3.3983609676361084
76.99742126464844 4.568612575531006 3.354825973510742
76.33627319335938 4.693051338195801 3.3264384269714355
75.36949157714844 4.790632724761963 3.2847344875335693
74.64642333984375 4.902833461761475 3.2536725997924805
74.03694915771484 5.019079208374023 3.2275407314300537
73.29869079589844 5.121861934661865 3.195830821990967
72.77755737304688 5.24169921875 3.1735992431640625
72.09342193603516 5.342832565307617 3.1442227363586426
71.51608276367188 5.449293613433838 3.1170692443847656
71.00975036621094 5.56331205368042 3.095491886138916
70.50785064697266 5.671229839324951 3.074122667312622
69.41410827636719 5.8775811195373535 3.0256705284118652
68.83621215820312 5.972546577453613 3.0010228157043457
68.37739562988281 6.079934120178223 2.981560707092285
67.89044189453125 6.178661823272705 2.960860252380371
67.50502014160156 6.284858703613281 2.9446468353271484
67.16917419433594 6.398351669311523 2.9228992462158203
66.7730712890625 6.500472068786621 2.9062817096710205
66.06228637695312 6.712245941162109 2.8765110969543457
65.68476867675781 6.811634063720703 2.8589839935302734
65.30328369140625 6.913107395172119 2.8430182933807373
64.98518371582031 7.01583194732666 2.829789876937866
64.65603637695312 7.120059013366699 2.81386399269104
64.29113006591797 7.214941024780273 2.7986340522766113
64.01997375488281 7.319068908691406 2.78747296333313
63.62823486328125 7.412018775939941 2.7711215019226074
63.318931579589844 7.50920295715332 2.756643295288086
62.99400329589844 7.603264808654785 2.743180751800537
62.70590591430664 7.704432487487793 2.731330394744873
62.33856964111328 7.790651321411133 2.7138705253601074
62.062889099121094 7.890886306762695 2.7025957107543945
61.65511703491211 7.969089031219482 2.685542106628418
61.356746673583984 8.060013771057129 2.673272132873535
60.994651794433594 8.14503288269043 2.6566216945648193
60.65867614746094 8.228325843811035 2.642732620239258
60.40812301635742 8.322040557861328 2.632582664489746
60.07324981689453 8.406710624694824 2.6166341304779053
59.789947509765625 8.493608474731445 2.6050710678100586
59.477291107177734 8.578853607177734 2.5922231674194336
59.1632080078125 8.658918380737305 2.5714993476867676
58.92759323120117 8.749378204345703 2.5620594024658203
58.678321838378906 8.840522766113281 2.5520384311676025
58.39512634277344 8.921826362609863 2.5404927730560303
58.13322448730469 9.008939743041992 2.5299596786499023
57.85369110107422 9.088600158691406 2.515030860900879
57.545387268066406 9.162571907043457 2.502448081970215
57.27867126464844 9.245609283447266 2.491713762283325
57.05847930908203 9.331602096557617 2.482977867126465
56.79154968261719 9.408992767333984 2.4721951484680176
56.52032470703125 9.488155364990234 2.457768440246582
56.27809524536133 9.567614555358887 2.4480912685394287
56.015926361083984 9.646209716796875 2.4375863075256348
55.83860397338867 9.735029220581055 2.4307003021240234
55.581459045410156 9.809089660644531 2.4204797744750977
55.13587951660156 9.851950645446777 2.3985958099365234
54.539772033691406 9.862273216247559 2.3736062049865723
53.86333465576172 9.855428695678711 2.3450675010681152
53.23503875732422 9.85804557800293 2.318650722503662
52.5888671875 9.851306915283203 2.2899653911590576
51.93852233886719 9.844371795654297 2.2607102394104004
51.30956268310547 9.835506439208984 2.2342090606689453
50.67903137207031 9.825532913208008 2.2076656818389893
50.082183837890625 9.819074630737305 2.1812074184417725
49.436981201171875 9.799154281616211 2.15090274810791
48.78926467895508 9.779134750366211 2.1236367225646973
48.13751983642578 9.752452850341797 2.0961501598358154
47.55320358276367 9.736848831176758 2.0702879428863525
46.92275619506836 9.712246894836426 2.0420751571655273
46.38420867919922 9.701199531555176 2.0195043087005615
45.76448059082031 9.670751571655273 1.9933834075927734
45.178958892822266 9.647890090942383 1.9675590991973877
44.654258728027344 9.632776260375977 1.943984031677246
44.1976432800293 9.63313102722168 1.9249945878982544
43.647438049316406 9.608134269714355 1.9019017219543457
43.09479522705078 9.58028793334961 1.8775018453598022
42.607505798339844 9.567522048950195 1.8556437492370605
42.101585388183594 9.545734405517578 1.8344793319702148
41.59733581542969 9.523723602294922 1.8122360706329346
41.163475036621094 9.515480041503906 1.7942099571228027
40.679527282714844 9.492581367492676 1.772514820098877
40.205318450927734 9.4725341796875 1.7527413368225098
39.74528121948242 9.451247215270996 1.7324495315551758
39.28739547729492 9.431082725524902 1.7133597135543823
38.85088348388672 9.41160774230957 1.6937763690948486
38.416343688964844 9.390783309936523 1.6746395826339722
37.992637634277344 9.373266220092773 1.6570408344268799
37.574371337890625 9.352836608886719 1.640973448753357
37.16133117675781 9.331961631774902 1.6207432746887207
36.75342559814453 9.313037872314453 1.6038038730621338
36.360294342041016 9.293763160705566 1.5861859321594238
35.58356857299805 9.25505256652832 1.5530195236206055
35.21473693847656 9.237184524536133 1.5377552509307861
34.84947204589844 9.220985412597656 1.5204589366912842
34.49463653564453 9.203734397888184 1.5058002471923828
34.1366081237793 9.184133529663086 1.4910005331039429
33.79745101928711 9.170356750488281 1.474905252456665
33.439788818359375 9.147855758666992 1.4601097106933594
32.77438735961914 9.114354133605957 1.4306488037109375
32.4441032409668 9.095081329345703 1.4170379638671875
32.08811569213867 9.069265365600586 1.4023284912109375
31.76994514465332 9.050577163696289 1.387224793434143
31.450668334960938 9.032304763793945 1.3741238117218018
31.135719299316406 9.011837005615234 1.3611831665039062
30.82765769958496 8.992048263549805 1.3465583324432373
30.550148010253906 8.98196029663086 1.3352735042572021
30.224262237548828 8.95433235168457 1.3218393325805664
29.951610565185547 8.941208839416504 1.3088130950927734
29.65871238708496 8.922820091247559 1.2968497276306152
29.3756103515625 8.904168128967285 1.2884676456451416
29.097015380859375 8.886795043945312 1.273593544960022
28.83968734741211 8.874507904052734 1.2623438835144043
28.575023651123047 8.85802173614502 1.2515673637390137
28.313249588012695 8.84321403503418 1.2398940324783325
28.070762634277344 8.831453323364258 1.2292943000793457
27.790592193603516 8.80672836303711 1.2178269624710083
27.552427291870117 8.79606819152832 1.2072067260742188
27.326133728027344 8.786352157592773 1.197326421737671
27.073028564453125 8.768037796020508 1.1860536336898804
26.847259521484375 8.75730037689209 1.1769659519195557
26.60346221923828 8.738900184631348 1.166330337524414
26.37987518310547 8.72793197631836 1.1563785076141357
26.134082794189453 8.70682144165039 1.1456642150878906
25.915189743041992 8.694684028625488 1.1368705034255981
25.692707061767578 8.680156707763672 1.1269621849060059
25.46687889099121 8.6627836227417 1.1171332597732544
25.237224578857422 8.644858360290527 1.1069393157958984
25.026458740234375 8.630732536315918 1.0977771282196045
24.802589416503906 8.611161231994629 1.0887410640716553
24.60087013244629 8.600058555603027 1.0797820091247559
24.38115882873535 8.580070495605469 1.0702409744262695
24.190576553344727 8.56946086883545 1.0617626905441284
23.991727828979492 8.556745529174805 1.0531600713729858
23.795486450195312 8.542457580566406 1.0479531288146973
23.594663619995117 8.527308464050293 1.0385853052139282
23.40579605102539 8.514006614685059 1.031046748161316
23.22101402282715 8.501396179199219 1.0221699476242065
23.02800750732422 8.486565589904785 1.0144697427749634
22.831941604614258 8.46816635131836 1.0051159858703613
22.48278045654297 8.44654369354248 0.9904665350914001
22.313764572143555 8.435928344726562 0.9831608533859253
22.132612228393555 8.421524047851562 0.9759689569473267
21.976116180419922 8.414226531982422 0.9683965444564819
21.628435134887695 8.385714530944824 0.9532061815261841
21.47718048095703 8.378379821777344 0.9473034739494324
21.305438995361328 8.363866806030273 0.9391148686408997
21.14849853515625 8.352949142456055 0.9329593777656555
20.98801612854004 8.339954376220703 0.9252602458000183
20.82437515258789 8.326482772827148 0.9188286066055298
20.679426193237305 8.318342208862305 0.9131921529769897
20.52761459350586 8.306807518005371 0.9058941006660461
20.37282943725586 8.294862747192383 0.8998427391052246
20.216957092285156 8.280349731445312 0.892379641532898
20.081361770629883 8.274951934814453 0.8871726989746094
19.927719116210938 8.260058403015137 0.8798220157623291
19.784801483154297 8.248970985412598 0.8772445321083069
19.642364501953125 8.238883018493652 0.8711469769477844
19.49475860595703 8.22458553314209 0.8640598654747009
19.367794036865234 8.218408584594727 0.85918790102005
19.234725952148438 8.210474014282227 0.8540608882904053
19.096046447753906 8.198169708251953 0.8473865985870361
18.959197998046875 8.186835289001465 0.842077374458313
18.82207679748535 8.174598693847656 0.8354941010475159
18.709274291992188 8.171796798706055 0.8312376737594604
18.57086181640625 8.158626556396484 0.82462078332901
18.44248390197754 8.147927284240723 0.8196687698364258
18.309635162353516 8.135448455810547 0.813300371170044
18.204673767089844 8.134666442871094 0.8093971014022827
18.074384689331055 8.121485710144043 0.8031387329101562
17.953170776367188 8.1131591796875 0.7985217571258545
17.843339920043945 8.108159065246582 0.7931861281394958
17.724166870117188 8.09842300415039 0.7886340022087097
17.590688705444336 8.082902908325195 0.7822786569595337
17.47397232055664 8.07323169708252 0.7778301239013672
17.25564193725586 8.060715675354004 0.767790675163269
17.13229751586914 8.046449661254883 0.7625445127487183
17.05717658996582 8.055688858032227 0.7588121294975281
16.92681884765625 8.037127494812012 0.7537550926208496
16.823638916015625 8.030961990356445 0.7513537406921387
16.714176177978516 8.022594451904297 0.7477167844772339
16.598772048950195 8.009626388549805 0.7421727180480957
16.407175064086914 8.002532005310059 0.7339893579483032
16.272052764892578 7.978471279144287 0.7286829948425293
16.19095230102539 7.981653690338135 0.7247099280357361
16.08235740661621 7.969646453857422 0.7205891609191895
15.894702911376953 7.960206985473633 0.712121307849884
15.782149314880371 7.944847106933594 0.7072024345397949
15.592182159423828 7.931697845458984 0.6991088390350342
15.499645233154297 7.925155162811279 0.694632887840271
15.396648406982422 7.914027214050293 0.6907732486724854
15.295574188232422 7.902244567871094 0.6859198808670044
15.215274810791016 7.901476860046387 0.6830681562423706
15.128252029418945 7.896693706512451 0.6788618564605713
15.029245376586914 7.884743690490723 0.6741123199462891
14.933698654174805 7.874843597412109 0.6705746054649353
14.848886489868164 7.8700456619262695 0.6664782762527466
14.75901985168457 7.861690521240234 0.6631773710250854
14.667572021484375 7.85324764251709 0.6588016748428345
14.579690933227539 7.845167636871338 0.6555845141410828
14.485668182373047 7.834033012390137 0.6522334814071655
14.396708488464355 7.825070381164551 0.6494070291519165
14.316459655761719 7.819982528686523 0.6459474563598633
14.225323677062988 7.809218406677246 0.6415852308273315
14.143431663513184 7.802985191345215 0.6382077932357788
14.055328369140625 7.792468070983887 0.6343975067138672
13.973774909973145 7.786325931549072 0.6310446858406067
13.885254859924316 7.774806976318359 0.6272220611572266
13.813366889953613 7.772884368896484 0.6237478256225586
13.730608940124512 7.764350891113281 0.6203281879425049
13.652261734008789 7.757481575012207 0.6169683933258057
13.5767240524292 7.752972602844238 0.6133480072021484
13.49245548248291 7.742026329040527 0.6102649569511414
13.405277252197266 7.729024887084961 0.6061012744903564
13.329978942871094 7.723598480224609 0.6030370593070984
13.241649627685547 7.709168910980225 0.5992294549942017
13.184207916259766 7.713020324707031 0.5964306592941284
13.09837818145752 7.699799537658691 0.5928808450698853
13.03757095336914 7.700503349304199 0.5903233289718628
12.88994026184082 7.686713218688965 0.5841820240020752
12.798648834228516 7.6683220863342285 0.5798513293266296
12.739709854125977 7.670041084289551 0.5770126581192017
12.65374755859375 7.654107570648193 0.5738388299942017
12.59091567993164 7.651836395263672 0.5713191628456116
12.519648551940918 7.645195007324219 0.569595456123352
12.457948684692383 7.6430559158325195 0.5670014023780823
12.312240600585938 7.625217437744141 0.560559868812561
12.242471694946289 7.617203235626221 0.5575999021530151
12.181715965270996 7.615545749664307 0.5546945929527283
12.100717544555664 7.599880218505859 0.5513483881950378
11.97964096069336 7.594376087188721 0.5459213256835938
11.911375045776367 7.585798263549805 0.5431544780731201
11.841665267944336 7.577008247375488 0.5402247905731201
11.783658981323242 7.574403762817383 0.5374369621276855
11.725504875183105 7.571454048156738 0.5351346731185913
11.65372371673584 7.560427665710449 0.532109797000885
11.58328914642334 7.548933982849121 0.52876216173172
11.534252166748047 7.551124572753906 0.5268783569335938
11.468276977539062 7.542980194091797 0.5241186022758484
11.408458709716797 7.537598609924316 0.5212638974189758
11.332145690917969 7.521575927734375 0.5176700353622437
11.28348159790039 7.5234808921813965 0.5161678791046143
11.224655151367188 7.517951965332031 0.5133610963821411
11.169740676879883 7.515787124633789 0.510761022567749
11.104621887207031 7.505494594573975 0.5084953904151917
11.05423355102539 7.504904747009277 0.5056169629096985
10.98176383972168 7.490026473999023 0.5032653212547302
10.933695793151855 7.490532875061035 0.5017737150192261
10.879769325256348 7.486810684204102 0.49920353293418884
10.822307586669922 7.481385231018066 0.4964950382709503
10.766910552978516 7.47615909576416 0.4938631057739258
10.714494705200195 7.4737372398376465 0.49219006299972534
10.65797233581543 7.46723747253418 0.4895089864730835
10.604852676391602 7.46287727355957 0.48698684573173523
10.547737121582031 7.456427574157715 0.4846429228782654
10.482661247253418 7.4430952072143555 0.4820250868797302
10.425568580627441 7.435696601867676 0.47933754324913025
10.38351821899414 7.438673973083496 0.47734105587005615
10.330041885375977 7.432850360870361 0.4755907654762268
10.278694152832031 7.429280757904053 0.47318118810653687
10.23062515258789 7.426908016204834 0.470904141664505
10.169921875 7.4151153564453125 0.468048095703125
10.125035285949707 7.415567398071289 0.46671026945114136
10.072206497192383 7.409038543701172 0.4642186462879181
10.021905899047852 7.40413761138916 0.46184593439102173
9.971604347229004 7.399955749511719 0.45982134342193604
9.91848373413086 7.3925018310546875 0.4577544331550598
9.810958862304688 7.376834869384766 0.45272135734558105
9.77550220489502 7.381978988647461 0.4515766501426697
9.717018127441406 7.3704633712768555 0.4488549828529358
9.678529739379883 7.372959136962891 0.4473564028739929
9.62129020690918 7.360958576202393 0.44510120153427124
9.584237098693848 7.365120887756348 0.44337335228919983
