VERSION .7
FIELDS x y z
SIZE 4 4 4
TYPE F F F
COUNT 1 1 1
WIDTH 849
HEIGHT 1
VIEWPOINT 0 0 0 1 0 0 0
POINTS 849
DATA ascii
12.222723007202148 7.63872766494751 0.32860511541366577
12.154260635375977 7.6310601234436035 0.32662856578826904
12.045309066772461 7.63356876373291 0.3236943483352661
11.969441413879395 7.62034797668457 0.3212016820907593
11.830602645874023 7.6021623611450195 0.3200177848339081
11.758371353149414 7.590270519256592 0.31763672828674316
11.718478202819824 7.600032806396484 0.31646305322647095
11.64455509185791 7.586463928222656 0.31455451250076294
11.58974838256836 7.585701942443848 0.31266674399375916
11.519875526428223 7.574533462524414 0.31122010946273804
11.467903137207031 7.5744948387146 0.30941128730773926
11.391617774963379 7.559110641479492 0.3078063726425171
11.343707084655762 7.561269760131836 0.3060896098613739
11.289965629577637 7.559332847595215 0.3045286536216736
11.234469413757324 7.55698299407959 0.30317047238349915
11.185393333435059 7.55773401260376 0.30175238847732544
11.122125625610352 7.5492777824401855 0.3001710772514343
11.072769165039062 7.549752235412598 0.2987505793571472
11.003971099853516 7.536341667175293 0.29649433493614197
10.965686798095703 7.544223785400391 0.29560133814811707
10.915952682495117 7.5437912940979 0.2941659390926361
10.86371898651123 7.541053295135498 0.2928939759731293
10.764971733093262 7.539885520935059 0.2897721529006958
10.714347839355469 7.537618637084961 0.28882721066474915
10.623838424682617 7.54102897644043 0.28732356429100037
10.474822998046875 7.534730911254883 0.2835032343864441
10.331231117248535 7.530445575714111 0.27961039543151855
10.067764282226562 7.535003662109375 0.2724440395832062
9.938573837280273 7.536253929138184 0.26869669556617737
9.81967544555664 7.543790817260742 0.26552295684814453
9.728063583374023 7.538771629333496 0.2628694772720337
9.679457664489746 7.533306121826172 0.26150989532470703
9.598153114318848 7.535148620605469 0.25941002368927
9.555054664611816 7.533415794372559 0.25847578048706055
9.484735488891602 7.542963981628418 0.256693035364151
9.428813934326172 7.530485153198242 0.2553250789642334
9.340051651000977 7.524236679077148 0.2525756061077118
9.30945873260498 7.5315022468566895 0.2521776556968689
9.267107009887695 7.5300493240356445 0.2507449984550476
9.228107452392578 7.530206680297852 0.24936699867248535
9.183300018310547 7.525444507598877 0.24858593940734863
9.147733688354492 7.529021263122559 0.24733424186706543
9.100457191467285 7.521842002868652 0.24601519107818604
9.072053909301758 7.530452251434326 0.24542218446731567
9.022209167480469 7.521345615386963 0.24377843737602234
8.993630409240723 7.529210090637207 0.2429739236831665
8.946961402893066 7.522706031799316 0.24188512563705444
8.911080360412598 7.524158477783203 0.24063801765441895
8.87050724029541 7.521486282348633 0.23950299620628357
8.836576461791992 7.525224208831787 0.2387639731168747
8.789799690246582 7.5169148445129395 0.23747755587100983
8.757440567016602 7.520761489868164 0.23631709814071655
8.711609840393066 7.513797283172607 0.23525092005729675
8.684908866882324 7.52225399017334 0.23449796438217163
8.611964225769043 7.522784233093262 0.23294878005981445
8.56773853302002 7.515554428100586 0.23146992921829224
8.504927635192871 7.52407169342041 0.22994133830070496
8.469579696655273 7.524189472198486 0.22871389985084534
8.385255813598633 7.512700080871582 0.2265963852405548
8.36419677734375 7.525182247161865 0.2257804572582245
8.287222862243652 7.519320487976074 0.2238643765449524
8.075199127197266 7.514545440673828 0.21753570437431335
7.97383451461792 7.514308452606201 0.21473762392997742
7.8666181564331055 7.507781505584717 0.21180590987205505
7.767356872558594 7.5069193840026855 0.20931020379066467
7.709012985229492 7.51300048828125 0.20726898312568665
7.668770790100098 7.505452632904053 0.206617534160614
7.644207954406738 7.512535095214844 0.20571738481521606
7.603196620941162 7.5042266845703125 0.20439419150352478
7.576475143432617 7.508955001831055 0.204091414809227
7.543643951416016 7.507512092590332 0.20297884941101074
7.513252258300781 7.509281158447266 0.20194131135940552
7.472253799438477 7.499364852905273 0.20084530115127563
7.44528341293335 7.503375053405762 0.20030303299427032
7.408199787139893 7.497969150543213 0.1990870088338852
7.3874616622924805 7.508079528808594 0.19854632019996643
7.338935852050781 7.490124702453613 0.1970198154449463
7.307104110717773 7.489239692687988 0.19635716080665588
7.281859397888184 7.4944167137146 0.19569194316864014
7.245582580566406 7.488447189331055 0.1944880485534668
7.218448162078857 7.49202823638916 0.19396422803401947
7.171836853027344 7.474631309509277 0.1924879252910614
7.1535749435424805 7.487550735473633 0.19203069806098938
7.119283676147461 7.482685565948486 0.19089920818805695
7.089961528778076 7.48323917388916 0.19029851257801056
7.05409049987793 7.4769697189331055 0.1893559694290161
7.033321857452393 7.486016750335693 0.18858879804611206
6.9912919998168945 7.472631454467773 0.18748222291469574
6.968465805053711 7.479862689971924 0.18706706166267395
6.9354143142700195 7.475429534912109 0.18620559573173523
6.909310340881348 7.478696823120117 0.18529465794563293
6.870245933532715 7.468019962310791 0.18404550850391388
6.837241172790527 7.463167190551758 0.18335525691509247
6.810973644256592 7.465877532958984 0.18267706036567688
6.777238845825195 7.46051025390625 0.18158622086048126
6.744122505187988 7.455419540405273 0.18050329387187958
6.698472023010254 7.467593193054199 0.17950713634490967
6.6644392013549805 7.461081504821777 0.17839691042900085
6.603150844573975 7.4550886154174805 0.17698362469673157
6.512499809265137 7.446537017822266 0.1742095947265625
6.426466941833496 7.4424028396606445 0.17196455597877502
6.34746789932251 7.445023536682129 0.1699092835187912
6.26374626159668 7.441073417663574 0.1677214652299881
6.20703649520874 7.437051773071289 0.1658625602722168
6.171517372131348 7.426344871520996 0.16510294377803802
6.125926971435547 7.434380054473877 0.16375556588172913
6.094054222106934 7.427633285522461 0.16274087131023407
6.0479865074157715 7.434536933898926 0.16175571084022522
6.015754699707031 7.42692756652832 0.16073575615882874
5.962613105773926 7.424450874328613 0.1591949611902237
5.932320594787598 7.418797492980957 0.15858644247055054
5.9095458984375 7.422182083129883 0.15781569480895996
5.87543249130249 7.410846710205078 0.15673483908176422
5.858756065368652 7.421982765197754 0.15634462237358093
5.829692840576172 7.417104721069336 0.15541008114814758
5.807060718536377 7.420540809631348 0.15501444041728973
5.781578063964844 7.419650077819824 0.15416482090950012
5.754279136657715 7.416654586791992 0.15348905324935913
5.726902008056641 7.413670539855957 0.15260353684425354
5.706398963928223 7.418900489807129 0.15226098895072937
5.677962303161621 7.414060592651367 0.15155266225337982
5.654498100280762 7.4158406257629395 0.1509307473897934
5.621423721313477 7.4042816162109375 0.14988218247890472
5.605687141418457 7.416397571563721 0.1495276689529419
5.58055305480957 7.415082931518555 0.14870718121528625
5.556497097015381 7.415445327758789 0.14826256036758423
5.528797149658203 7.411068916320801 0.14758236706256866
5.506364822387695 7.413046836853027 0.14683286845684052
5.472332000732422 7.399606704711914 0.14577099680900574
5.449443817138672 7.40132999420166 0.14502739906311035
5.430363655090332 7.4079132080078125 0.14492705464363098
5.395888805389404 7.39301061630249 0.1438620537519455
5.369074821472168 7.389019012451172 0.14299999177455902
5.350622177124023 7.396201133728027 0.14236153662204742
5.326953887939453 7.395753860473633 0.14178992807865143
5.30232048034668 7.394460678100586 0.14134114980697632
5.279486656188965 7.395327568054199 0.14059655368328094
5.255061149597168 7.394113540649414 0.13980917632579803
5.2301459312438965 7.391490936279297 0.1392025649547577
5.212181091308594 7.398972988128662 0.13858075439929962
5.181319236755371 7.38828182220459 0.13797414302825928
5.163516521453857 7.395495891571045 0.1373584121465683
5.1342363357543945 7.386523246765137 0.13664522767066956
5.109288215637207 7.383882522583008 0.13584256172180176
5.0903401374816895 7.389580726623535 0.13521471619606018
5.075020790100098 7.400167465209961 0.13515065610408783
5.019342422485352 7.385471820831299 0.1336069107055664
5.0038981437683105 7.3957133293151855 0.13306377828121185
4.951109409332275 7.38450813293457 0.13193672895431519
4.880447864532471 7.378988742828369 0.12966620922088623
4.81375789642334 7.378554821014404 0.12804275751113892
4.767354488372803 7.375113487243652 0.12676218152046204
4.71148681640625 7.390178680419922 0.12524358928203583
4.679603576660156 7.374508857727051 0.124476358294487
4.657924652099609 7.374495983123779 0.12377525120973587
4.635124683380127 7.3722381591796875 0.12303723394870758
4.6163330078125 7.376906394958496 0.12242846190929413
4.59505558013916 7.377274990081787 0.12194189429283142
4.566739559173584 7.365832328796387 0.12139469385147095
4.549911022186279 7.373442649841309 0.12083454430103302
4.525452136993408 7.368349075317383 0.12092958390712738
4.504327774047852 7.368197441101074 0.12023869901895523
4.481475830078125 7.365756034851074 0.11952230334281921
4.4610700607299805 7.366975784301758 0.11905865371227264
4.449627876281738 7.3832550048828125 0.11896827071905136
4.420619487762451 7.369672775268555 0.11807288229465485
4.398652076721191 7.368045806884766 0.11738076061010361
4.380193710327148 7.372486114501953 0.11697141081094742
4.357987403869629 7.370276927947998 0.1162731945514679
4.331478118896484 7.360264778137207 0.11544547975063324
4.317225933074951 7.371646881103516 0.11495919525623322
4.294103622436523 7.367564678192139 0.11456018686294556
4.275348663330078 7.370501518249512 0.11413984000682831
4.24213171005249 7.3489789962768555 0.11313994228839874
5.842389106750488 -11.050385475158691 0.16902634501457214
5.877676963806152 -11.060501098632812 0.17011840641498566
5.890143394470215 -11.028058052062988 0.17058828473091125
5.913271427154541 -11.016286849975586 0.1713593304157257
5.974299430847168 -11.01837158203125 0.17282867431640625
5.990442276000977 -10.992640495300293 0.17339666187763214
6.060705184936523 -11.01194953918457 0.1756391078233719
6.156290054321289 -11.02103042602539 0.17793071269989014
6.194647312164307 -11.034860610961914 0.17913730442523956
6.244026184082031 -11.013897895812988 0.18077215552330017
6.342055320739746 -11.024687767028809 0.18344615399837494
6.431549072265625 -11.019399642944336 0.18558719754219055
6.527493476867676 -11.024007797241211 0.1881045252084732
6.585771560668945 -11.016339302062988 0.18952494859695435
6.6200103759765625 -11.021615028381348 0.1906319558620453
6.6790690422058105 -11.014583587646484 0.19257211685180664
6.708290100097656 -11.010599136352539 0.19304466247558594
6.738039016723633 -11.00700855255127 0.1937212347984314
6.805537223815918 -11.013782501220703 0.19591692090034485
6.8315019607543945 -11.003734588623047 0.19678935408592224
6.863470077514648 -11.004199981689453 0.19734716415405273
6.9219970703125 -10.994647026062012 0.19898299872875214
6.960468769073486 -11.004474639892578 0.20022454857826233
6.993630886077881 -11.005355834960938 0.20080462098121643
7.015903949737549 -10.98995590209961 0.20159240067005157
7.052402496337891 -10.996191024780273 0.20276831090450287
7.088128089904785 -11.00067138671875 0.2039254903793335
7.110551834106445 -10.985334396362305 0.20471219718456268
7.14337158203125 -10.985441207885742 0.2049957811832428
7.175422668457031 -10.983871459960938 0.20604880154132843
7.207714080810547 -10.982902526855469 0.20651331543922424
7.241757392883301 -10.98501205444336 0.2073364555835724
7.274355888366699 -10.983879089355469 0.20841124653816223
7.297006607055664 -10.968023300170898 0.20869430899620056
7.336709976196289 -10.977327346801758 0.2099795639514923
7.366336822509766 -10.97230052947998 0.2109813392162323
7.403604507446289 -10.977967262268066 0.21188625693321228
7.4387407302856445 -10.979942321777344 0.21253710985183716
7.467803955078125 -10.973730087280273 0.21352708339691162
7.499701499938965 -10.970144271850586 0.21458294987678528
7.540073871612549 -10.98022174835205 0.21589651703834534
7.566105842590332 -10.969280242919922 0.2163001298904419
7.632427215576172 -10.966329574584961 0.2181902527809143
7.670328140258789 -10.971617698669434 0.21944169700145721
7.699334144592285 -10.963696479797363 0.21991729736328125
7.733837604522705 -10.964380264282227 0.22106820344924927
7.800313949584961 -10.960333824157715 0.2229798585176468
7.864217281341553 -10.952194213867188 0.22461597621440887
7.898896217346191 -10.952445983886719 0.22578100860118866
7.97269868850708 -10.957218170166016 0.22739726305007935
8.004712104797363 -10.953365325927734 0.2280714213848114
8.07020378112793 -10.945913314819336 0.22976413369178772
8.103014945983887 -10.942802429199219 0.23057103157043457
8.161489486694336 -10.925262451171875 0.23207074403762817
8.232340812683105 -10.923851013183594 0.2344413697719574
8.282280921936035 -10.94279956817627 0.23521625995635986
8.347716331481934 -10.93326187133789 0.2374507188796997
8.379072189331055 -10.927242279052734 0.23853270709514618
8.419232368469238 -10.931175231933594 0.23901215195655823
8.45273208618164 -10.92768669128418 0.24016073346138
8.484781265258789 -10.922210693359375 0.24126550555229187
8.524837493896484 -10.925518035888672 0.24258962273597717
8.557805061340332 -10.920965194702148 0.2432028353214264
8.596040725708008 -10.922476768493652 0.24416783452033997
8.63267707824707 -10.921460151672363 0.24540141224861145
8.673556327819824 -10.926491737365723 0.2462417185306549
8.704216957092285 -10.917143821716309 0.2472972571849823
8.736468315124512 -10.911064147949219 0.24810460209846497
8.774580001831055 -10.911657333374023 0.24885886907577515
8.818483352661133 -10.918925285339355 0.25030454993247986
8.881646156311035 -10.903719902038574 0.25155210494995117
8.92420768737793 -10.908812522888184 0.2529639005661011
8.993244171142578 -10.90006160736084 0.2544930577278137
9.018357276916504 -10.883565902709961 0.2554172873497009
9.073081970214844 -10.903472900390625 0.2571870684623718
9.095312118530273 -10.882820129394531 0.2571563422679901
9.139167785644531 -10.889291763305664 0.25863054394721985
9.173121452331543 -10.883291244506836 0.2598094344139099
9.219642639160156 -10.891695022583008 0.260805606842041
9.247191429138184 -10.878379821777344 0.26148632168769836
9.289228439331055 -10.880645751953125 0.2628873586654663
9.324586868286133 -10.876274108886719 0.2641233205795288
9.370607376098633 -10.884160995483398 0.26479217410087585
9.401329040527344 -10.872783660888672 0.2658809721469879
9.447550773620605 -10.88051986694336 0.2674297094345093
9.523409843444824 -10.875031471252441 0.26916036009788513
9.55495548248291 -10.865478515625 0.2702982425689697
9.638069152832031 -10.867355346679688 0.2722376585006714
9.67588996887207 -10.864500045776367 0.2735571563243866
9.717937469482422 -10.864892959594727 0.2744273543357849
9.757518768310547 -10.863691329956055 0.2760133743286133
9.82778263092041 -10.849658966064453 0.2776024341583252
9.862839698791504 -10.84305191040039 0.2788541913032532
9.945586204528809 -10.841938972473145 0.2808021605014801
9.98712158203125 -10.841964721679688 0.2822299897670746
10.029075622558594 -10.840944290161133 0.2831023335456848
10.07088851928711 -10.840925216674805 0.28421276807785034
10.107505798339844 -10.834663391113281 0.285509318113327
10.146214485168457 -10.830182075500488 0.2862990200519562
10.193344116210938 -10.835332870483398 0.28755712509155273
10.22960090637207 -10.827434539794922 0.2888384461402893
10.264028549194336 -10.81881332397461 0.2895122170448303
10.308177947998047 -10.820287704467773 0.29069989919662476
10.38866138458252 -10.813216209411621 0.29294267296791077
10.43006706237793 -10.811318397521973 0.294046550989151
10.481310844421387 -10.81808853149414 0.2951805293560028
10.513432502746582 -10.806281089782715 0.2963814437389374
10.560627937316895 -10.808497428894043 0.29797932505607605
10.607362747192383 -10.811355590820312 0.298667311668396
10.645545959472656 -10.805326461791992 0.30003058910369873
10.68698787689209 -10.801139831542969 0.3014768362045288
10.727680206298828 -10.797359466552734 0.3022266924381256
10.77174186706543 -10.796304702758789 0.3037550449371338
10.820734024047852 -10.79966926574707 0.30484724044799805
10.85653305053711 -10.790519714355469 0.30580687522888184
10.901895523071289 -10.790229797363281 0.30737990140914917
10.943325996398926 -10.785550117492676 0.3082617521286011
10.987077713012695 -10.783815383911133 0.30944791436195374
11.028179168701172 -10.777997970581055 0.3108955919742584
11.070487976074219 -10.774523735046387 0.3118157684803009
11.118717193603516 -10.776622772216797 0.3131278157234192
11.168876647949219 -10.779062271118164 0.3142513632774353
11.198066711425781 -10.762441635131836 0.31539684534072876
11.24312973022461 -10.759641647338867 0.3166029155254364
11.29562759399414 -10.76506233215332 0.3178126811981201
11.331073760986328 -10.754060745239258 0.31914040446281433
11.379373550415039 -10.753789901733398 0.32044118642807007
11.42801284790039 -10.754947662353516 0.32154324650764465
11.463827133178711 -10.743881225585938 0.3225242793560028
11.52248764038086 -10.752714157104492 0.3238861560821533
11.560334205627441 -10.743236541748047 0.32529041171073914
11.613763809204102 -10.746746063232422 0.3267468214035034
11.657268524169922 -10.742183685302734 0.32770994305610657
11.70372200012207 -10.740165710449219 0.3293558955192566
11.749456405639648 -10.735987663269043 0.32999712228775024
11.805567741394043 -10.742391586303711 0.332161009311676
11.885255813598633 -10.723752975463867 0.3341066241264343
11.936553955078125 -10.72518539428711 0.3359047770500183
11.986948013305664 -10.724273681640625 0.33704301714897156
12.03195571899414 -10.719669342041016 0.33829715847969055
12.07127857208252 -10.70985221862793 0.3397625684738159
12.130105972290039 -10.715822219848633 0.3407750129699707
12.170672416687012 -10.70677375793457 0.34227409958839417
12.215719223022461 -10.700695991516113 0.34328556060791016
12.275287628173828 -10.707439422607422 0.34494549036026
12.367244720458984 -10.696274757385254 0.34725499153137207
12.403934478759766 -10.683091163635254 0.34866535663604736
12.46633529663086 -10.691856384277344 0.3501710295677185
12.523387908935547 -10.694440841674805 0.35175830125808716
12.562862396240234 -10.683147430419922 0.3526231646537781
12.611483573913574 -10.679475784301758 0.3539965748786926
12.666326522827148 -10.679540634155273 0.35527485609054565
12.715559005737305 -10.675983428955078 0.3570440411567688
12.767326354980469 -10.673529624938965 0.3584980368614197
12.813608169555664 -10.6666259765625 0.35955333709716797
12.863104820251465 -10.662715911865234 0.36095815896987915
12.972087860107422 -10.661206245422363 0.3641618490219116
13.022712707519531 -10.657609939575195 0.36598867177963257
13.077552795410156 -10.655923843383789 0.3672748804092407
13.123501777648926 -10.648126602172852 0.3685911297798157
13.169659614562988 -10.639004707336426 0.36964380741119385
13.23221206665039 -10.644231796264648 0.3714195787906647
13.275346755981445 -10.633630752563477 0.3724035620689392
13.328222274780273 -10.629324913024902 0.37389785051345825
13.392046928405762 -10.634834289550781 0.37546002864837646
13.444809913635254 -10.630481719970703 0.3773529529571533
13.490593910217285 -10.620756149291992 0.378665030002594
13.536500930786133 -10.611470222473145 0.3797333240509033
13.600948333740234 -10.61515998840332 0.3815590739250183
13.652636528015137 -10.609983444213867 0.38278692960739136
13.702068328857422 -10.602867126464844 0.38421908020973206
13.749753952026367 -10.592883110046387 0.38531750440597534
13.80927562713623 -10.593146324157715 0.3870324492454529
13.92133903503418 -10.586280822753906 0.3903881907463074
13.984498977661133 -10.588580131530762 0.3915461301803589
14.085291862487793 -10.571866989135742 0.3941934406757355
14.139663696289062 -10.566875457763672 0.39617377519607544
14.205662727355957 -10.568978309631348 0.3982048034667969
14.259115219116211 -10.562848091125488 0.39976537227630615
14.364958763122559 -10.547849655151367 0.4029843807220459
14.433757781982422 -10.552335739135742 0.4049750566482544
14.481575012207031 -10.539897918701172 0.40609872341156006
14.543582916259766 -10.538928985595703 0.4079086184501648
14.608650207519531 -10.539069175720215 0.40952444076538086
14.66299819946289 -10.531569480895996 0.4111115336418152
14.711189270019531 -10.519973754882812 0.4122716784477234
14.778255462646484 -10.520805358886719 0.41421496868133545
14.839601516723633 -10.517630577087402 0.4157296419143677
14.894545555114746 -10.510204315185547 0.4173523783683777
14.948801040649414 -10.500724792480469 0.4186609387397766
15.00954818725586 -10.4969482421875 0.4204534888267517
15.068294525146484 -10.490686416625977 0.4218999743461609
15.134557723999023 -10.489740371704102 0.42383575439453125
15.2005615234375 -10.48885726928711 0.42550063133239746
15.257929801940918 -10.480917930603027 0.4271935224533081
15.31630802154541 -10.473785400390625 0.4286365509033203
15.383594512939453 -10.47301197052002 0.4306178689002991
15.445636749267578 -10.467550277709961 0.4321640431880951
15.51046371459961 -10.464059829711914 0.4340718984603882
15.56817626953125 -10.455190658569336 0.43550097942352295
15.635663986206055 -10.45297622680664 0.4374881982803345
15.702966690063477 -10.450885772705078 0.43920135498046875
15.763851165771484 -10.443406105041504 0.4410074055194855
15.820327758789062 -10.433124542236328 0.44241631031036377
15.88763427734375 -10.429402351379395 0.4443992078304291
15.961658477783203 -10.430137634277344 0.4462983012199402
16.020263671875 -10.421056747436523 0.44805818796157837
16.089656829833984 -10.417874336242676 0.4498208165168762
16.141738891601562 -10.403594970703125 0.4513988494873047
16.224185943603516 -10.40914249420166 0.4535483121871948
16.281902313232422 -10.397669792175293 0.45454394817352295
16.345458984375 -10.390036582946777 0.4568935036659241
16.47894859313965 -10.37770938873291 0.46058449149131775
16.556655883789062 -10.378721237182617 0.4621547758579254
16.688472747802734 -10.363712310791016 0.4658129811286926
16.77017593383789 -10.366289138793945 0.46868830919265747
16.91472625732422 -10.357442855834961 0.47150763869285583
17.060741424560547 -10.348315238952637 0.47557151317596436
17.124237060546875 -10.338281631469727 0.4779658913612366
17.264310836791992 -10.32388973236084 0.48049676418304443
17.403053283691406 -10.307605743408203 0.48438072204589844
17.480926513671875 -10.30478572845459 0.486412912607193
17.560176849365234 -10.30156135559082 0.488014280796051
17.637027740478516 -10.296964645385742 0.49078959226608276
17.696483612060547 -10.281595230102539 0.4918414354324341
17.777408599853516 -10.279327392578125 0.494753897190094
17.850650787353516 -10.271761894226074 0.4961894750595093
17.922149658203125 -10.262552261352539 0.49835771322250366
18.008316040039062 -10.261775970458984 0.50063157081604
18.071462631225586 -10.248140335083008 0.501792311668396
18.21774673461914 -10.229940414428711 0.5059331059455872
18.303274154663086 -10.227152824401855 0.5085030198097229
18.370121002197266 -10.21453857421875 0.5102540254592896
18.445711135864258 -10.20595932006836 0.51176518201828
18.534433364868164 -10.203950881958008 0.514914870262146
18.604528427124023 -10.191732406616211 0.5162677764892578
18.686553955078125 -10.185386657714844 0.5184356570243835
18.758392333984375 -10.174108505249023 0.5206576585769653
18.840660095214844 -10.167624473571777 0.5223507285118103
18.919475555419922 -10.15859317779541 0.5252484083175659
19.001291275024414 -10.151216506958008 0.5269320011138916
19.089984893798828 -10.147735595703125 0.528305172920227
19.163585662841797 -10.134978294372559 0.5305727124214172
19.245277404785156 -10.126564979553223 0.5330685377120972
19.326419830322266 -10.117170333862305 0.5352271795272827
19.416542053222656 -10.113068580627441 0.537142276763916
19.49363136291504 -10.101278305053711 0.5400289297103882
19.669649124145508 -10.08763599395752 0.5437197685241699
19.75098419189453 -10.07763671875 0.546749472618103
20.183612823486328 -10.03274154663086 0.5585247278213501
20.633800506591797 -9.987772941589355 0.5694506168365479
20.818828582763672 -9.969334602355957 0.5748000144958496
20.901161193847656 -9.955492973327637 0.5770357847213745
21.09774398803711 -9.940336227416992 0.5821902751922607
21.19402313232422 -9.931024551391602 0.5831893682479858
21.386764526367188 -9.91269588470459 0.5887840986251831
21.470500946044922 -9.896444320678711 0.5914143323898315
21.568666458129883 -9.886874198913574 0.5935477614402771
21.669374465942383 -9.877676963806152 0.5962899327278137
21.757888793945312 -9.863542556762695 0.5981632471084595
21.864608764648438 -9.856669425964355 0.6014366149902344
21.956573486328125 -9.842352867126465 0.6039495468139648
22.073360443115234 -9.839744567871094 0.606598436832428
22.166412353515625 -9.824516296386719 0.6094997525215149
22.260772705078125 -9.811119079589844 0.6120936274528503
22.368236541748047 -9.802483558654785 0.6144814491271973
22.456253051757812 -9.784540176391602 0.617264449596405
22.562210083007812 -9.775047302246094 0.6201850175857544
22.664506912231445 -9.76293659210205 0.6224312782287598
22.771682739257812 -9.752104759216309 0.6257506608963013
22.878700256347656 -9.741178512573242 0.6287018656730652
22.985565185546875 -9.729351997375488 0.6310714483261108
23.089256286621094 -9.716792106628418 0.6343153715133667
23.304424285888672 -9.692020416259766 0.63968425989151
23.422855377197266 -9.684309005737305 0.6423782110214233
23.517196655273438 -9.665583610534668 0.6453770399093628
23.754913330078125 -9.646547317504883 0.6499783396720886
24.084062576293945 -9.604280471801758 0.6589028835296631
24.32309341430664 -9.581074714660645 0.6653249263763428
24.660375595092773 -9.53528881072998 0.6745140552520752
24.907115936279297 -9.5103120803833 0.6801612377166748
25.02250099182129 -9.493831634521484 0.6843973398208618
25.266998291015625 -9.466156959533691 0.6899980306625366
25.385141372680664 -9.449294090270996 0.69330233335495
25.640697479248047 -9.422773361206055 0.7002397775650024
25.762813568115234 -9.405903816223145 0.7030311226844788
26.150550842285156 -9.361577033996582 0.7136877179145813
26.274938583374023 -9.343955039978027 0.7165476083755493
26.54354476928711 -9.314430236816406 0.7223427891731262
26.676143646240234 -9.297003746032715 0.7254094481468201
26.926498413085938 -9.258413314819336 0.7328991293907166
27.076990127563477 -9.246220588684082 0.736461877822876
27.216567993164062 -9.230862617492676 0.7397356033325195
27.342609405517578 -9.209685325622559 0.7426342964172363
27.6181583404541 -9.173173904418945 0.7508399486541748
27.754180908203125 -9.153278350830078 0.7540099620819092
27.897113800048828 -9.136271476745605 0.7573767900466919
28.038497924804688 -9.117476463317871 0.7624948620796204
28.189128875732422 -9.100637435913086 0.7660665512084961
28.328746795654297 -9.080840110778809 0.769347071647644
28.47739028930664 -9.062639236450195 0.7728658318519592
28.768627166748047 -9.022074699401855 0.7815729379653931
29.052581787109375 -8.97764778137207 0.7882590889930725
29.505802154541016 -8.914886474609375 0.8009020686149597
30.446121215820312 -8.780789375305176 0.8267002105712891
30.778940200805664 -8.737802505493164 0.8354796171188354
30.9371337890625 -8.712109565734863 0.8392729759216309
31.282447814941406 -8.668608665466309 0.8476518392562866
31.436607360839844 -8.639837265014648 0.8533239364624023
31.790122985839844 -8.593167304992676 0.8619259595870972
31.954303741455078 -8.56643009185791 0.8658937811851501
32.132259368896484 -8.540603637695312 0.8702207803726196
32.265892028808594 -8.504470825195312 0.8746370077133179
32.406761169433594 -8.469717025756836 0.8787611722946167
32.5442008972168 -8.431405067443848 0.8820099830627441
32.66524124145508 -8.390463829040527 0.8848288655281067
32.789695739746094 -8.349934577941895 0.887739896774292
32.932861328125 -8.311515808105469 0.8911458253860474
33.026973724365234 -8.262399673461914 0.8932434916496277
33.141075134277344 -8.215753555297852 0.8979573249816895
33.262298583984375 -8.172571182250977 0.9007947444915771
33.361846923828125 -8.1228609085083 0.9030373096466064
29.586624145507812 -7.137310028076172 0.8048033714294434
29.603439331054688 -7.076391220092773 0.804860532283783
22.520877838134766 -5.333583831787109 0.6107310056686401
22.50103759765625 -5.229450225830078 0.6104675531387329
22.49797821044922 -5.178107261657715 0.6100869178771973
22.504796981811523 -5.1305251121521 0.6105106472969055
22.496856689453125 -5.079084396362305 0.6100043058395386
22.56242561340332 -4.994662284851074 0.6111915707588196
22.45138168334961 -4.428844451904297 0.6075477004051208
22.594196319580078 -4.308740615844727 0.6111338138580322
22.788616180419922 -4.197514533996582 0.6192516684532166
22.787776947021484 -4.1484808921813965 0.6190552711486816
22.8319091796875 -4.106142044067383 0.6200444102287292
22.896770477294922 -4.068770408630371 0.6216000318527222
22.954566955566406 -4.029913902282715 0.6230146288871765
22.88789176940918 -3.9678282737731934 0.6209572553634644
22.354001998901367 -3.827519416809082 0.6060865521430969
22.368526458740234 -3.7813663482666016 0.6071311235427856
22.333820343017578 -3.7273178100585938 0.60597825050354
22.338703155517578 -3.680501699447632 0.6064136028289795
22.33414077758789 -3.630760669708252 0.6060830950737
22.33633804321289 -3.58355712890625 0.6059319972991943
22.428546905517578 -3.550628662109375 0.6081784963607788
22.512184143066406 -3.514591932296753 0.6102046966552734
22.710132598876953 -3.4972305297851562 0.6154320240020752
23.136831283569336 -3.5123720169067383 0.6266010999679565
23.464168548583984 -3.5122604370117188 0.6353367567062378
23.94207763671875 -3.5330066680908203 0.6481900215148926
24.101560592651367 -3.503951072692871 0.6522844433784485
27.632591247558594 -3.9588940143585205 0.7467586994171143
31.448131561279297 -4.303664207458496 0.8581891059875488
25.282695770263672 -3.3516335487365723 0.6876034736633301
25.269390106201172 -3.2965235710144043 0.6870537996292114
34.420780181884766 -3.9018714427948 0.9343863725662231
34.41822814941406 -3.68257999420166 0.9344550371170044
34.4259033203125 -3.4646458625793457 0.9340445399284363
34.42082977294922 -3.3177666664123535 0.933529794216156
34.409976959228516 -3.244664192199707 0.9330484867095947
34.40851593017578 -3.09838604927063 0.9339942932128906
34.412940979003906 -3.0268049240112305 0.9339459538459778
34.420379638671875 -2.954141616821289 0.937432587146759
34.42033767700195 -2.8814282417297363 0.9372633695602417
34.41541290283203 -2.8091087341308594 0.9369832277297974
34.40012741088867 -2.7338979244232178 0.9364016056060791
34.408226013183594 -2.6626980304718018 0.9364756345748901
34.432586669921875 -2.5913658142089844 0.9369783401489258
34.43128204345703 -2.518655776977539 0.9368104934692383
34.399932861328125 -2.4446048736572266 0.9358086585998535
34.410865783691406 -2.3715121746063232 0.9359707832336426
34.4183464050293 -2.3002734184265137 0.9360460042953491
34.43019104003906 -2.155457019805908 0.9361211061477661
34.416839599609375 -2.0829288959503174 0.9356377124786377
34.43499755859375 -1.9385120868682861 0.9359066486358643
34.41625213623047 -1.865818738937378 0.9352831840515137
34.429386138916016 -1.7211401462554932 0.9354338645935059
34.43501663208008 -1.5044655799865723 0.9353175163269043
34.508522033691406 -0.8539601564407349 0.94093918800354
34.54578399658203 -0.6376039385795593 0.941826581954956
34.601287841796875 -0.421050101518631 0.9432723522186279
34.591121673583984 -0.27523237466812134 0.9422143697738647
34.64145278930664 -0.2037406861782074 0.9435885548591614
34.60983657836914 -0.057795450091362 0.9427167177200317
41.40487289428711 0.3630028963088989 1.46669602394104
41.3972053527832 1.3200803995132446 1.4646732807159424
41.313232421875 1.4041379690170288 1.4617767333984375
41.259483337402344 1.488036870956421 1.4599676132202148
41.2364616394043 1.574507713317871 1.4592680931091309
41.228973388671875 1.660822868347168 1.457515835762024
41.18740463256836 1.744766354560852 1.456173300743103
41.20330047607422 1.8327139616012573 1.4602947235107422
41.18534469604492 1.918471097946167 1.4597996473312378
41.16461944580078 2.0912792682647705 1.4593720436096191
41.129051208496094 2.3487887382507324 1.4570019245147705
41.06867980957031 2.604463577270508 1.4545176029205322
40.89642333984375 3.889737129211426 1.4488651752471924
40.86058807373047 4.145686626434326 1.445988416671753
40.825435638427734 4.229342460632324 1.4450507164001465
40.83772277832031 4.317197322845459 1.4458117485046387
40.83180236816406 4.402271270751953 1.4459216594696045
40.794227600097656 4.4854912757873535 1.4449149370193481
40.79202651977539 4.571852684020996 1.4442843198776245
40.79795455932617 4.659880638122559 1.443239450454712
40.78082275390625 4.743676662445068 1.4429811239242554
40.73225021362305 4.8246259689331055 1.4416310787200928
40.715606689453125 4.909972190856934 1.441422462463379
40.7032356262207 4.995102405548096 1.4413610696792603
40.68027877807617 5.077998161315918 1.4384251832962036
40.60236358642578 5.155481815338135 1.4360493421554565
40.57148361206055 5.238035678863525 1.4353344440460205
40.44902038574219 5.3946075439453125 1.4317920207977295
40.432315826416016 5.478701591491699 1.430713415145874
40.328372955322266 5.637674331665039 1.4262635707855225
40.22393798828125 5.881120681762695 1.421370267868042
40.1124267578125 6.122618675231934 1.4178686141967773
39.449127197265625 7.5560994148254395 1.3937337398529053
39.360294342041016 7.711069107055664 1.3901612758636475
39.33507537841797 7.790924072265625 1.3872215747833252
39.26240539550781 7.948513031005859 1.3842506408691406
39.21904373168945 8.024494171142578 1.3833214044570923
39.205474853515625 8.108123779296875 1.3825739622116089
39.150657653808594 8.182435035705566 1.3812404870986938
39.128936767578125 8.264283180236816 1.379515528678894
39.106109619140625 8.344271659851074 1.3793225288391113
39.05922317504883 8.419939994812012 1.377416729927063
39.044342041015625 8.503168106079102 1.3775370121002197
38.97398376464844 8.573486328125 1.3741066455841064
38.93633270263672 8.649953842163086 1.3734097480773926
38.88527297973633 8.724930763244629 1.3713840246200562
38.63088607788086 8.752975463867188 1.3614712953567505
37.89091491699219 8.752370834350586 1.3358185291290283
37.54033279418945 8.754354476928711 1.3240982294082642
36.83539581298828 8.753690719604492 1.299034595489502
35.797950744628906 8.74526309967041 1.2620906829833984
34.845428466796875 8.745059967041016 1.2280561923980713
33.93039321899414 8.742520332336426 1.1955753564834595
30.55914306640625 8.700887680053711 1.0770806074142456
29.83589744567871 8.698101997375488 1.0515854358673096
29.345073699951172 8.689265251159668 1.0348838567733765
29.108489990234375 8.684952735900879 1.0259742736816406
28.66106414794922 8.683072090148926 1.010825514793396
28.437007904052734 8.67966079711914 1.0034080743789673
28.21669578552246 8.677674293518066 0.9951274394989014
28.001205444335938 8.675722122192383 0.9881608486175537
27.78264045715332 8.671233177185059 0.9804373979568481
27.583232879638672 8.673036575317383 0.9729070067405701
27.362030029296875 8.666581153869629 0.9651133418083191
27.166500091552734 8.667891502380371 0.9588682651519775
26.96036720275879 8.664459228515625 0.9511125683784485
26.76247787475586 8.662177085876465 0.9447659254074097
26.53923797607422 8.65195083618164 0.9358162879943848
26.362369537353516 8.655496597290039 0.9302235841751099
26.166553497314453 8.651400566101074 0.9233371019363403
25.97751808166504 8.64986801147461 0.9162390232086182
25.776281356811523 8.64295482635498 0.9097788333892822
25.411548614501953 8.639877319335938 0.8965314626693726
25.223957061767578 8.634532928466797 0.890544056892395
24.857986450195312 8.62637996673584 0.8772876262664795
24.306766510009766 8.60667896270752 0.8581304550170898
23.80933952331543 8.599370956420898 0.8417706489562988
23.319873809814453 8.588693618774414 0.8248291015625
21.498519897460938 8.539222717285156 0.7612146735191345
21.07933807373047 8.526535034179688 0.7468539476394653
20.813270568847656 8.52108097076416 0.7373194694519043
20.668991088867188 8.512136459350586 0.7323280572891235
20.53762435913086 8.508861541748047 0.7274421453475952
20.41890525817871 8.509894371032715 0.7238733172416687
20.2825927734375 8.50252914428711 0.7207687497138977
20.145206451416016 8.495054244995117 0.7156649827957153
20.022808074951172 8.49294662475586 0.7119598984718323
19.90709686279297 8.49265193939209 0.7071411609649658
19.79096794128418 8.493127822875977 0.7036528587341309
19.658367156982422 8.484575271606445 0.6982516646385193
19.549514770507812 8.48666763305664 0.6950340270996094
19.42321014404297 8.480294227600098 0.6911675930023193
19.293071746826172 8.471186637878418 0.6858714818954468
19.16827964782715 8.464773178100586 0.6820628046989441
19.052980422973633 8.461654663085938 0.6773084998130798
18.932456970214844 8.45521068572998 0.6736440658569336
18.831079483032227 8.457730293273926 0.6694119572639465
18.697437286376953 8.444876670837402 0.6652932167053223
18.487796783447266 8.444113731384277 0.6578512191772461
18.38568687438965 8.443633079528809 0.6540547609329224
18.173458099365234 8.43902587890625 0.6473090648651123
17.839401245117188 8.420635223388672 0.6353029012680054
17.529054641723633 8.40929889678955 0.6275291442871094
16.07656478881836 8.345100402832031 0.576876163482666
15.793158531188965 8.324440002441406 0.5667816400527954
15.714280128479004 8.325361251831055 0.5641827583312988
15.61943531036377 8.31711483001709 0.560713529586792
15.532236099243164 8.312100410461426 0.5577942132949829
15.453811645507812 8.312204360961914 0.5549501180648804
15.35127067565918 8.298608779907227 0.5518633127212524
15.268253326416016 8.294721603393555 0.5515270233154297
15.175827026367188 8.286108016967773 0.5484445095062256
15.110479354858398 8.291616439819336 0.5460320711135864
15.018259048461914 8.281608581542969 0.5429474115371704
14.952140808105469 8.28685188293457 0.5405280590057373
14.841497421264648 8.265836715698242 0.5361061096191406
14.790946006774902 8.278696060180664 0.5349047183990479
14.697162628173828 8.26673698425293 0.5311146974563599
14.604082107543945 8.254322052001953 0.528359055519104
14.540377616882324 8.258922576904297 0.5256751775741577
14.468191146850586 8.25810432434082 0.5236765742301941
14.389270782470703 8.252695083618164 0.5204521417617798
14.306888580322266 8.245688438415527 0.5180889964103699
14.244630813598633 8.249655723571777 0.5154455304145813
14.157604217529297 8.238536834716797 0.5129090547561646
14.081121444702148 8.234346389770508 0.5097936391830444
14.015806198120117 8.235230445861816 0.508029580116272
13.856199264526367 8.220146179199219 0.5025181770324707
13.795022964477539 8.222602844238281 0.4999328851699829
13.642531394958496 8.209774017333984 0.49467188119888306
12.47386360168457 8.163686752319336 0.45676758885383606
12.28461742401123 8.150595664978027 0.4502260982990265
12.212260246276855 8.139138221740723 0.44785982370376587
12.16355037689209 8.14425277709961 0.4461482763290405
12.093355178833008 8.133651733398438 0.44386494159698486
12.055946350097656 8.144876480102539 0.44254565238952637
11.982725143432617 8.132743835449219 0.4396049976348877
11.908856391906738 8.118757247924805 0.43925362825393677
11.826305389404297 8.09914779663086 0.43649929761886597
11.763280868530273 8.09228515625 0.4342256784439087
11.696857452392578 8.082403182983398 0.43207284808158875
11.647043228149414 8.084407806396484 0.43031203746795654
11.588930130004883 8.080145835876465 0.4279354214668274
11.524534225463867 8.070840835571289 0.4261918067932129
11.440290451049805 8.048324584960938 0.42287737131118774
11.37617301940918 8.03856086730957 0.4211159944534302
11.31924057006836 8.034259796142578 0.41879504919052124
11.265541076660156 8.031732559204102 0.4165780246257782
11.20330810546875 8.022480964660645 0.41489696502685547
11.166820526123047 8.032116889953613 0.41333919763565063
11.108772277832031 8.025774002075195 0.41128116846084595
11.055807113647461 8.022479057312012 0.4096444249153137
10.994085311889648 8.013222694396973 0.40743786096572876
10.95971965789795 8.023430824279785 0.4065054655075073
10.898711204528809 8.013559341430664 0.40403032302856445
10.846929550170898 8.011240005493164 0.40222516655921936
10.791112899780273 8.004678726196289 0.40047192573547363
10.653633117675781 8.007013320922852 0.3958997130393982
10.502510070800781 7.997244834899902 0.39192354679107666
9.830842971801758 7.987120628356934 0.3690865635871887
9.746025085449219 7.9865827560424805 0.36590176820755005
9.696359634399414 7.9795732498168945 0.3643695116043091
9.608558654785156 7.975425720214844 0.3610776662826538
9.565816879272461 7.973533630371094 0.3598156273365021
9.526713371276855 7.974865436553955 0.3590583801269531
9.481523513793945 7.9711833000183105 0.35768723487854004
9.447319030761719 7.975949287414551 0.3565575182437897
9.400699615478516 7.971048355102539 0.3551728129386902
9.35000991821289 7.961479187011719 0.35339421033859253
9.317081451416016 7.966852188110352 0.3520199656486511
9.268680572509766 7.9598069190979 0.3505629897117615
9.243846893310547 7.971868515014648 0.3497728109359741
9.193941116333008 7.962780952453613 0.34778106212615967
9.15156078338623 7.959733009338379 0.3465365469455719
9.110373497009277 7.95717716217041 0.3451268970966339
9.063650131225586 7.950564384460449 0.3432636260986328
9.023563385009766 7.948596000671387 0.34210914373397827
8.990374565124512 7.952553749084473 0.3409929573535919
8.943798065185547 7.945474624633789 0.33915215730667114
8.906643867492676 7.945599555969238 0.3383675813674927
8.864982604980469 7.941532135009766 0.3366808295249939
8.83026123046875 7.944494724273682 0.3352890908718109
8.790364265441895 7.941668510437012 0.33393988013267517
8.75790023803711 7.945409297943115 0.3330659568309784
8.714204788208008 7.93977165222168 0.33132684230804443
8.680301666259766 7.941910743713379 0.3302079439163208
8.606261253356934 7.941011905670166 0.3276844024658203
8.550996780395508 7.922934055328369 0.3260036110877991
8.48917007446289 7.932353973388672 0.32420867681503296
8.448586463928223 7.927692413330078 0.322587788105011
8.379236221313477 7.928885459899902 0.3204943537712097
8.33303165435791 7.918360710144043 0.31867143511772156
8.258773803710938 7.913896560668945 0.3163962960243225
8.167220115661621 7.925253868103027 0.31339362263679504
8.061426162719727 7.921955585479736 0.3094235360622406
7.953772068023682 7.915674686431885 0.305829256772995
7.84453010559082 7.905736923217773 0.302184134721756
7.760555744171143 7.920075416564941 0.29951009154319763
7.700249671936035 7.924407958984375 0.29735440015792847
7.650872707366943 7.906966209411621 0.29541870951652527
7.578069686889648 7.898015975952148 0.29321905970573425
7.557253360748291 7.909110069274902 0.29237842559814453
7.4897871017456055 7.9048871994018555 0.2903921902179718
7.4538655281066895 7.899744987487793 0.2889622449874878
7.422496795654297 7.899631500244141 0.28772786259651184
7.385186672210693 7.893289566040039 0.28692975640296936
7.355123996734619 7.8939313888549805 0.2857359051704407
7.319242000579834 7.888533592224121 0.28432804346084595
7.283702850341797 7.883584976196289 0.2831694781780243
7.247043132781982 7.876638412475586 0.2821495234966278
7.218218803405762 7.878413200378418 0.28100529313087463
7.189225196838379 7.880143165588379 0.2798730731010437
7.151755332946777 7.871819496154785 0.2786399722099304
7.1204352378845215 7.871064186096191 0.2778363525867462
7.095264434814453 7.876030921936035 0.27684012055397034
7.061545372009277 7.8717451095581055 0.2757585346698761
7.0326738357543945 7.872976303100586 0.27464205026626587
6.984060287475586 7.851285934448242 0.27312663197517395
6.962746620178223 7.860468864440918 0.2725427746772766
6.9325642585754395 7.859804153442383 0.2713718116283417
6.9090471267700195 7.865985870361328 0.27068257331848145
6.869839191436768 7.855127334594727 0.2691601514816284
6.849616527557373 7.864880561828613 0.2687733471393585
6.8086090087890625 7.850629806518555 0.26739999651908875
6.775528907775879 7.846288681030273 0.26612287759780884
6.747014999389648 7.846124649047852 0.26500779390335083
6.712136268615723 7.838768005371094 0.2640475332736969
6.671525955200195 7.824756622314453 0.26270681619644165
6.659542083740234 7.843613624572754 0.26225823163986206
6.615133285522461 7.824517726898193 0.2605217695236206
6.586164474487305 7.823733806610107 0.2600311040878296
6.554741859436035 7.819284439086914 0.25881361961364746
6.534399509429932 7.828314781188965 0.2580295205116272
6.474126815795898 7.822842597961426 0.2559426724910736
6.383006572723389 7.812211990356445 0.25303852558135986
6.297077178955078 7.806696891784668 0.25011083483695984
6.215497016906738 7.805469512939453 0.24760276079177856
6.141831874847412 7.779973030090332 0.2449919581413269
6.1310834884643555 7.799583435058594 0.24497774243354797
6.063279628753662 7.780547618865967 0.2425937056541443
6.03996467590332 7.784509181976318 0.24171797931194305
5.996776103973389 7.795799255371094 0.24068942666053772
5.965619087219238 7.789307117462158 0.23950117826461792
5.912869453430176 7.787538528442383 0.23748770356178284
5.878072738647461 7.775779724121094 0.23674964904785156
5.823758602142334 7.771754264831543 0.23470032215118408
5.80463171005249 7.779819965362549 0.23398001492023468
5.773860454559326 7.772543430328369 0.2330312728881836
5.749811172485352 7.774444103240967 0.2321314960718155
5.725632190704346 7.775450706481934 0.23159007728099823
5.703530311584473 7.779562950134277 0.23076504468917847
5.662590026855469 7.758055686950684 0.22939836978912354
5.641445159912109 7.763232231140137 0.22861769795417786
5.617939472198486 7.764718055725098 0.22773477435112
5.595043659210205 7.76759147644043 0.22725655138492584
5.564601898193359 7.759600639343262 0.22645828127861023
5.538442611694336 7.757063388824463 0.2254668027162552
5.519990921020508 7.765877723693848 0.22501574456691742
5.489769458770752 7.7577714920043945 0.22386851906776428
5.455049514770508 7.74336576461792 0.2225377857685089
5.4418182373046875 7.758731842041016 0.22243592143058777
5.409033298492432 7.746504783630371 0.2214026302099228
5.389963150024414 7.754057884216309 0.22071272134780884
5.362342357635498 7.74858283996582 0.21966314315795898
5.333859443664551 7.742083549499512 0.21858054399490356
5.3093743324279785 7.741515159606934 0.21824684739112854
5.281591415405273 7.735746383666992 0.217197448015213
5.261064529418945 7.74012565612793 0.21643875539302826
5.2348527908325195 7.736686706542969 0.21547013521194458
5.202775001525879 7.72413969039917 0.21444553136825562
5.184952735900879 7.732261657714844 0.2138058990240097
5.157188415527344 7.726109504699707 0.21312150359153748
5.131742000579834 7.723026275634766 0.21217171847820282
5.107583522796631 7.722026824951172 0.21128401160240173
5.0875701904296875 7.726569175720215 0.21076662838459015
5.055673599243164 7.713306427001953 0.2095501869916916
5.039084434509277 7.723553657531738 0.2089746594429016
5.009970664978027 7.713862419128418 0.20822179317474365
4.9968085289001465 7.7290449142456055 0.20799678564071655
4.961830139160156 7.710635185241699 0.2068016529083252
4.9490132331848145 7.726288795471191 0.20673798024654388
4.87303352355957 7.714015960693359 0.20412251353263855
4.807661056518555 7.717560291290283 0.20230251550674438
4.761837005615234 7.716220855712891 0.20062902569770813
4.735211372375488 7.70882511138916 0.1996316909790039
4.684109210968018 7.6981377601623535 0.19793885946273804
4.66823148727417 7.708018779754639 0.19739827513694763
4.620779037475586 7.702690124511719 0.19601017236709595
4.553957939147949 7.700631141662598 0.19378721714019775
4.508912563323975 7.698272705078125 0.19270244240760803
4.486008167266846 7.695742607116699 0.1918594390153885
