VERSION .7
FIELDS x y z
SIZE 4 4 4
TYPE F F F
COUNT 1 1 1
WIDTH 840
HEIGHT 1
VIEWPOINT 0 0 0 1 0 0 0
POINTS 840
DATA ascii
21.37668228149414 2.529418468475342 0.08175134658813477
21.354040145874023 2.572105646133423 0.08166620880365372
21.329627990722656 2.6599230766296387 0.08152662217617035
21.297739028930664 2.7012624740600586 0.08148631453514099
21.27179718017578 2.7890467643737793 0.08134987950325012
21.190265655517578 2.913975954055786 0.08061287552118301
21.11284065246582 3.039583683013916 0.08041197806596756
21.027055740356445 3.162285804748535 0.08024317771196365
20.977725982666016 3.244375228881836 0.08015330135822296
20.958585739135742 3.2868566513061523 0.0800580158829689
20.942615509033203 3.373885154724121 0.08002686500549316
20.907384872436523 3.4136312007904053 0.07951177656650543
20.88992691040039 3.5011651515960693 0.07952038943767548
20.876480102539062 3.5434670448303223 0.07947400957345963
20.83534049987793 3.6268234252929688 0.07935978472232819
20.801959991455078 3.6655051708221436 0.07932189106941223
20.80729103088379 3.711397171020508 0.07931697368621826
20.785274505615234 3.7528858184814453 0.07889503985643387
20.767988204956055 3.7942843437194824 0.0788060873746872
20.755882263183594 3.8370161056518555 0.0787901058793068
20.735340118408203 3.8786301612854004 0.0787293016910553
20.723491668701172 3.9213571548461914 0.07875337451696396
20.690353393554688 3.9604711532592773 0.07864496856927872
20.678247451782227 4.002655029296875 0.07862002402544022
20.652328491210938 4.042534828186035 0.07852544635534286
20.645294189453125 4.086555480957031 0.07854798436164856
20.633813858032227 4.12879753112793 0.08026561141014099
20.59957504272461 4.167733192443848 0.08022356033325195
20.5894775390625 4.210185527801514 0.08020385354757309
20.566560745239258 4.2499823570251465 0.08013495057821274
20.56190299987793 4.294841289520264 0.08012136816978455
20.533849716186523 4.33347225189209 0.08006038516759872
20.533798217773438 4.3784050941467285 0.07967571169137955
20.515914916992188 4.420016288757324 0.07968004792928696
20.49968910217285 4.461056709289551 0.07960290461778641
20.465431213378906 4.498518943786621 0.07955962419509888
20.455583572387695 4.541768550872803 0.07956204563379288
20.42229461669922 4.578867435455322 0.07864920049905777
20.393686294555664 4.662742614746094 0.07944026589393616
20.38311767578125 4.704858303070068 0.07856528460979462
20.34421157836914 4.786208629608154 0.07932165265083313
20.321083068847656 4.825709819793701 0.07840137183666229
20.27692222595215 4.950087547302246 0.0779367983341217
20.254314422607422 5.035045146942139 0.0779266357421875
20.214418411254883 5.160273551940918 0.08138951659202576
20.15887451171875 5.281303882598877 0.08128684759140015
20.10113525390625 5.402341365814209 0.08119670301675797
20.072710037231445 5.484546661376953 0.08114637434482574
20.0592041015625 5.526515960693359 0.08112537115812302
20.017242431640625 5.604861736297607 0.08062396943569183
20.010738372802734 5.648748397827148 0.08067475259304047
19.990232467651367 5.6877760887146 0.0806192010641098
19.97805404663086 5.729569435119629 0.08061374723911285
19.973453521728516 5.774039268493652 0.08055197447538376
19.938682556152344 5.808848857879639 0.08045497536659241
19.934795379638672 5.853944778442383 0.08047306537628174
19.89735984802246 5.887829780578613 0.08006331324577332
19.91024398803711 5.9370245933532715 0.08010360598564148
19.889904022216797 5.976838111877441 0.08007887005805969
19.852554321289062 6.010560512542725 0.07995596528053284
19.827560424804688 6.04835844039917 0.07990217208862305
19.802757263183594 6.086644172668457 0.08238521963357925
19.74175262451172 6.113178253173828 0.08202492445707321
19.700876235961914 6.145351886749268 0.08177723735570908
19.627655029296875 6.168140411376953 0.0814003050327301
19.57667350769043 6.197196006774902 0.08107129484415054
19.517223358154297 6.223872661590576 0.08073016256093979
19.478025436401367 6.255934715270996 0.0804862380027771
19.41159439086914 6.279470443725586 0.08013015985488892
19.329336166381836 6.298105239868164 0.0793527364730835
19.27021026611328 6.323105335235596 0.0790519118309021
19.2453670501709 6.360527038574219 0.07882200926542282
19.18708610534668 6.385463714599609 0.07850247621536255
19.132041931152344 6.4116692543029785 0.07816798985004425
19.112764358520508 6.4502644538879395 0.07799169421195984
19.053348541259766 6.474287986755371 0.07764855027198792
19.03033447265625 6.510940074920654 0.07746139913797379
18.927658081054688 6.56459903717041 0.07691183686256409
18.840621948242188 6.5786285400390625 0.07657463103532791
8.421520233154297 -10.379932403564453 0.08781464397907257
10.013336181640625 -10.289029121398926 0.09146362543106079
10.117532730102539 -10.266170501708984 0.09118187427520752
10.205127716064453 -10.268194198608398 0.09160308539867401
10.242473602294922 -10.263087272644043 0.09174782037734985
10.316507339477539 -10.250566482543945 0.0920116975903511
10.370529174804688 -10.26156234741211 0.09230397641658783
10.445916175842285 -10.2494535446167 0.09195049852132797
10.49216365814209 -10.25218391418457 0.09216755628585815
10.578676223754883 -10.249984741210938 0.09256002306938171
10.703588485717773 -10.241341590881348 0.0924166664481163
12.227239608764648 -10.132392883300781 0.09447599947452545
12.373977661132812 -10.123458862304688 0.09442669153213501
12.470125198364258 -10.114751815795898 0.09514010697603226
12.52016830444336 -10.11233901977539 0.09533889591693878
12.611879348754883 -10.09894847869873 0.09499981999397278
12.667661666870117 -10.100543022155762 0.09528619050979614
12.76880168914795 -10.093518257141113 0.09570073336362839
12.813404083251953 -10.085639953613281 0.09590114653110504
12.924944877624512 -10.0855712890625 0.0956619530916214
12.972496032714844 -10.079434394836426 0.09587611258029938
13.06270980834961 -10.061590194702148 0.09410945326089859
13.128497123718262 -10.068925857543945 0.09439598023891449
13.290685653686523 -10.061250686645508 0.09511052817106247
14.798806190490723 -9.936325073242188 0.097002312541008
14.972197532653809 -9.916759490966797 0.0972808450460434
15.165538787841797 -9.907845497131348 0.09778913855552673
15.277527809143066 -9.889833450317383 0.09751511365175247
15.338979721069336 -9.884127616882324 0.09775541722774506
15.399127960205078 -9.877721786499023 0.09800316393375397
15.466720581054688 -9.874507904052734 0.09828744828701019
15.527957916259766 -9.868306159973145 0.09855486452579498
15.605513572692871 -9.872190475463867 0.09887810051441193
15.67037582397461 -9.866415023803711 0.0991506576538086
15.789953231811523 -9.849466323852539 0.09801504015922546
15.850269317626953 -9.84107780456543 0.0983019694685936
15.916688919067383 -9.836612701416016 0.09859324991703033
16.12288475036621 -9.824514389038086 0.09859329462051392
16.17941665649414 -9.812009811401367 0.09882913529872894
16.32520294189453 -9.806620597839355 0.09951207786798477
16.52397918701172 -9.785192489624023 0.09950394183397293
16.7249755859375 -9.76272964477539 0.1003325879573822
16.936233520507812 -9.743814468383789 0.10040640830993652
18.279224395751953 -9.616414070129395 0.10306552052497864
18.528362274169922 -9.599250793457031 0.10411704331636429
18.68213653564453 -9.579338073730469 0.10382665693759918
18.75818634033203 -9.569225311279297 0.10416429489850998
18.850954055786133 -9.566890716552734 0.10456302762031555
18.9340763092041 -9.558676719665527 0.10490933060646057
19.025611877441406 -9.555395126342773 0.105277881026268
19.091100692749023 -9.538312911987305 0.10556856542825699
19.17978858947754 -9.531891822814941 0.10593253374099731
19.26842498779297 -9.526130676269531 0.10542550683021545
19.359859466552734 -9.519925117492676 0.10666683316230774
19.432281494140625 -9.505511283874512 0.10701264441013336
19.530338287353516 -9.502882957458496 0.10742929577827454
19.6081600189209 -9.489416122436523 0.10776383429765701
19.699636459350586 -9.483282089233398 0.10814735293388367
19.78600311279297 -9.473913192749023 0.10850986838340759
19.884963989257812 -9.469554901123047 0.10891643166542053
19.96930694580078 -9.458932876586914 0.10829204320907593
20.061567306518555 -9.451288223266602 0.10869583487510681
20.149755477905273 -9.440713882446289 0.1091017797589302
20.324928283691406 -9.41860294342041 0.10944939404726028
20.411161422729492 -9.407161712646484 0.10977885127067566
20.57657241821289 -9.378535270690918 0.10952134430408478
20.622949600219727 -9.348033905029297 0.10979392379522324
20.701229095458984 -9.278620719909668 0.11021249741315842
20.748659133911133 -9.248217582702637 0.11047343909740448
21.384510040283203 -8.630331039428711 0.11359215527772903
21.50572395324707 -8.522422790527344 0.11335265636444092
21.536678314208984 -8.483019828796387 0.1136159673333168
21.59366798400879 -8.452225685119629 0.11390314996242523
21.6375675201416 -8.417667388916016 0.1141853928565979
21.69793128967285 -8.389348983764648 0.11455729603767395
21.709030151367188 -8.340373992919922 0.11469344794750214
21.748416900634766 -8.303751945495605 0.11396290361881256
21.790786743164062 -8.268157958984375 0.11425480991601944
21.823036193847656 -8.227104187011719 0.11446143686771393
21.876949310302734 -8.195616722106934 0.11481201648712158
21.917621612548828 -8.157978057861328 0.11660119891166687
21.95394515991211 -8.11919116973877 0.11685647815465927
21.985933303833008 -8.079195022583008 0.11701132357120514
21.999786376953125 -8.030983924865723 0.11700060963630676
22.00328826904297 -7.980555534362793 0.1169348731637001
22.03689956665039 -7.941037654876709 0.11608696728944778
22.038190841674805 -7.888352394104004 0.11601916700601578
22.038745880126953 -7.836994171142578 0.11596794426441193
22.012250900268555 -7.776154041290283 0.115765780210495
22.010719299316406 -7.722765922546387 0.1156562939286232
21.987951278686523 -7.663568496704102 0.11534681171178818
22.035053253173828 -7.627707481384277 0.11509676277637482
22.050983428955078 -7.581542491912842 0.11510986089706421
22.038217544555664 -7.52604866027832 0.11407200992107391
22.047027587890625 -7.476505279541016 0.11404447257518768
22.034175872802734 -7.421198844909668 0.11391618847846985
22.07278823852539 -7.382211685180664 0.1140618771314621
22.113006591796875 -7.293288230895996 0.1140991598367691
22.13251495361328 -7.247808456420898 0.1141299307346344
22.174562454223633 -7.159340858459473 0.11319883167743683
22.2546443939209 -7.031017780303955 0.11490586400032043
22.290544509887695 -6.8875226974487305 0.11490461230278015
22.331947326660156 -6.7468156814575195 0.11396385729312897
22.404508590698242 -6.5128679275512695 0.11349186301231384
22.404205322265625 -6.461921691894531 0.11341971904039383
22.428804397583008 -6.367290496826172 0.11342892050743103
22.447673797607422 -6.321873188018799 0.11246344447135925
22.460002899169922 -6.274057388305664 0.11245597153902054
22.466510772705078 -6.225643634796143 0.1124458983540535
22.477399826049805 -6.1779985427856445 0.11197996139526367
22.433757781982422 -6.064968109130859 0.11176574230194092
22.438684463500977 -6.015894889831543 0.11177991330623627
22.43332862854004 -5.963584899902344 0.11172793805599213
22.447805404663086 -5.867328643798828 0.1136130541563034
22.446744918823242 -5.816314697265625 0.11359000951051712
22.45006561279297 -5.767022609710693 0.11259634792804718
22.417953491210938 -5.708213806152344 0.11244197189807892
22.410125732421875 -5.65626335144043 0.11237183213233948
22.410146713256836 -5.606825828552246 0.11234384775161743
22.429853439331055 -5.561331748962402 0.11233633756637573
22.43124008178711 -5.51182746887207 0.1123703271150589
22.391925811767578 -5.45291805267334 0.11220726370811462
21.916656494140625 -5.288061141967773 0.11082875728607178
22.42753028869629 -5.361637115478516 0.11226141452789307
22.404048919677734 -5.305914878845215 0.11173394322395325
21.86590576171875 -5.1305694580078125 0.10925702750682831
22.386371612548828 -5.203239917755127 0.11065198481082916
21.82161521911621 -4.87906551361084 0.10552439093589783
21.827177047729492 -4.832345008850098 0.10546170175075531
21.818326950073242 -4.591081619262695 0.10346604138612747
21.964153289794922 -4.52525520324707 0.1066465973854065
21.86524200439453 -4.457596778869629 0.10572108626365662
21.962594985961914 -4.428597927093506 0.10609564185142517
22.187740325927734 -4.329020977020264 0.1081649586558342
22.426876068115234 -4.327385902404785 0.1103915423154831
21.913223266601562 -4.13262939453125 0.1045871302485466
21.90679359436035 -4.035951614379883 0.10442298650741577
21.89325523376465 -3.9865007400512695 0.1042664423584938
21.92932891845703 -3.897726058959961 0.1046174168586731
21.96978759765625 -3.8579025268554688 0.10497818887233734
22.000789642333984 -3.8149161338806152 0.1051895022392273
21.841114044189453 -3.740558385848999 0.10372215509414673
21.89306640625 -3.7027077674865723 0.10319875925779343
21.808345794677734 -3.6404762268066406 0.10243749618530273
21.85996437072754 -3.602480888366699 0.10284991562366486
21.818342208862305 -3.5013046264648438 0.1024823933839798
21.819185256958008 -3.455009937286377 0.10248427093029022
21.813932418823242 -3.4073777198791504 0.1024269089102745
21.674074172973633 -3.338526725769043 0.10104794055223465
21.807575225830078 -3.312776565551758 0.10229092836380005
21.87173843383789 -3.181983709335327 0.10240437835454941
22.114238739013672 -3.169037103652954 0.10470099747180939
22.207914352416992 -3.1354429721832275 0.10545672476291656
22.311260223388672 -3.1028244495391846 0.10547903180122375
22.249231338500977 -3.0457639694213867 0.1049550250172615
22.320274353027344 -3.0083155632019043 0.105439692735672
22.30515480041504 -2.9577770233154297 0.10575969517230988
22.30156707763672 -2.910220146179199 0.10571383684873581
22.282896041870117 -2.8607676029205322 0.10560192167758942
22.281005859375 -2.8121562004089355 0.10556285828351974
22.281139373779297 -2.7652111053466797 0.10557233542203903
22.28277587890625 -2.7180333137512207 0.10553393512964249
22.28094482421875 -2.6699564456939697 0.10507319122552872
22.257192611694336 -2.6202704906463623 0.1040317639708519
22.256465911865234 -2.571993350982666 0.10397474467754364
22.250892639160156 -2.5245683193206787 0.10393394529819489
22.250144958496094 -2.477726936340332 0.10386712849140167
22.259876251220703 -2.4306797981262207 0.10385109484195709
22.250198364257812 -2.3829097747802734 0.103817418217659
22.234085083007812 -2.3345251083374023 0.10187660902738571
22.232328414916992 -2.286334276199341 0.10184691846370697
22.229385375976562 -2.2394232749938965 0.10177016258239746
22.234203338623047 -2.192375898361206 0.10090912878513336
22.215530395507812 -2.1435585021972656 0.10072800517082214
22.21633529663086 -2.0971126556396484 0.10070677846670151
22.22067642211914 -2.0496408939361572 0.10066850483417511
22.19805335998535 -2.001105785369873 0.10014347732067108
22.201026916503906 -1.9549365043640137 0.10011632740497589
22.207395553588867 -1.907698154449463 0.10013332962989807
22.20699691772461 -1.86124849319458 0.10005304962396622
22.20551872253418 -1.814727783203125 0.10048064589500427
22.213720321655273 -1.7676358222961426 0.1004546731710434
22.20742416381836 -1.7207658290863037 0.10043065249919891
22.173233032226562 -1.6242051124572754 0.1002790778875351
22.172170639038086 -1.5778756141662598 0.09932117164134979
22.18231201171875 -1.5309780836105347 0.09931838512420654
22.136905670166016 -1.4816936254501343 0.09872735291719437
22.14374542236328 -1.3885027170181274 0.09873343259096146
22.133544921875 -1.34175705909729 0.09868396818637848
22.09410858154297 -1.246000051498413 0.09855864942073822
22.075668334960938 -1.1990082263946533 0.09659241139888763
22.050594329833984 -1.1504077911376953 0.09650918841362
22.046463012695312 -1.104321837425232 0.09649534523487091
22.049251556396484 -1.0576761960983276 0.09657001495361328
22.050312042236328 -1.0114375352859497 0.09653036296367645
22.037052154541016 -0.9650062322616577 0.09552545100450516
22.03453826904297 -0.9181685447692871 0.09552878141403198
22.016433715820312 -0.8712214231491089 0.0953730046749115
22.025066375732422 -0.8257889151573181 0.09538142383098602
21.991230010986328 -0.7779078483581543 0.09488210082054138
21.99251937866211 -0.7318326234817505 0.09487084299325943
21.981355667114258 -0.6857980489730835 0.09517432004213333
21.980716705322266 -0.6387796998023987 0.09514807164669037
21.974594116210938 -0.5929643511772156 0.09515468776226044
21.960092544555664 -0.5460562109947205 0.09505175054073334
21.971351623535156 -0.500288724899292 0.09508408606052399
21.950366973876953 -0.45423802733421326 0.09499939531087875
21.948150634765625 -0.4077143669128418 0.0946049690246582
21.936721801757812 -0.36153873801231384 0.09452194720506668
21.9390926361084 -0.31512656807899475 0.09461448341608047
21.922698974609375 -0.26938867568969727 0.09357844293117523
21.928863525390625 -0.22352582216262817 0.0935702845454216
21.919641494750977 -0.1770281195640564 0.0935259461402893
21.893871307373047 -0.13095855712890625 0.09343871474266052
21.89623260498047 -0.08553259074687958 0.0916222631931305
21.882259368896484 -0.03915710002183914 0.0915583074092865
20.03963851928711 3.7040886878967285 0.0336170457303524
20.00436782836914 3.7847628593444824 0.033593110740184784
19.989002227783203 3.824838876724243 0.03322489187121391
19.95067596435547 3.904672622680664 0.03403690084815025
19.884674072265625 4.021712303161621 0.03397893160581589
19.21135902404785 5.466047286987305 0.031064758077263832
19.16033172607422 5.581968784332275 0.031024089083075523
19.11478042602539 5.656139373779297 0.03065832331776619
19.089828491210938 5.691865921020508 0.030639056116342545
19.070722579956055 5.773735046386719 0.03148777037858963
19.027782440185547 5.803868770599365 0.031471531838178635
18.966325759887695 5.8725433349609375 0.03142891451716423
18.935243606567383 5.906007289886475 0.031375475227832794
18.89031219482422 5.979403495788574 0.0309965331107378
18.865365982055664 6.014608383178711 0.031003132462501526
18.8452205657959 6.095736503601074 0.031026490032672882
18.777063369750977 6.204351902008057 0.03095991536974907
16.583389282226562 6.583340644836426 0.025588102638721466
16.31842041015625 6.59720516204834 0.024926593527197838
16.15267562866211 6.6094770431518555 0.023945853114128113
16.0667781829834 6.613286018371582 0.023848075419664383
15.915056228637695 6.6293535232543945 0.023657694458961487
15.821904182434082 6.629115581512451 0.02355823665857315
15.680055618286133 6.64744758605957 0.023057451471686363
15.597877502441406 6.6508283615112305 0.022961514070630074
15.451791763305664 6.665582656860352 0.022779079154133797
15.356063842773438 6.662118911743164 0.0226720180362463
15.205463409423828 6.673011302947998 0.02248293161392212
15.135536193847656 6.679815769195557 0.0213956069201231
14.969712257385254 6.682096004486084 0.021212561056017876
14.916982650756836 6.695716857910156 0.02113674022257328
14.765295028686523 6.7024827003479 0.02096547931432724
14.69294548034668 6.7072224617004395 0.020881421864032745
13.156009674072266 6.825668811798096 0.01704644039273262
12.98692512512207 6.84190559387207 0.01626533269882202
12.803367614746094 6.848662376403809 0.015835771337151527
12.698391914367676 6.861159324645996 0.014495734125375748
12.628925323486328 6.85780668258667 0.014418142847716808
12.52309799194336 6.868505001068115 0.01434388104826212
12.481069564819336 6.879467964172363 0.0143000902608037
12.421820640563965 6.880457878112793 0.013994668610394001
12.370340347290039 6.886516571044922 0.01395479403436184
12.306316375732422 6.884366989135742 0.013915830291807652
12.256061553955078 6.890388488769531 0.013862243853509426
12.206449508666992 6.896153450012207 0.013831615447998047
12.151644706726074 6.898495674133301 0.013771804049611092
12.089604377746582 6.897187232971191 0.013974188826978207
12.043588638305664 6.9043803215026855 0.013912714086472988
11.999902725219727 6.912461280822754 0.013642499223351479
11.942506790161133 6.913140773773193 0.013597513549029827
11.836492538452148 6.918487071990967 0.012908435426652431
11.675028800964355 6.922947883605957 0.012785940431058407
11.521341323852539 6.930081367492676 0.01242664735764265
11.37474536895752 6.939655303955078 0.011144867166876793
10.537137985229492 6.988078594207764 0.009818357415497303
10.40971565246582 6.99819278717041 0.009501256048679352
10.325006484985352 7.0045599937438965 0.007841631770133972
10.279651641845703 7.0049848556518555 0.007797041907906532
10.238761901855469 7.008542060852051 0.007782908156514168
10.188587188720703 7.005946159362793 0.007768527138978243
10.161827087402344 7.018647193908691 0.00774316256865859
10.113174438476562 7.016347408294678 0.007499053608626127
10.067305564880371 7.016167640686035 0.007482743822038174
10.031840324401855 7.022686004638672 0.0074643478728830814
9.989156723022461 7.024389743804932 0.007450691889971495
9.945846557617188 7.0248260498046875 0.007428332697600126
9.904373168945312 7.026644706726074 0.007403763476759195
9.862465858459473 7.028374671936035 0.007599253673106432
9.821796417236328 7.0301713943481445 0.007579335011541843
9.770452499389648 7.024387836456299 0.007550422102212906
9.74715805053711 7.03901481628418 0.007532840594649315
9.65404987335205 7.033181190490723 0.007494786288589239
9.618734359741211 7.038699150085449 0.006738415919244289
9.53277587890625 7.037632942199707 0.006708365399390459
9.510287284851074 7.051568984985352 0.006683024577796459
9.420621871948242 7.046764373779297 0.006651616655290127
9.383654594421387 7.049527168273926 0.006129515822976828
9.313772201538086 7.058584690093994 0.005891862791031599
9.20832633972168 7.070246696472168 0.005836589727550745
8.664121627807617 7.097033500671387 0.004943679552525282
8.546795845031738 7.091177463531494 0.004898095969110727
8.516735076904297 7.096127510070801 0.004414779134094715
8.481999397277832 7.097939491271973 0.004397605080157518
8.456958770751953 7.106876373291016 0.004387473221868277
8.417539596557617 7.103606224060059 0.004200534895062447
8.392069816589355 7.112862586975098 0.004197466652840376
8.35773754119873 7.113619804382324 0.0041809724643826485
8.32487964630127 7.115747451782227 0.004182642325758934
8.288719177246094 7.115287780761719 0.004154741298407316
8.259660720825195 7.120167255401611 0.004159922711551189
8.219522476196289 7.1162309646606445 0.003938288893550634
8.187734603881836 7.1184892654418945 0.003956382628530264
8.15970230102539 7.123904228210449 0.003941405564546585
8.121930122375488 7.121560096740723 0.004121666774153709
8.097288131713867 7.129729270935059 0.004100556951016188
8.061777114868164 7.1282148361206055 0.004092229995876551
8.0264892578125 7.127623558044434 0.0040865312330424786
8.004838943481445 7.138164043426514 0.0040902807377278805
7.963078498840332 7.130894660949707 0.004065707325935364
7.942441940307617 7.142796516418457 0.004066823050379753
7.897729873657227 7.132286548614502 0.003858789801597595
7.873233795166016 7.140758514404297 0.003852278459817171
7.838479042053223 7.138941287994385 0.003864053636789322
7.80850887298584 7.141345500946045 0.0038244379684329033
7.771157264709473 7.13773250579834 0.00382676487788558
7.740263938903809 7.139025688171387 0.003798473160713911
7.680535793304443 7.144034385681152 0.0036176959984004498
7.656518459320068 7.151386737823486 0.0035966113209724426
7.557518482208252 7.148405075073242 0.003604214172810316
7.471177101135254 7.156887054443359 0.0033840686082839966
7.149104118347168 7.171862602233887 0.002882246393710375
7.068304061889648 7.180776596069336 0.0026748566888272762
7.038291931152344 7.18002986907959 0.0026632011868059635
7.00970458984375 7.181241989135742 0.0026691285893321037
6.982539176940918 7.183422565460205 0.002687295898795128
6.954124927520752 7.183959484100342 0.0026754625141620636
6.918398857116699 7.177671909332275 0.002480874303728342
6.886030197143555 7.173825263977051 0.0024900161661207676
6.867912292480469 7.18473482131958 0.002492699306458235
6.838983535766602 7.185139179229736 0.0024805208668112755
6.808541297912598 7.182945251464844 0.002472903113812208
6.783690452575684 7.187166690826416 0.002450672909617424
6.759119033813477 7.191221237182617 0.0022956239990890026
6.727712154388428 7.1876373291015625 0.002274005673825741
6.7071123123168945 7.196130275726318 0.002436527982354164
6.676905632019043 7.193845272064209 0.0024541784077882767
6.651588439941406 7.196461200714111 0.0024359910748898983
6.624239444732666 7.197657585144043 0.0024270163848996162
6.604971885681152 7.20667839050293 0.002249359618872404
6.572997093200684 7.201738357543945 0.0022378265857696533
6.547702312469482 7.204874515533447 0.0022495007142424583
6.52249002456665 7.207124710083008 0.0022526737302541733
6.489774227142334 7.2015862464904785 0.002243275288492441
6.456427097320557 7.194799423217773 0.0022453484125435352
6.4400153160095215 7.206541061401367 0.002069997601211071
6.413078308105469 7.20707368850708 0.0020633935928344727
6.379327297210693 7.199424743652344 0.0024896664544939995
6.3584089279174805 7.206521987915039 0.0024863211438059807
6.3107500076293945 7.212879657745361 0.0024794633500277996
6.279314994812012 7.207711219787598 0.0024607377126812935
6.22889518737793 7.210291862487793 0.002298643346875906
6.207856178283691 7.216792106628418 0.0022791633382439613
6.157591819763184 7.218998908996582 0.0022832583636045456
6.078995704650879 7.218912124633789 0.0022783204913139343
6.003078937530518 7.220404148101807 0.0020893029868602753
5.934260368347168 7.229604244232178 0.0020763794891536236
5.88005256652832 7.225399017333984 0.002067764289677143
5.855393409729004 7.225931167602539 0.002070973627269268
5.809426784515381 7.230996131896973 0.0018940712325274944
5.785877704620361 7.232630729675293 0.0023016645573079586
5.765676021575928 7.238767147064209 0.0022986498661339283
5.738785266876221 7.235767364501953 0.0022944998927414417
5.718963146209717 7.241848945617676 0.0022995565086603165
5.695497512817383 7.243638038635254 0.0021231239661574364
5.662536144256592 7.2325568199157715 0.0021332232281565666
5.645486831665039 7.241949558258057 0.002137708943337202
5.618017196655273 7.238290309906006 0.002128858119249344
5.589390277862549 7.232603073120117 0.0021204384975135326
5.579681396484375 7.251089572906494 0.0021099927835166454
5.548381328582764 7.242111682891846 0.001964785158634186
5.524247169494629 7.241949081420898 0.0021125394850969315
5.50680685043335 7.2508955001831055 0.0021100351586937904
5.481918811798096 7.249571800231934 0.0021081366576254368
5.4577555656433105 7.248836517333984 0.0020985975861549377
5.433490753173828 7.2485198974609375 0.0019250600598752499
5.4145050048828125 7.2547736167907715 0.0019269706681370735
5.3901824951171875 7.253539085388184 0.001909259706735611
5.364938735961914 7.251614570617676 0.001922754105180502
5.341399192810059 7.251483917236328 0.00191181106492877
5.32838773727417 7.266011714935303 0.0019215792417526245
5.303380966186523 7.263470649719238 0.0017498400993645191
5.269956588745117 7.249497413635254 0.0017584259621798992
5.258393287658691 7.265911102294922 0.0017509064637124538
5.235507965087891 7.266253471374512 0.0017565577290952206
5.208867073059082 7.261672019958496 0.0017427592538297176
5.189242362976074 7.2661027908325195 0.0017562191933393478
5.17142915725708 7.27329158782959 0.0015908009372651577
5.147167682647705 7.271747589111328 0.0015988019295036793
5.113114356994629 7.255519390106201 0.0015953085385262966
5.094399452209473 7.261185169219971 0.001592615619301796
5.07948637008667 7.272655487060547 0.001584621611982584
5.047923564910889 7.259510040283203 0.0015905681066215038
5.031085968017578 7.267693519592285 0.0014196871779859066
5.00775671005249 7.266846656799316 0.0014312788844108582
4.964208602905273 7.268982887268066 0.0014201612211763859
4.9445037841796875 7.272488117218018 0.0014129341579973698
4.901985168457031 7.275663375854492 0.0014025126583874226
4.879560947418213 7.274914741516113 0.0014103185385465622
4.8307647705078125 7.2681450843811035 0.0012689055874943733
4.792147159576416 7.276329517364502 0.0012556742876768112
4.767316818237305 7.271432876586914 0.0012679724022746086
4.724704742431641 7.273055076599121 0.0012635006569325924
4.711337566375732 7.285528182983398 0.001475525088608265
4.656194686889648 7.267193794250488 0.0014851519372314215
4.650468349456787 7.291522979736328 0.0014737648889422417
4.6270365715026855 7.2890825271606445 0.0014756890013813972
4.608805179595947 7.293770790100098 0.0014633103273808956
4.582322597503662 7.285575866699219 0.0014640351291745901
4.563383102416992 7.289690017700195 0.0013180405367165804
4.54117488861084 7.287797927856445 0.0013180493842810392
4.519466876983643 7.286888122558594 0.001314770895987749
4.51007604598999 7.3062639236450195 0.0013001353945583105
4.486376762390137 7.301727771759033 0.001310077728703618
4.461005210876465 7.2953290939331055 0.0013107552658766508
4.439821720123291 7.294655799865723 0.0013139494694769382
4.41990852355957 7.295987129211426 0.001156758749857545
4.403365135192871 7.303840637207031 0.0011484648566693068
4.383362293243408 7.304902076721191 0.001156193669885397
4.361045837402344 7.302302360534668 0.0011520590633153915
4.338089942932129 7.298953056335449 0.0011524776928126812
4.316473484039307 7.297018051147461 0.0011439283844083548
4.2929487228393555 7.292756080627441 0.0011478527449071407
4.275355815887451 7.297468185424805 0.0010059431660920382
4.25447416305542 7.296498775482178 0.0010052809957414865
4.230277061462402 7.290749549865723 0.0009879765566438437
4.214034080505371 7.297600269317627 0.0006152084097266197
24.715028762817383 2.8172688484191895 0.24806831777095795
24.428693771362305 3.357161045074463 0.2433178722858429
23.630422592163086 5.140702247619629 0.23621857166290283
23.565916061401367 5.282044410705566 0.23545312881469727
23.51470947265625 5.426043510437012 0.23634278774261475
21.6956844329834 6.966571807861328 0.2207651287317276
21.413677215576172 6.975634574890137 0.21779221296310425
21.290771484375 6.984499454498291 0.21666331589221954
21.01200294494629 6.9912004470825195 0.215101957321167
20.88885498046875 6.998406410217285 0.21399109065532684
20.646251678466797 7.013973236083984 0.21179082989692688
20.293197631835938 7.036637783050537 0.20821505784988403
19.919858932495117 7.047776699066162 0.20388606190681458
19.57729148864746 7.065365791320801 0.20082777738571167
16.495759963989258 7.197281837463379 0.1716098189353943
16.315322875976562 7.200496673583984 0.17003808915615082
16.257904052734375 7.215500831604004 0.16955873370170593
16.071674346923828 7.214018821716309 0.16794636845588684
16.008907318115234 7.225796222686768 0.16745224595069885
15.825700759887695 7.223484992980957 0.16555875539779663
15.756916046142578 7.2316365242004395 0.16421930491924286
15.598447799682617 7.238590240478516 0.162862628698349
15.536739349365234 7.249177932739258 0.1624014675617218
15.363739013671875 7.247403144836426 0.1606123298406601
15.275307655334473 7.244479179382324 0.15985369682312012
15.14381217956543 7.26039457321167 0.15878891944885254
14.931842803955078 7.2745680809021 0.15702489018440247
14.703279495239258 7.2779412269592285 0.15410298109054565
13.264166831970215 7.346732139587402 0.14053945243358612
13.088729858398438 7.357765197753906 0.1391599029302597
12.917033195495605 7.368492126464844 0.13756200671195984
12.808034896850586 7.377682685852051 0.1354386806488037
12.7254638671875 7.365629196166992 0.13476327061653137
12.62828254699707 7.3802595138549805 0.1338132917881012
12.578683853149414 7.386627197265625 0.1334182173013687
12.442920684814453 7.377552032470703 0.1323307454586029
12.400527954101562 7.387240409851074 0.1320512443780899
12.345895767211914 7.390181064605713 0.13162583112716675
12.279547691345215 7.38541316986084 0.13108867406845093
12.232973098754883 7.392012596130371 0.12986120581626892
12.180685043334961 7.395694732666016 0.12948569655418396
12.121210098266602 7.394343852996826 0.12926486134529114
12.059904098510742 7.392052173614502 0.128786101937294
12.02157974243164 7.402924537658691 0.12851758301258087
11.95688247680664 7.397639274597168 0.12802588939666748
11.925594329833984 7.413266181945801 0.12782040238380432
11.810798645019531 7.410329818725586 0.12667402625083923
11.753873825073242 7.409368991851807 0.12625136971473694
10.863309860229492 7.435772895812988 0.11765965819358826
10.72986888885498 7.44392204284668 0.11669529974460602
10.58517837524414 7.442548751831055 0.11541174352169037
10.44229793548584 7.440624237060547 0.11436145007610321
10.36507797241211 7.451615333557129 0.11219270527362823
10.319833755493164 7.451621055603027 0.11187435686588287
10.222448348999023 7.4469990730285645 0.11094930022954941
10.185118675231934 7.452479839324951 0.11070339381694794
10.08942699432373 7.4476318359375 0.10998781025409698
10.061979293823242 7.459950923919678 0.10987237095832825
10.014958381652832 7.458024978637695 0.1095241978764534
9.969928741455078 7.456705093383789 0.10898803174495697
9.939767837524414 7.466631889343262 0.10880660265684128
9.891084671020508 7.4628987312316895 0.10792052745819092
9.848827362060547 7.463138580322266 0.10804316401481628
9.791912078857422 7.45231819152832 0.10739654302597046
9.766368865966797 7.465610027313232 0.10727417469024658
9.717950820922852 7.460869789123535 0.10694620013237
9.677927017211914 7.462786674499512 0.10666296631097794
9.646296501159668 7.470366954803467 0.10645723342895508
9.54820728302002 7.4589433670043945 0.10574827343225479
9.526143074035645 7.473590850830078 0.10544180870056152
9.438359260559082 7.469149112701416 0.1048169881105423
9.404237747192383 7.473935127258301 0.10462133586406708
9.322978019714355 7.473633766174316 0.1035420149564743
9.215760231018066 7.483334064483643 0.10264068841934204
8.761712074279785 7.4888691902160645 0.09917785972356796
8.645285606384277 7.483921051025391 0.09840318560600281
8.54849910736084 7.494665145874023 0.09759800136089325
8.473499298095703 7.492260932922363 0.09663057327270508
8.436022758483887 7.490374565124512 0.09638187289237976
8.37205696105957 7.496870994567871 0.09602831304073334
8.33485221862793 7.494778633117676 0.0957631766796112
8.300119400024414 7.49501895904541 0.09535225480794907
8.286843299865723 7.514967441558838 0.09536087512969971
8.239789962768555 7.503517150878906 0.09501786530017853
8.215888977050781 7.513262748718262 0.09491390734910965
8.181291580200195 7.513515949249268 0.09469366073608398
8.151498794555664 7.517398834228516 0.09453929960727692
8.113797187805176 7.514767646789551 0.09408877044916153
8.087596893310547 7.521740913391113 0.09433727711439133
8.0473051071167 7.5157341957092285 0.09385643899440765
8.014703750610352 7.517145156860352 0.09367749840021133
7.977962493896484 7.513864517211914 0.09343113005161285
7.944265365600586 7.514216423034668 0.09321363270282745
7.912727355957031 7.515558242797852 0.09303387999534607
7.886495590209961 7.521834373474121 0.09289824217557907
7.843146324157715 7.512551307678223 0.09258893877267838
7.816080093383789 7.517788410186768 0.09223995357751846
7.785422325134277 7.519467353820801 0.09209967404603958
7.755647659301758 7.522798538208008 0.0919126644730568
7.713242530822754 7.512796401977539 0.09160144627094269
7.651256084442139 7.515471935272217 0.09124021232128143
7.635517120361328 7.5312089920043945 0.09105361998081207
7.574496269226074 7.534217834472656 0.090690478682518
7.534366130828857 7.525469779968262 0.09040556102991104
7.47532844543457 7.529656410217285 0.08960777521133423
7.449771881103516 7.535125255584717 0.08950002491474152
7.2009687423706055 7.533154487609863 0.08783110976219177
7.104506492614746 7.526407241821289 0.0872727558016777
7.032788276672363 7.544891357421875 0.08674789220094681
6.96497917175293 7.535260200500488 0.08631804585456848
6.954889297485352 7.556004524230957 0.08638013899326324
6.913801670074463 7.542718410491943 0.08605241775512695
6.885246276855469 7.543856143951416 0.08591802418231964
6.853076457977295 7.539973735809326 0.08551441133022308
6.8272809982299805 7.5429840087890625 0.08540338277816772
6.79486083984375 7.5394744873046875 0.08521315455436707
6.7731146812438965 7.546777725219727 0.0851309597492218
6.748679161071777 7.551015853881836 0.08500409126281738
6.716988563537598 7.547947883605957 0.08480379730463028
6.687106609344482 7.54584264755249 0.08463245630264282
6.665668487548828 7.553835868835449 0.08439286053180695
6.638826370239258 7.555225372314453 0.08440183848142624
6.607764720916748 7.551423072814941 0.0842311829328537
6.577645778656006 7.5494842529296875 0.08403600007295609
6.557384967803955 7.557838439941406 0.08396460860967636
6.530063152313232 7.5586442947387695 0.0836649090051651
6.497181415557861 7.552473068237305 0.08345887064933777
6.474568843841553 7.557855129241943 0.08336392790079117
6.443533897399902 7.553963661193848 0.083170585334301
6.426631450653076 7.566158294677734 0.08314024657011032
6.396705627441406 7.562676429748535 0.0829712525010109
6.372735023498535 7.567061901092529 0.08285613358020782
6.344632148742676 7.5655012130737305 0.08252879232168198
6.311254978179932 7.558170318603516 0.08273537456989288
6.283928871154785 7.557534217834473 0.08258874714374542
6.26472282409668 7.566319942474365 0.08252577483654022
6.23550271987915 7.563597679138184 0.08236554265022278
6.206876754760742 7.561054229736328 0.08217959851026535
6.184038162231445 7.565191268920898 0.08193955570459366
6.155603408813477 7.563053131103516 0.08175177872180939
6.099427223205566 7.558156967163086 0.08144756406545639
6.032235145568848 7.572481155395508 0.08118709921836853
5.961305141448975 7.580744743347168 0.08083867281675339
5.905333995819092 7.575006484985352 0.08035951107740402
5.878296852111816 7.572681903839111 0.08019545674324036
5.823715686798096 7.567952632904053 0.07989472150802612
5.750262260437012 7.570498466491699 0.07938946038484573
5.701702117919922 7.572566509246826 0.07955500483512878
5.67990779876709 7.57628870010376 0.07947755604982376
5.662111282348633 7.5855712890625 0.07944710552692413
5.631885051727295 7.578522682189941 0.07926073670387268
5.602334976196289 7.571802616119385 0.07888680696487427
5.5873637199401855 7.584436416625977 0.07891467213630676
5.566178321838379 7.589300632476807 0.0788385272026062
5.533354759216309 7.577747344970703 0.07860595732927322
5.515578269958496 7.586407661437988 0.07855275273323059
5.490543842315674 7.585716247558594 0.07844240218400955
5.468385219573975 7.588483810424805 0.07818789780139923
5.442437648773193 7.5863142013549805 0.0782007947564125
5.426259994506836 7.596999645233154 0.07820060104131699
5.392449855804443 7.583165168762207 0.07795353978872299
5.3681960105896 7.583026885986328 0.0776645690202713
5.349336624145508 7.590014457702637 0.07761025428771973
5.3255205154418945 7.590328216552734 0.077501080930233
5.301041603088379 7.588883876800537 0.07737690210342407
5.274796485900879 7.585072994232178 0.07721847295761108
5.253115177154541 7.588147163391113 0.07713618874549866
5.231716156005859 7.590846538543701 0.07705330848693848
5.200963973999023 7.58012580871582 0.07667411863803864
5.179285049438477 7.582921028137207 0.07658474892377853
5.16201114654541 7.591407775878906 0.07658053934574127
5.141582012176514 7.595497131347656 0.0764925479888916
5.110759735107422 7.58453369140625 0.07629361748695374
5.091359615325928 7.589967727661133 0.07622822374105453
5.073492527008057 7.59808349609375 0.07604700326919556
5.047734260559082 7.593581676483154 0.07589009404182434
5.026191711425781 7.595602989196777 0.07581216096878052
5.003626823425293 7.596428871154785 0.07569985091686249
4.957432746887207 7.595015525817871 0.07549963146448135
4.93522834777832 7.596113204956055 0.07524961233139038
4.893278121948242 7.601426124572754 0.0750930905342102
4.86428165435791 7.590946674346924 0.07489065825939178
4.824720859527588 7.599472999572754 0.0747729018330574
4.803436279296875 7.6007609367370605 0.07468975335359573
4.782351970672607 7.603315830230713 0.07459212094545364
4.755572319030762 7.595669269561768 0.07444438338279724
4.714446067810059 7.600964546203613 0.0741385817527771
4.696842193603516 7.607783317565918 0.07409968972206116
4.649110317230225 7.60190486907959 0.07386425137519836
4.629510879516602 7.6052703857421875 0.07381164282560349
4.58239221572876 7.599742889404297 0.07381266355514526
4.554101467132568 7.588390350341797 0.073593370616436
4.5453009605407715 7.6105265617370605 0.0737137645483017
4.521116256713867 7.605842590332031 0.0735677108168602
4.503184795379639 7.61189603805542 0.0735464096069336
4.474903106689453 7.600795269012451 0.07319600135087967
4.459926605224609 7.611441135406494 0.0731937438249588
4.43930196762085 7.61271858215332 0.07312685251235962
4.4147868156433105 7.6076765060424805 0.0729910135269165
4.40403413772583 7.625555038452148 0.07305055856704712
4.379322052001953 7.620307922363281 0.07292258739471436
4.352532386779785 7.610204219818115 0.07274727523326874
4.332210540771484 7.6115875244140625 0.07267537713050842
4.318358421325684 7.62478494644165 0.0725453794002533
4.2928290367126465 7.616524696350098 0.07238900661468506
4.274962425231934 7.622849941253662 0.07236205041408539
4.249318599700928 7.614116668701172 0.07220391184091568
4.232473850250244 7.621054649353027 0.07217016816139221
4.210605144500732 7.619983196258545 0.07209564000368118
4.186297416687012 7.613272666931152 0.07178255915641785
4.163521766662598 7.609209060668945 0.0716693177819252
4.147413730621338 7.618373394012451 0.07167518138885498
4.124345779418945 7.613582134246826 0.07154633104801178
4.103437423706055 7.612977981567383 0.07145563513040543
23.2169246673584 0.0056681944988667965 0.17095203697681427
23.224193572998047 0.05431891232728958 0.16949450969696045
23.18931007385254 0.10332219302654266 0.16931572556495667
23.17368507385254 0.19989052414894104 0.16922783851623535
23.137786865234375 0.24855998158454895 0.16899478435516357
23.159706115722656 0.2968630790710449 0.16911858320236206
23.156494140625 0.34629908204078674 0.16909025609493256
23.138898849487305 0.3940659463405609 0.1671055257320404
23.135129928588867 0.4424811005592346 0.16712266206741333
23.097766876220703 0.8293042182922363 0.16536177694797516
23.074779510498047 0.8778393864631653 0.16522036492824554
23.04810333251953 0.9247268438339233 0.1641702950000763
23.05790138244629 0.9744605422019958 0.16422532498836517
23.026676177978516 1.0210154056549072 0.16407698392868042
23.013334274291992 1.0682793855667114 0.1640506237745285
23.004884719848633 1.1171417236328125 0.16396379470825195
22.998363494873047 1.1646686792373657 0.16397619247436523
23.009124755859375 1.2130897045135498 0.1639590561389923
22.973814010620117 1.2604472637176514 0.16381213068962097
22.966217041015625 1.307838797569275 0.163753479719162
22.957666397094727 1.3565598726272583 0.1627049446105957
22.938899993896484 1.4032258987426758 0.16225773096084595
22.93218421936035 1.4997789859771729 0.16129185259342194
22.920074462890625 1.5467609167099 0.16117802262306213
22.910282135009766 1.6430524587631226 0.1611652374267578
22.900836944580078 1.690150499343872 0.16112710535526276
22.875045776367188 1.7851390838623047 0.16104277968406677
22.887102127075195 1.8338720798492432 0.15970200300216675
22.869014739990234 1.8815985918045044 0.15959186851978302
22.845842361450195 1.927430510520935 0.1594829261302948
22.838788986206055 1.9745762348175049 0.15947121381759644
22.834991455078125 2.023402452468872 0.15944495797157288
22.83134651184082 2.0708398818969727 0.15855032205581665
22.81710433959961 2.118701457977295 0.15847091376781464
22.788631439208984 2.1637651920318604 0.15842291712760925
22.783754348754883 2.2110188007354736 0.1579509973526001
22.775484085083008 2.25933837890625 0.15790440142154694
22.773401260375977 2.306865692138672 0.15794909000396729
22.76572036743164 2.3538260459899902 0.15696662664413452
22.769554138183594 2.4033944606781006 0.15700608491897583
22.74748992919922 2.4488072395324707 0.1568765491247177
22.741374969482422 2.4963505268096924 0.15690669417381287
22.73474884033203 2.5443356037139893 0.15686598420143127
22.725448608398438 2.5910563468933105 0.15685084462165833
22.703535079956055 2.637700080871582 0.15632203221321106
22.694042205810547 2.6843390464782715 0.15540066361427307
22.691200256347656 2.7322137355804443 0.1553681492805481
22.697593688964844 2.7817349433898926 0.15540677309036255
22.6566219329834 2.824448823928833 0.15518870949745178
22.58087158203125 2.9592843055725098 0.15477845072746277
22.542150497436523 3.0032052993774414 0.15413741767406464
22.524160385131836 3.048393487930298 0.15398457646369934
22.48706817626953 3.090907096862793 0.15380284190177917
22.460559844970703 3.136164903640747 0.15275059640407562
22.418689727783203 3.177762985229492 0.15163229405879974
22.383819580078125 3.269040107727051 0.15149334073066711
22.337268829345703 3.309598922729492 0.15089231729507446
22.316213607788086 3.3552136421203613 0.15080301463603973
22.299898147583008 3.4000980854034424 0.15068727731704712
22.281843185424805 3.444674491882324 0.15061193704605103
22.250667572021484 3.488539695739746 0.15052580833435059
22.232093811035156 3.5329129695892334 0.1503940224647522
22.20807647705078 3.6250505447387695 0.14940306544303894
22.192358016967773 3.6697816848754883 0.14887133240699768
22.1612548828125 3.7132914066314697 0.14970336854457855
22.147235870361328 3.758209705352783 0.1496294140815735
22.112934112548828 3.8482666015625 0.14854836463928223
22.090045928955078 3.8915295600891113 0.14849871397018433
22.04613494873047 3.979592800140381 0.14785319566726685
22.024635314941406 4.022924423217773 0.14777874946594238
21.999364852905273 4.065949440002441 0.1476840227842331
21.993900299072266 4.113101005554199 0.14772027730941772
21.967361450195312 4.155336856842041 0.14757053554058075
21.95406150817871 4.201417922973633 0.14751841127872467
21.918251037597656 4.241734027862549 0.14650607109069824
21.901107788085938 4.2860331535339355 0.1454935073852539
21.880346298217773 4.330075263977051 0.14540646970272064
21.836471557617188 4.368502140045166 0.1451823115348816
21.826444625854492 4.415009021759033 0.14474144577980042
21.818328857421875 4.460516929626465 0.14474911987781525
21.808589935302734 4.505694389343262 0.1447424739599228
21.7570858001709 4.543537139892578 0.1444985270500183
21.744089126586914 4.587934970855713 0.14446145296096802
21.728984832763672 4.632314205169678 0.1444561928510666
21.71988296508789 4.678456783294678 0.14310908317565918
21.66592788696289 4.713903427124023 0.14277760684490204
21.66651153564453 4.761588096618652 0.14468738436698914
21.640880584716797 4.803995132446289 0.14462928473949432
21.609521865844727 4.844555377960205 0.14356891810894012
21.57628631591797 4.8850908279418945 0.1434260606765747
21.558528900146484 4.928123474121094 0.142959862947464
21.531570434570312 4.969447135925293 0.14289072155952454
21.518699645996094 5.014471530914307 0.14285621047019958
21.507999420166016 5.059057712554932 0.14287765324115753
21.488262176513672 5.1019439697265625 0.1427491456270218
21.467391967773438 5.145011901855469 0.142694890499115
21.456201553344727 5.189436912536621 0.1422579437494278
21.44218635559082 5.234557151794434 0.14136289060115814
21.42731475830078 5.278066158294678 0.14088942110538483
21.377391815185547 5.361360549926758 0.1406831592321396
21.37364387512207 5.407589912414551 0.14077195525169373
21.35957908630371 5.45260763168335 0.1407545953989029
21.334291458129883 5.493334770202637 0.140208438038826
21.311527252197266 5.534656524658203 0.14014171063899994
21.281906127929688 5.5755205154418945 0.14004899561405182
21.269908905029297 5.619572162628174 0.13998427987098694
21.229337692260742 5.704606056213379 0.138994038105011
21.206022262573242 5.745552062988281 0.13843518495559692
21.191162109375 5.83743143081665 0.14032268524169922
21.131694793701172 5.916910171508789 0.1400197297334671
21.11825180053711 5.960434436798096 0.13957327604293823
21.09535026550293 6.001709938049316 0.139576718211174
21.081472396850586 6.046023368835449 0.13956333696842194
21.05243492126465 6.085005283355713 0.13944096863269806
21.041736602783203 6.129702568054199 0.1394111067056656
