VERSION .7
FIELDS x y z
SIZE 4 4 4
TYPE F F F
COUNT 1 1 1
WIDTH 824
HEIGHT 1
VIEWPOINT 0 0 0 1 0 0 0
POINTS 824
DATA ascii
5.314364433288574 6.475201606750488 -0.0806497260928154
5.290327548980713 6.473303318023682 -0.08000554144382477
5.27083158493042 6.477595806121826 -0.07991944998502731
5.243901252746582 6.471888542175293 -0.07968760281801224
5.225541591644287 6.4774699211120605 -0.07913772016763687
5.210511207580566 6.486336708068848 -0.07911373674869537
5.189968109130859 6.488295078277588 -0.07897936552762985
5.163403511047363 6.483429908752441 -0.07830636948347092
5.1471757888793945 6.490647792816162 -0.07823790609836578
5.128920555114746 6.495268821716309 -0.07768649607896805
5.109212398529053 6.498805522918701 -0.07759783416986465
5.089363098144531 6.501280784606934 -0.07747454941272736
5.067729473114014 6.501439571380615 -0.07687395811080933
5.043396949768066 6.4987640380859375 -0.07671499252319336
5.0111541748046875 6.484957218170166 -0.07640250772237778
5.003803730010986 6.504114627838135 -0.07602789998054504
4.984379768371582 6.506762981414795 -0.07593777775764465
4.972111225128174 6.518723964691162 -0.07498248666524887
4.944762229919434 6.511669158935547 -0.0747532919049263
4.919965744018555 6.507006645202637 -0.0741107314825058
4.907064437866211 6.518800735473633 -0.07412555068731308
4.890514850616455 6.524996280670166 -0.07405425608158112
4.872202396392822 6.528750419616699 -0.07351090759038925
4.8388495445251465 6.513038635253906 -0.07319104671478271
4.827799320220947 6.5264129638671875 -0.07322864979505539
4.8075270652771 6.527296543121338 -0.0726577565073967
4.796877861022949 6.542058944702148 -0.07268185168504715
4.77384614944458 6.539061546325684 -0.07207033783197403
4.7275390625 6.533229827880859 -0.07175964117050171
4.71938943862915 6.5505475997924805 -0.07137560099363327
4.693245887756348 6.543688774108887 -0.07119156420230865
4.678954601287842 6.552430629730225 -0.0711548700928688
4.665937900543213 6.562957763671875 -0.07069841027259827
4.6277384757995605 6.538760662078857 -0.07030479609966278
4.619934558868408 6.556546211242676 -0.0699293464422226
4.592658996582031 6.5466485023498535 -0.06972195953130722
4.57686185836792 6.5538649559021 -0.06966883689165115
4.555053234100342 6.551556587219238 -0.06908217817544937
4.522429466247559 6.563437461853027 -0.06851962208747864
4.497185707092285 6.555876731872559 -0.0683431625366211
4.483691215515137 6.5662336349487305 -0.0683511272072792
4.461772441864014 6.563338279724121 -0.06773992627859116
4.449410438537598 6.574456691741943 -0.06775938719511032
4.422694206237793 6.565151691436768 -0.06708259880542755
4.4143781661987305 6.582244873046875 -0.06716372072696686
4.389769077301025 6.575828552246094 -0.06700247526168823
4.366579532623291 6.570622444152832 -0.06637515127658844
4.345327854156494 6.568171977996826 -0.06625908613204956
4.337167263031006 6.586368560791016 -0.06632376462221146
4.320504188537598 6.590801239013672 -0.06582234054803848
4.306502342224121 6.599268913269043 -0.06581752747297287
4.277356147766113 6.585300445556641 -0.06510758399963379
4.249880790710449 6.572819232940674 -0.0648965984582901
4.240510940551758 6.588273048400879 -0.06448410451412201
4.221312046051025 6.58933162689209 -0.0644058808684349
4.20474100112915 6.5935492515563965 -0.06436197459697723
4.188906192779541 6.599775314331055 -0.0638580396771431
4.166107654571533 6.594061374664307 -0.06371881812810898
4.146800518035889 6.5937652587890625 -0.06315719336271286
4.131443977355957 6.6005940437316895 -0.06313790380954742
4.118722915649414 6.610734939575195 -0.06315319985151291
4.0928215980529785 6.599637508392334 -0.06249183416366577
4.081171035766602 6.612346172332764 -0.0625295490026474
4.051358222961426 6.594623565673828 -0.062282100319862366
4.0391459465026855 6.60543966293335 -0.06230509281158447
4.021675109863281 6.608545780181885 -0.06178104132413864
4.005409240722656 6.612679481506348 -0.06174180656671524
3.99088454246521 6.620574474334717 -0.06126405671238899
3.976257801055908 6.627377033233643 -0.06125059723854065
3.9516522884368896 6.617455005645752 -0.06108283996582031
3.934890031814575 6.6214776039123535 -0.060571879148483276
3.9123950004577637 6.614842891693115 -0.06043683737516403
3.898069381713867 6.622820854187012 -0.05996454507112503
3.875924825668335 6.6166181564331055 -0.059835340827703476
3.8609237670898438 6.622482776641846 -0.05981580168008804
3.822702407836914 6.620849609375 -0.059188470244407654
5.810741424560547 -10.981490135192871 -0.07615149766206741
5.8425188064575195 -10.98480224609375 -0.0769793912768364
5.8892059326171875 -10.962506294250488 -0.07775323837995529
5.9119343757629395 -10.948732376098633 -0.07778500765562057
5.972140312194824 -10.95118522644043 -0.07869936525821686
6.0066704750061035 -10.95882797241211 -0.07888645678758621
6.03347635269165 -10.953741073608398 -0.0796629786491394
6.063659191131592 -10.954599380493164 -0.07980115711688995
6.097256183624268 -10.960055351257324 -0.07993493974208832
6.130459785461426 -10.966029167175293 -0.0808381661772728
6.148165702819824 -10.942834854125977 -0.08076363056898117
6.182728290557861 -10.951072692871094 -0.08168687671422958
6.216609954833984 -10.957823753356934 -0.08183314651250839
6.2720794677734375 -10.94799518585205 -0.08272667229175568
6.310680389404297 -10.96248722076416 -0.08293433487415314
6.337695598602295 -10.955303192138672 -0.08375480026006699
6.3666534423828125 -10.95285701751709 -0.0838373601436615
6.401520252227783 -10.960346221923828 -0.08468928188085556
6.4516377449035645 -10.94010066986084 -0.08404842019081116
6.546195030212402 -10.942634582519531 -0.08516055345535278
7.287238597869873 -10.896184921264648 -0.0940311923623085
7.386789798736572 -10.896172523498535 -0.09523331373929977
7.482624053955078 -10.88951301574707 -0.09643352031707764
7.51741886138916 -10.89030933380127 -0.09658274054527283
7.548555850982666 -10.886947631835938 -0.09745794534683228
7.577731609344482 -10.87939453125 -0.09757691621780396
7.618666172027588 -10.889908790588379 -0.09858154505491257
7.643336296081543 -10.876972198486328 -0.09865099936723709
7.685185432434082 -10.88708782196045 -0.09889081120491028
7.715718746185303 -10.88233757019043 -0.09980704635381699
7.743760585784912 -10.873917579650879 -0.09987729787826538
7.785346984863281 -10.883110046386719 -0.10088720172643661
7.817301273345947 -10.879995346069336 -0.10105221718549728
7.833566188812256 -10.854949951171875 -0.10097086429595947
7.876058101654053 -10.864916801452637 -0.1020384132862091
7.910935401916504 -10.865434646606445 -0.10219726711511612
7.947493553161621 -10.868176460266113 -0.10159925371408463
7.977058410644531 -10.859914779663086 -0.1025037169456482
8.013701438903809 -10.862410545349121 -0.10268343985080719
8.075271606445312 -10.849993705749512 -0.10371304303407669
8.117745399475098 -10.859861373901367 -0.10396849364042282
8.170416831970215 -10.834945678710938 -0.10488667339086533
8.214554786682129 -10.84650993347168 -0.1052071750164032
8.292763710021973 -10.8544921875 -0.10645546019077301
8.323410034179688 -10.84786605834961 -0.1073506772518158
8.419029235839844 -10.830818176269531 -0.10854098200798035
9.062678337097168 -10.791533470153809 -0.11675304174423218
9.174083709716797 -10.785776138305664 -0.11817621439695358
9.286049842834473 -10.7793607711792 -0.11961133033037186
9.363171577453613 -10.776768684387207 -0.1208907961845398
9.400469779968262 -10.774456024169922 -0.12195627391338348
9.482583999633789 -10.776617050170898 -0.12247680872678757
9.513874053955078 -10.767040252685547 -0.12342345714569092
9.635931015014648 -10.767985343933105 -0.12500812113285065
9.657580375671387 -10.745893478393555 -0.12503807246685028
9.70918083190918 -10.758318901062012 -0.1254158318042755
9.779391288757324 -10.744791030883789 -0.12662483751773834
9.8250150680542 -10.750019073486328 -0.12776757776737213
9.856846809387207 -10.73875904083252 -0.1279314011335373
9.902795791625977 -10.74390983581543 -0.12823723256587982
9.936734199523926 -10.73593807220459 -0.1292811632156372
9.977666854858398 -10.734143257141113 -0.12951524555683136
10.021050453186035 -10.735981941223145 -0.1297883838415146
10.061197280883789 -10.733006477355957 -0.1309089958667755
10.09982967376709 -10.729436874389648 -0.13112199306488037
10.135643005371094 -10.722810745239258 -0.132197767496109
10.221245765686035 -10.722551345825195 -0.1327248513698578
10.259594917297363 -10.718157768249512 -0.13383950293064117
10.347646713256836 -10.719404220581055 -0.13444474339485168
10.377054214477539 -10.705321311950684 -0.13540057837963104
10.46541976928711 -10.705892562866211 -0.1360112726688385
10.716907501220703 -10.690890312194824 -0.1402457058429718
11.2120943069458 -10.6347074508667 -0.14699535071849823
11.35407543182373 -10.634581565856934 -0.14982588589191437
11.494125366210938 -10.630899429321289 -0.15174424648284912
11.628937721252441 -10.620725631713867 -0.15360097587108612
11.670708656311035 -10.614537239074707 -0.1547740250825882
11.695939064025879 -10.591920852661133 -0.15577302873134613
11.75438404083252 -10.600533485412598 -0.15625616908073425
11.7987060546875 -10.596189498901367 -0.15660491585731506
11.850444793701172 -10.597009658813477 -0.15790951251983643
11.89420223236084 -10.591800689697266 -0.15819907188415527
11.929591178894043 -10.577775955200195 -0.15842141211032867
11.989684104919434 -10.586630821228027 -0.15985208749771118
12.019250869750977 -10.56843090057373 -0.15995363891124725
12.070192337036133 -10.567587852478027 -0.1603827178478241
12.121532440185547 -10.568181037902832 -0.1617022156715393
12.173601150512695 -10.569191932678223 -0.1621558517217636
12.22170639038086 -10.565254211425781 -0.16249483823776245
12.272964477539062 -10.565143585205078 -0.16382135450839996
12.313027381896973 -10.55522346496582 -0.16411612927913666
12.370261192321777 -10.558523178100586 -0.16457732021808624
12.419501304626465 -10.556082725524902 -0.16593539714813232
12.474481582641602 -10.558302879333496 -0.16637656092643738
12.516287803649902 -10.54787826538086 -0.16757947206497192
12.560736656188965 -10.540837287902832 -0.16793480515480042
12.611968040466309 -10.537995338439941 -0.16831764578819275
12.65407943725586 -10.528666496276855 -0.16954028606414795
12.703445434570312 -10.525205612182617 -0.1699615865945816
12.77049446105957 -10.534831047058105 -0.17050273716449738
12.803013801574707 -10.517084121704102 -0.1725633442401886
12.855473518371582 -10.515575408935547 -0.17297494411468506
12.966570854187012 -10.515616416931152 -0.1748914271593094
13.111250877380371 -10.497005462646484 -0.1769741326570511
13.279522895812988 -10.495414733886719 -0.17938442528247833
13.431778907775879 -10.479170799255371 -0.18158738315105438
13.907090187072754 -10.432878494262695 -0.18855145573616028
14.014785766601562 -10.422979354858398 -0.18931111693382263
14.066179275512695 -10.414676666259766 -0.1907173991203308
14.18542766571045 -10.412026405334473 -0.19180025160312653
14.234081268310547 -10.401092529296875 -0.19317656755447388
14.346065521240234 -10.390527725219727 -0.19415360689163208
14.394547462463379 -10.380168914794922 -0.194516122341156
14.512417793273926 -10.37254810333252 -0.19660179316997528
14.569151878356934 -10.367486000061035 -0.19707651436328888
14.617436408996582 -10.354878425598145 -0.19852124154567719
14.680946350097656 -10.354181289672852 -0.19908984005451202
14.739795684814453 -10.34994888305664 -0.19965024292469025
14.772961616516113 -10.326189994812012 -0.20084437727928162
14.817625999450684 -10.311702728271484 -0.20115762948989868
14.83792495727539 -10.280122756958008 -0.2011987268924713
14.841976165771484 -10.2361421585083 -0.20200295746326447
14.851131439208984 -10.197042465209961 -0.20183883607387543
14.870329856872559 -10.164814949035645 -0.20181146264076233
14.891757011413574 -10.13292121887207 -0.2029079645872116
14.912018775939941 -10.1014986038208 -0.2028980404138565
14.92410659790039 -10.06450080871582 -0.20283372700214386
14.926265716552734 -10.01970386505127 -0.20361405611038208
14.95451545715332 -9.9937105178833 -0.20354828238487244
14.960447311401367 -9.951509475708008 -0.20333899557590485
14.97300910949707 -9.915105819702148 -0.2032853066921234
14.9935941696167 -9.883974075317383 -0.2032853215932846
15.0051908493042 -9.845766067504883 -0.20419763028621674
15.006851196289062 -9.80236530303955 -0.20399875938892365
15.027093887329102 -9.771093368530273 -0.20399712026119232
15.039080619812012 -9.733306884765625 -0.2049161046743393
15.057778358459473 -9.701128005981445 -0.20495101809501648
15.077570915222168 -9.669599533081055 -0.2049461305141449
15.079363822937012 -9.625414848327637 -0.20572786033153534
15.090315818786621 -9.588387489318848 -0.20566104352474213
15.120818138122559 -9.5186185836792 -0.20552869141101837
15.13939380645752 -9.486435890197754 -0.20660261809825897
15.151432037353516 -9.405414581298828 -0.20622579753398895
15.169644355773926 -9.373100280761719 -0.20729634165763855
15.228110313415527 -9.189743041992188 -0.20785118639469147
15.274055480957031 -9.086970329284668 -0.20758378505706787
15.302417755126953 -8.974078178405762 -0.2071988433599472
15.337464332580566 -8.908037185668945 -0.20824557542800903
15.347808837890625 -8.870317459106445 -0.2081288844347
15.365039825439453 -8.795343399047852 -0.20894655585289001
15.37396240234375 -8.756963729858398 -0.2088133841753006
15.4082670211792 -8.691940307617188 -0.20986637473106384
15.417911529541016 -8.654078483581543 -0.20974603295326233
15.435656547546387 -8.621964454650879 -0.20974360406398773
15.425396919250488 -8.574222564697266 -0.21043960750102997
15.451522827148438 -8.545652389526367 -0.21054665744304657
15.448628425598145 -8.502171516418457 -0.21026572585105896
15.464920997619629 -8.469371795654297 -0.21030214428901672
15.483132362365723 -8.43646240234375 -0.21132639050483704
15.488592147827148 -8.355034828186035 -0.21091951429843903
15.507357597351074 -8.32365894317627 -0.21201421320438385
15.514978408813477 -8.286260604858398 -0.21188202500343323
15.534195899963379 -8.253985404968262 -0.20970171689987183
15.541332244873047 -8.216404914855957 -0.2095668911933899
15.557084083557129 -8.182317733764648 -0.20954319834709167
15.55420970916748 -8.13964557647705 -0.2093309462070465
15.578551292419434 -8.068991661071777 -0.21021617949008942
15.604673385620117 -8.041495323181152 -0.21039724349975586
15.601663589477539 -7.998952865600586 -0.2111481875181198
15.609179496765137 -7.960803508758545 -0.21101975440979004
15.644150733947754 -7.9377121925354 -0.21126845479011536
15.674110412597656 -7.829399585723877 -0.21207395195960999
15.674283981323242 -7.788886070251465 -0.21191145479679108
15.69324779510498 -7.716070175170898 -0.2127402126789093
15.708864212036133 -7.6821818351745605 -0.2127290517091751
15.714824676513672 -7.64472770690918 -0.2126489132642746
15.731440544128418 -7.612419605255127 -0.21265949308872223
15.74262809753418 -7.5361762046813965 -0.2133910059928894
15.78860092163086 -7.436544895172119 -0.2144411951303482
15.813040733337402 -7.4079999923706055 -0.21136575937271118
15.83373737335205 -7.2556962966918945 -0.21188117563724518
15.848723411560059 -7.222806930541992 -0.2119346559047699
15.865836143493652 -7.150064468383789 -0.21276672184467316
15.87887191772461 -7.0361785888671875 -0.21239757537841797
15.893268585205078 -7.0020365715026855 -0.21339619159698486
15.9066801071167 -6.968506336212158 -0.21338093280792236
15.918222427368164 -6.934225082397461 -0.21339483559131622
15.922082901000977 -6.895534515380859 -0.21324864029884338
15.903928756713867 -6.848455429077148 -0.21381820738315582
15.899101257324219 -6.807299613952637 -0.21356353163719177
15.893451690673828 -6.76479959487915 -0.2133467197418213
15.885881423950195 -6.722615718841553 -0.21305708587169647
15.87863540649414 -6.68073034286499 -0.2137719988822937
15.883365631103516 -6.642877101898193 -0.2136448472738266
15.855233192443848 -6.592430114746094 -0.21313512325286865
15.850757598876953 -6.5124101638793945 -0.21270431578159332
15.853413581848145 -6.4750823974609375 -0.20947593450546265
15.857808113098145 -6.399085521697998 -0.21016719937324524
15.850921630859375 -6.358088493347168 -0.20995324850082397
15.835322380065918 -6.274541854858398 -0.21038219332695007
15.847509384155273 -6.241352081298828 -0.21037130057811737
15.836721420288086 -6.160190582275391 -0.20993469655513763
15.822797775268555 -6.115946292877197 -0.21055160462856293
15.843902587890625 -6.0862884521484375 -0.21066686511039734
15.83549976348877 -6.045379161834717 -0.2103932797908783
15.846220970153809 -6.010774612426758 -0.2104164958000183
15.819172859191895 -5.962937355041504 -0.20989306271076202
15.831149101257324 -5.9289140701293945 -0.21086253225803375
15.822699546813965 -5.8882832527160645 -0.21058706939220428
15.843332290649414 -5.858558654785156 -0.21075081825256348
15.826824188232422 -5.814107418060303 -0.21036681532859802
15.831226348876953 -5.628849983215332 -0.21065783500671387
15.822250366210938 -5.5876688957214355 -0.21135230362415314
15.82330322265625 -5.551081657409668 -0.20921698212623596
15.812004089355469 -5.510293006896973 -0.2089151293039322
15.803462028503418 -5.469484329223633 -0.20869958400726318
15.814558982849121 -5.4366021156311035 -0.20869670808315277
15.833436012268066 -5.3686370849609375 -0.20961421728134155
15.839208602905273 -5.333971977233887 -0.20954298973083496
15.815557479858398 -5.288416385650635 -0.209132581949234
15.816206932067871 -5.252167701721191 -0.20899692177772522
15.796076774597168 -5.209113121032715 -0.20858852565288544
15.808159828186035 -5.175682067871094 -0.2095642238855362
15.806597709655762 -5.138876914978027 -0.20945410430431366
15.774480819702148 -5.092264652252197 -0.20888863503932953
15.794854164123535 -5.061609745025635 -0.2090141475200653
15.793326377868652 -5.025004863739014 -0.20981532335281372
15.803094863891602 -4.954918384552002 -0.20971721410751343
15.792572975158691 -4.915648460388184 -0.2094423621892929
15.79242992401123 -4.878623962402344 -0.20930209755897522
15.770374298095703 -4.8359832763671875 -0.20983213186264038
15.779646873474121 -4.802025318145752 -0.20981869101524353
15.778409957885742 -4.765842437744141 -0.20972122251987457
15.756994247436523 -4.723714828491211 -0.20930670201778412
15.76659107208252 -4.689960479736328 -0.2093004584312439
15.77501106262207 -4.656800270080566 -0.20928271114826202
15.776921272277832 -4.621793270111084 -0.20918023586273193
15.77287769317627 -4.584097862243652 -0.20899698138237
15.761394500732422 -4.545258522033691 -0.20871976017951965
15.800058364868164 -4.520914077758789 -0.21010875701904297
15.768381118774414 -4.475430011749268 -0.20956093072891235
15.777425765991211 -4.442638874053955 -0.2095581591129303
15.775548934936523 -4.406797885894775 -0.2094111442565918
15.774436950683594 -4.370182037353516 -0.2092723250389099
15.773686408996582 -4.3347487449646 -0.2091418355703354
15.769497871398926 -4.29738712310791 -0.20996221899986267
15.777365684509277 -4.264378070831299 -0.20994839072227478
15.776325225830078 -4.228985786437988 -0.20981773734092712
15.772645950317383 -4.191905975341797 -0.2096484899520874
15.771955490112305 -4.156699180603027 -0.20952512323856354
15.768352508544922 -4.120773792266846 -0.21035778522491455
15.778139114379883 -4.087343692779541 -0.21037103235721588
15.75365924835205 -4.046135425567627 -0.20993317663669586
15.754739761352539 -4.011580944061279 -0.2098328024148941
15.768356323242188 -3.9791977405548096 -0.20990291237831116
15.754590034484863 -3.940966844558716 -0.20961099863052368
15.742969512939453 -3.90234375 -0.21033568680286407
15.751319885253906 -3.8697361946105957 -0.21033978462219238
15.758207321166992 -3.8367700576782227 -0.21032437682151794
15.756387710571289 -3.8006913661956787 -0.21019184589385986
15.753843307495117 -3.76550030708313 -0.21099135279655457
15.775588989257812 -3.736107349395752 -0.21117794513702393
15.771126747131348 -3.6994876861572266 -0.21106214821338654
15.752811431884766 -3.660719633102417 -0.21071530878543854
15.739148139953613 -3.6221752166748047 -0.21042917668819427
15.735331535339355 -3.5868782997131348 -0.21027794480323792
15.730732917785645 -3.5515060424804688 -0.2110515981912613
15.770774841308594 -3.525155544281006 -0.21153655648231506
15.741425514221191 -3.4843125343322754 -0.21104645729064941
15.752360343933105 -3.452457904815674 -0.2110961675643921
15.716167449951172 -3.409355878829956 -0.21051394939422607
15.727629661560059 -3.377683639526367 -0.21057334542274475
15.736233711242676 -3.310265302658081 -0.21148118376731873
15.732690811157227 -3.2754416465759277 -0.21134209632873535
15.72359561920166 -3.204519510269165 -0.21103674173355103
15.747352600097656 -3.175339460372925 -0.21126705408096313
15.725953102111816 -3.1360788345336914 -0.21088959276676178
15.732377052307129 -3.1034276485443115 -0.21181753277778625
15.743626594543457 -3.071718454360962 -0.21193213760852814
15.733851432800293 -3.034935235977173 -0.2117132991552353
15.729374885559082 -3.0002288818359375 -0.21161893010139465
15.743935585021973 -2.9691085815429688 -0.21358759701251984
15.734343528747559 -2.932556629180908 -0.21429963409900665
15.747838020324707 -2.9012694358825684 -0.2144002914428711
15.731614112854004 -2.8635475635528564 -0.21409615874290466
15.756731033325195 -2.834350109100342 -0.21435730159282684
15.73454475402832 -2.7966628074645996 -0.21402615308761597
15.718729019165039 -2.759225606918335 -0.21373029053211212
15.73238468170166 -2.727980852127075 -0.2138378620147705
15.716229438781738 -2.6906094551086426 -0.21446365118026733
15.750399589538574 -2.662828207015991 -0.21485286951065063
15.720230102539062 -2.6241841316223145 -0.21436713635921478
15.717228889465332 -2.589184522628784 -0.21425023674964905
15.6911039352417 -2.5514461994171143 -0.21387195587158203
15.713542938232422 -2.5216352939605713 -0.21410459280014038
15.671404838562012 -2.4805450439453125 -0.21345874667167664
15.663533210754395 -2.445990562438965 -0.21420061588287354
15.662121772766113 -2.3782460689544678 -0.21404248476028442
15.663479804992676 -2.3452084064483643 -0.21399368345737457
15.657793998718262 -2.311096429824829 -0.2138993889093399
15.64017105102539 -2.274416446685791 -0.2135920524597168
15.642822265625 -2.241663694381714 -0.2135634422302246
15.639853477478027 -2.2071521282196045 -0.21345792710781097
15.608550071716309 -2.169708013534546 -0.213882714509964
15.603340148925781 -2.1359384059906006 -0.21648719906806946
15.575035095214844 -2.0982275009155273 -0.2160319834947586
15.588397026062012 -2.067100763320923 -0.21615758538246155
15.584990501403809 -2.033698081970215 -0.21609994769096375
15.573911666870117 -1.9984750747680664 -0.21588696539402008
15.577642440795898 -1.9661036729812622 -0.21588151156902313
15.562582015991211 -1.931352138519287 -0.21561717987060547
15.550762176513672 -1.8962117433547974 -0.21630384027957916
15.555530548095703 -1.8640406131744385 -0.21631604433059692
15.561582565307617 -1.8310540914535522 -0.21634556353092194
15.553031921386719 -1.7973334789276123 -0.21622323989868164
15.527108192443848 -1.728105068206787 -0.21576006710529327
15.530304908752441 -1.6958404779434204 -0.21575507521629333
15.537065505981445 -1.6303954124450684 -0.21665674448013306
15.557089805603027 -1.5662868022918701 -0.21684148907661438
15.527471542358398 -1.5307621955871582 -0.2163841724395752
15.50754451751709 -1.462881088256836 -0.21606756746768951
15.514603614807129 -1.4310710430145264 -0.21612396836280823
15.519264221191406 -1.3656117916107178 -0.2160581350326538
15.515125274658203 -1.3328074216842651 -0.21871642768383026
15.481582641601562 -1.264268398284912 -0.21816667914390564
15.504220962524414 -1.23368501663208 -0.2184489518404007
15.487704277038574 -1.1991304159164429 -0.21817992627620697
15.486955642700195 -1.1667463779449463 -0.21813470125198364
15.4895658493042 -1.134572982788086 -0.21903736889362335
15.480082511901855 -1.100685715675354 -0.21886955201625824
15.471272468566895 -1.0677958726882935 -0.21871322393417358
15.46259880065918 -1.0349124670028687 -0.21855977177619934
15.45309066772461 -1.0011699199676514 -0.2184431105852127
15.455110549926758 -0.9690980911254883 -0.21844276785850525
15.468093872070312 -0.9376423954963684 -0.21859818696975708
15.458938598632812 -0.9039949178695679 -0.21844108402729034
15.451188087463379 -0.8713231086730957 -0.21830564737319946
15.45103645324707 -0.8382550477981567 -0.21827758848667145
15.419612884521484 -0.8044609427452087 -0.21780981123447418
15.424768447875977 -0.7725884318351746 -0.2187538743019104
15.432220458984375 -0.7399641275405884 -0.21883663535118103
15.426037788391113 -0.7075367569923401 -0.21872767806053162
15.424417495727539 -0.6744945645332336 -0.21868379414081573
15.426630973815918 -0.6425197124481201 -0.218744158744812
15.427855491638184 -0.610453724861145 -0.21874307096004486
15.428238868713379 -0.5775101184844971 -0.21863387525081635
15.418322563171387 -0.5451005697250366 -0.21937042474746704
15.418959617614746 -0.5130396485328674 -0.2203056514263153
15.420854568481445 -0.48017433285713196 -0.2203175276517868
15.420289039611816 -0.4481276571750641 -0.2202957421541214
15.396993637084961 -0.382560133934021 -0.21993787586688995
15.410752296447754 -0.35085529088974 -0.22012361884117126
15.42024040222168 -0.3181628882884979 -0.22024895250797272
15.436141014099121 -0.28644564747810364 -0.22046712040901184
15.425322532653809 -0.25417616963386536 -0.22030450403690338
15.418723106384277 -0.22116996347904205 -0.2202029824256897
15.426884651184082 -0.18926753103733063 -0.22031345963478088
15.436223983764648 -0.15729652345180511 -0.22044172883033752
15.41418170928955 -0.12418919801712036 -0.2201225459575653
15.425292015075684 -0.060207005590200424 -0.22121749818325043
15.41540241241455 -0.027285590767860413 -0.22107431292533875
17.993391036987305 0.004449037369340658 -0.10976819694042206
17.991722106933594 0.042827051132917404 -0.10975825786590576
17.982765197753906 0.08018004894256592 -0.10970442742109299
17.954660415649414 0.11835518479347229 -0.10953409969806671
17.963350296020508 0.15569210052490234 -0.11062921583652496
17.95473861694336 0.19293668866157532 -0.11063457280397415
17.969114303588867 0.23142653703689575 -0.11072598397731781
17.925771713256836 0.5318896770477295 -0.11049819737672806
17.914535522460938 0.5687675476074219 -0.11043600738048553
17.894990921020508 0.6435969471931458 -0.1103312075138092
17.87883186340332 0.7555854916572571 -0.11014655977487564
17.874189376831055 0.830813467502594 -0.11117479205131531
17.852237701416016 0.8669236898422241 -0.11104898154735565
17.86031150817871 0.9427263736724854 -0.11117905378341675
17.855220794677734 0.9796742796897888 -0.11115965992212296
17.85390281677246 1.0549803972244263 -0.11117815226316452
17.85063362121582 1.0920207500457764 -0.11117177456617355
17.847660064697266 1.1673041582107544 -0.1111825630068779
17.84522247314453 1.2043408155441284 -0.11118271946907043
17.8421630859375 1.2423722743988037 -0.11117991805076599
17.851118087768555 1.2802815437316895 -0.11125214397907257
17.8491153717041 1.317374348640442 -0.11125646531581879
17.85640525817871 1.356215476989746 -0.11235668510198593
17.842439651489258 1.3924570083618164 -0.11228665709495544
17.840261459350586 1.4305802583694458 -0.11229176074266434
17.827367782592773 1.4667857885360718 -0.11222939938306808
17.833345413208008 1.504598617553711 -0.11228673905134201
17.818805694580078 1.5416584014892578 -0.11221548914909363
17.807601928710938 1.5779831409454346 -0.1121649295091629
17.813579559326172 1.615776538848877 -0.11222372949123383
17.821632385253906 1.6548426151275635 -0.11212806403636932
17.817955017089844 1.6918596029281616 -0.11114621162414551
17.843286514282227 1.731634259223938 -0.1113266795873642
17.80180549621582 1.7659469842910767 -0.11109066009521484
17.79766082763672 1.802897334098816 -0.11108793318271637
17.792011260986328 1.840674638748169 -0.1110774427652359
17.787107467651367 1.8774820566177368 -0.11107070744037628
17.739295959472656 1.9097228050231934 -0.11079654842615128
17.733264923095703 1.9473475217819214 -0.11078492552042007
17.718990325927734 1.9830583333969116 -0.11072090268135071
17.715116500854492 2.0198564529418945 -0.1107228621840477
17.676828384399414 2.053696870803833 -0.11051034182310104
17.671987533569336 2.090367555618286 -0.11050714552402496
17.658340454101562 2.1269567012786865 -0.11044941842556
17.614164352416992 2.1958956718444824 -0.11022936552762985
17.609872817993164 2.233518123626709 -0.11023208498954773
17.555049896240234 2.300692558288574 -0.10994763672351837
17.5495548248291 2.3380606174468994 -0.10994436591863632
17.517786026000977 2.4089553356170654 -0.10980778187513351
17.489904403686523 2.442112922668457 -0.10966416448354721
17.480356216430664 2.5158767700195312 -0.10950269550085068
17.417593002319336 2.6187124252319336 -0.10615171492099762
17.384479522705078 2.688650369644165 -0.10601819306612015
17.367414474487305 2.7229254245758057 -0.10594816505908966
17.34554100036621 2.794391393661499 -0.10588542371988297
17.327573776245117 2.8284566402435303 -0.10581155866384506
17.305593490600586 2.8996872901916504 -0.10575058311223984
17.27680206298828 2.9317917823791504 -0.10561147332191467
17.26340103149414 3.004369020462036 -0.1056063175201416
17.24574089050293 3.0381810665130615 -0.10553665459156036
17.207130432128906 3.0692362785339355 -0.1053396686911583
17.21316909790039 3.107240915298462 -0.1054159551858902
17.215471267700195 3.144559144973755 -0.10546994209289551
17.200498580932617 3.179753541946411 -0.10541976243257523
17.19051742553711 3.214871644973755 -0.1053992435336113
17.151805877685547 3.2455124855041504 -0.1052037924528122
17.1440486907959 3.2809104919433594 -0.10519790649414062
17.114990234375 3.3122379779815674 -0.10506144165992737
17.117345809936523 3.3505892753601074 -0.1049543172121048
17.089826583862305 3.3820979595184326 -0.101803258061409
17.093860626220703 3.4197733402252197 -0.10186951607465744
17.063264846801758 3.4515223503112793 -0.10173064470291138
17.046865463256836 3.4850997924804688 -0.10167586803436279
17.027034759521484 3.518900156021118 -0.10160210728645325
17.029266357421875 3.5562262535095215 -0.10165960341691971
16.97003936767578 3.580681800842285 -0.10134939104318619
16.970609664916992 3.6186296939849854 -0.10139860957860947
16.96405601501465 3.654052734375 -0.10140474885702133
16.945568084716797 3.6869406700134277 -0.10033612698316574
16.924915313720703 3.720275640487671 -0.10026102513074875
16.9073486328125 3.7532689571380615 -0.10014781355857849
16.865158081054688 3.7806429862976074 -0.09994395822286606
16.871414184570312 3.8198599815368652 -0.10002916306257248
16.839515686035156 3.849447727203369 -0.09988685697317123
16.841371536254883 3.8876912593841553 -0.099946990609169
16.814071655273438 3.955019950866699 -0.09988177567720413
16.784006118774414 3.9857490062713623 -0.099753238260746
16.7557430267334 4.0536580085754395 -0.0996859148144722
16.758455276489258 4.091145038604736 -0.09975232183933258
16.718307495117188 4.156024932861328 -0.09950736910104752
16.68860626220703 4.1854329109191895 -0.09539949893951416
16.65831756591797 4.25248384475708 -0.09532810747623444
16.639827728271484 4.322488307952881 -0.09532560408115387
16.61046028137207 4.351675987243652 -0.09520870447158813
16.581146240234375 4.418702125549316 -0.09509183466434479
16.57145881652832 4.452971458435059 -0.09508922696113586
16.541872024536133 4.519802093505859 -0.09502770006656647
16.560266494750977 4.5618367195129395 -0.09518783539533615
16.502470016479492 4.6207194328308105 -0.09397471696138382
16.50448226928711 4.658295631408691 -0.09404131770133972
16.483469009399414 4.690349578857422 -0.09397805482149124
16.453012466430664 4.718668460845947 -0.09386002272367477
16.46596908569336 4.759387969970703 -0.09399043023586273
16.431638717651367 4.787466049194336 -0.09385223686695099
16.420827865600586 4.821364402770996 -0.09384779632091522
16.400501251220703 4.853419303894043 -0.09379035234451294
16.389728546142578 4.88724422454834 -0.09378654509782791
16.35616683959961 4.914276599884033 -0.09359820932149887
16.348600387573242 4.950047969818115 -0.0935605838894844
16.326324462890625 4.980312824249268 -0.09052976965904236
16.316871643066406 5.01452112197876 -0.09053485840559006
16.31348991394043 5.051590442657471 -0.09057575464248657
16.295888900756836 5.083281517028809 -0.09053636342287064
16.274127960205078 5.113574981689453 -0.09047430008649826
16.27348518371582 5.151538372039795 -0.09053166210651398
16.262840270996094 5.1853814125061035 -0.09053222835063934
16.252134323120117 5.220183849334717 -0.09053432941436768
16.198945999145508 5.240208625793457 -0.08931340277194977
16.24003028869629 5.290809631347656 -0.08960051089525223
16.186574935913086 5.311612129211426 -0.08936779946088791
16.18402099609375 5.348000526428223 -0.08936041593551636
16.140243530273438 5.370769500732422 -0.08918020129203796
16.140302658081055 5.409055709838867 -0.0892440676689148
16.111408233642578 5.436645030975342 -0.08914656937122345
16.11650276184082 5.476683616638184 -0.08923932909965515
16.099620819091797 5.508240699768066 -0.08920890837907791
16.105548858642578 5.586145877838135 -0.0893712118268013
15.990241050720215 5.621705532073975 -0.08788122236728668
15.930355072021484 5.637823581695557 -0.08761624246835709
15.767873764038086 5.655155181884766 -0.08679919689893723
15.690126419067383 5.664046287536621 -0.08450616151094437
15.523846626281738 5.678030967712402 -0.08368580043315887
15.466520309448242 5.6934814453125 -0.08344036340713501
15.315003395080566 5.711057186126709 -0.08275187015533447
15.163532257080078 5.727427959442139 -0.08206299692392349
15.078399658203125 5.731054782867432 -0.08073350042104721
14.929572105407715 5.7465620040893555 -0.08006551861763
14.888726234436035 5.766343116760254 -0.0798594281077385
14.813088417053223 5.772482395172119 -0.07951784133911133
14.7474365234375 5.783162593841553 -0.07923142611980438
14.69469928741455 5.797748565673828 -0.07901280373334885
14.645170211791992 5.813358783721924 -0.0788111761212349
14.57368278503418 5.8209967613220215 -0.07849310338497162
14.51119613647461 5.831038475036621 -0.07731706649065018
14.438173294067383 5.837496280670166 -0.0769941657781601
14.371638298034668 5.8453779220581055 -0.0767039805650711
14.30093002319336 5.8512349128723145 -0.07634185999631882
14.268146514892578 5.873381614685059 -0.0762336328625679
14.200657844543457 5.88014554977417 -0.07593820244073868
14.109512329101562 5.877692222595215 -0.07551755011081696
14.06216049194336 5.892241954803467 -0.07532946020364761
13.996468544006348 5.8989434242248535 -0.07504305988550186
13.92397403717041 5.903398036956787 -0.07384690642356873
13.880619049072266 5.919029235839844 -0.07368196547031403
13.81326961517334 5.924269676208496 -0.07338966429233551
13.743096351623535 5.9289116859436035 -0.07308386266231537
13.676178932189941 5.933788299560547 -0.0727456659078598
13.6318941116333 5.949157238006592 -0.07257752865552902
13.569326400756836 5.955403804779053 -0.07231000810861588
13.538748741149902 5.975573539733887 -0.07135719060897827
13.466464042663574 5.97802209854126 -0.07104325294494629
13.40649700164795 5.984736442565918 -0.07079225778579712
13.323965072631836 5.98113489151001 -0.07042194157838821
13.27562141418457 5.9934892654418945 -0.07018719613552094
13.204537391662598 5.994416236877441 -0.06987699866294861
13.157112121582031 6.005898475646973 -0.06969193369150162
13.095002174377441 6.011332035064697 -0.06943070888519287
12.989316940307617 6.029177188873291 -0.06817615777254105
12.953874588012695 6.045430660247803 -0.06805583089590073
12.820854187011719 6.049235820770264 -0.06744477152824402
12.71632194519043 6.065521240234375 -0.06625904142856598
12.646836280822754 6.064625263214111 -0.06758464127779007
12.54230785369873 6.079598426818848 -0.06635625660419464
12.496362686157227 6.089386940002441 -0.06613533198833466
12.39097785949707 6.10274076461792 -0.06571300327777863
12.282793045043945 6.11386775970459 -0.06527521461248398
12.217475891113281 6.11302375793457 -0.06420537829399109
12.181061744689941 6.126492500305176 -0.06408078968524933
12.135401725769043 6.135995864868164 -0.06386571377515793
12.075034141540527 6.136970043182373 -0.0636148527264595
12.036702156066895 6.149000644683838 -0.06348013132810593
11.979792594909668 6.152184963226318 -0.06324903666973114
11.938253402709961 6.162193775177002 -0.06232019141316414
11.895867347717285 6.171660900115967 -0.0621657520532608
11.826656341552734 6.1678056716918945 -0.06182987615466118
11.793814659118652 6.181891441345215 -0.0617251917719841
11.723898887634277 6.177157878875732 -0.06142806634306908
11.670639991760254 6.180071830749512 -0.06121601536870003
11.619898796081543 6.184160232543945 -0.06025608256459236
11.581779479980469 6.195610046386719 -0.06008468195796013
11.515287399291992 6.190857887268066 -0.05980625003576279
11.473762512207031 6.2001166343688965 -0.05970105901360512
11.429710388183594 6.206991195678711 -0.0610429123044014
11.388079643249512 6.2150678634643555 -0.060889292508363724
11.347131729125977 6.22416877746582 -0.05999298393726349
11.278691291809082 6.217110633850098 -0.05969918519258499
11.240082740783691 6.226324081420898 -0.05952183157205582
11.211958885192871 6.242034912109375 -0.05944332852959633
11.149887084960938 6.237822532653809 -0.05918275937438011
11.10572624206543 6.243459224700928 -0.059017036110162735
11.060312271118164 6.2490129470825195 -0.058111924678087234
11.023679733276367 6.2585768699646 -0.05794697254896164
10.9627046585083 6.254917621612549 -0.057696498930454254
10.916213989257812 6.258455276489258 -0.05751994252204895
10.858635902404785 6.255467414855957 -0.057284750044345856
10.818514823913574 6.263126850128174 -0.056420691311359406
10.786258697509766 6.274374008178711 -0.05632038041949272
10.743030548095703 6.279149055480957 -0.05612257495522499
10.676165580749512 6.270656585693359 -0.055842943489551544
10.633383750915527 6.275243282318115 -0.05568709596991539
10.599996566772461 6.286109924316406 -0.05487007647752762
10.566407203674316 6.295866966247559 -0.05476367473602295
10.46829605102539 6.297296047210693 -0.05435273423790932
10.440812110900879 6.310307025909424 -0.05427812412381172
10.384223937988281 6.306431770324707 -0.05339040607213974
10.339483261108398 6.3086676597595215 -0.055328354239463806
10.274174690246582 6.328349590301514 -0.054384905844926834
10.21861457824707 6.323416233062744 -0.05415990576148033
10.154284477233887 6.342901706695557 -0.053960248827934265
10.111701965332031 6.345512390136719 -0.05376555770635605
10.03572940826416 6.356902122497559 -0.05281657353043556
9.999197006225586 6.362875461578369 -0.05269362032413483
9.960087776184082 6.367922306060791 -0.052559204399585724
9.905564308166504 6.362061023712158 -0.05162236467003822
9.857057571411133 6.35988187789917 -0.05143846571445465
9.829904556274414 6.372100353240967 -0.05136751011013985
9.7904634475708 6.375426292419434 -0.051230426877737045
9.755072593688965 6.38129186630249 -0.05107707902789116
9.717452049255371 6.386321067810059 -0.050279054790735245
9.683911323547363 6.393092632293701 -0.050173938274383545
9.630772590637207 6.387594223022461 -0.04996911436319351
9.607038497924805 6.400598049163818 -0.049914926290512085
9.565824508666992 6.4018874168396 -0.04906737059354782
9.528368949890137 6.406288146972656 -0.04894502833485603
9.46894645690918 6.394908428192139 -0.048707760870456696
9.448521614074707 6.4097490310668945 -0.04867120832204819
9.405548095703125 6.409934997558594 -0.04980028420686722
9.350079536437988 6.400587558746338 -0.04957614839076996
9.301456451416016 6.3965277671813965 -0.04939056560397148
9.2874116897583 6.415297031402588 -0.049387313425540924
9.236771583557129 6.408716678619385 -0.048502303659915924
9.19543170928955 6.40913200378418 -0.0483565591275692
9.157963752746582 6.4112958908081055 -0.048229366540908813
9.122998237609863 6.415112018585205 -0.04811536520719528
9.088128089904785 6.4196062088012695 -0.04735998809337616
9.056288719177246 6.425328731536865 -0.047227539122104645
9.002403259277344 6.416052341461182 -0.04701780527830124
8.981463432312012 6.429275989532471 -0.046978384256362915
8.938767433166504 6.426852226257324 -0.046188198029994965
8.921050071716309 6.443024158477783 -0.04613222926855087
8.8788480758667 6.440623760223389 -0.04598274454474449
8.85061264038086 6.448258399963379 -0.04590592160820961
8.802393913269043 6.441915035247803 -0.045096255838871
8.763504981994629 6.441423416137695 -0.04492991790175438
8.739730834960938 6.451969623565674 -0.04487717151641846
8.704614639282227 6.454776763916016 -0.0447673425078392
8.66707706451416 6.454861640930176 -0.04401847720146179
8.639698028564453 6.46320915222168 -0.04391482099890709
8.60524845123291 6.465332984924316 -0.04380787909030914
8.54310417175293 6.475109577178955 -0.044215381145477295
8.515460014343262 6.482023239135742 -0.04352305084466934
8.474287986755371 6.47932243347168 -0.043383046984672546
8.442682266235352 6.482964515686035 -0.04325573146343231
8.402175903320312 6.479621410369873 -0.04311743006110191
8.387483596801758 6.496911525726318 -0.04249953106045723
8.338029861450195 6.486333847045898 -0.04231691733002663
8.281781196594238 6.498746395111084 -0.04152795672416687
8.260344505310059 6.50966739654541 -0.041488151997327805
8.212446212768555 6.500407695770264 -0.04128320515155792
8.195479393005371 6.514686584472656 -0.04126647114753723
8.17349910736084 6.524938106536865 -0.040619105100631714
8.13029956817627 6.518937110900879 -0.040472790598869324
8.085537910461426 6.510659217834473 -0.040283989161252975
8.061020851135254 6.518580436706543 -0.0396294929087162
8.032475471496582 6.523884296417236 -0.039557695388793945
7.9906005859375 6.517441272735596 -0.03941747546195984
7.974860668182373 6.532251358032227 -0.03937390074133873
7.938504695892334 6.530816078186035 -0.038668520748615265
7.910284042358398 6.535171985626221 -0.038597311824560165
7.8876729011535645 6.544891834259033 -0.03855501115322113
7.84921932220459 6.540535926818848 -0.03781004995107651
7.817960739135742 6.542024612426758 -0.0376916229724884
7.786566257476807 6.544086456298828 -0.037607815116643906
7.758085250854492 6.54766845703125 -0.036916036158800125
7.731592178344727 6.5536417961120605 -0.036856964230537415
7.708846569061279 6.561901092529297 -0.036813151091337204
7.666818618774414 6.553613662719727 -0.03664439544081688
7.639250755310059 6.558343887329102 -0.035997871309518814
7.606861114501953 6.558006763458252 -0.03590889275074005
7.593469619750977 6.573980331420898 -0.03591030836105347
7.552937984466553 6.5671706199646 -0.035173624753952026
7.531927108764648 6.576399803161621 -0.035139720886945724
7.508455753326416 6.583458423614502 -0.03509389981627464
7.477762699127197 6.584811210632324 -0.03440738469362259
7.437697887420654 6.576984405517578 -0.034286126494407654
7.4154839515686035 6.5856218338012695 -0.03424834460020065
7.392547130584717 6.592743873596191 -0.0342058390378952
7.369049072265625 6.599293231964111 -0.033556509763002396
7.323446273803711 6.586699962615967 -0.033412665128707886
7.308579921722412 6.600815296173096 -0.0334075465798378
7.259609699249268 6.5840349197387695 -0.03264684975147247
7.2528839111328125 6.6061859130859375 -0.03268129751086235
7.213321208953857 6.597590446472168 -0.03256402537226677
7.193301200866699 6.606789588928223 -0.03197097405791283
7.159963130950928 6.604380130767822 -0.031853895634412766
7.132384777069092 6.606388568878174 -0.03172929957509041
7.10058069229126 6.605167865753174 -0.030529502779245377
7.07568359375 6.609450817108154 -0.030480757355690002
7.051832675933838 6.614626884460449 -0.029847266152501106
7.024684906005859 6.617429733276367 -0.02979203313589096
6.995283126831055 6.617184638977051 -0.029725316911935806
6.961232662200928 6.613208770751953 -0.029640519991517067
6.934525012969971 6.615269184112549 -0.029000282287597656
6.919678211212158 6.62858772277832 -0.02899591065943241
6.894288539886475 6.632566452026367 -0.02894935943186283
6.859126091003418 6.626201629638672 -0.0282764732837677
6.843709945678711 6.638820648193359 -0.028270157054066658
6.828904628753662 6.652833461761475 -0.02826825901865959
6.78344202041626 6.636035919189453 -0.02755671739578247
6.729273796081543 6.638735294342041 -0.027449941262602806
6.712553977966309 6.649784088134766 -0.026861699298024178
6.6851887702941895 6.651031017303467 -0.026809094473719597
6.671835899353027 6.665353298187256 -0.02681121975183487
6.63442325592041 6.655542373657227 -0.026172630488872528
6.61952018737793 6.66902494430542 -0.026140162721276283
6.577356338500977 6.654107093811035 -0.026027677580714226
6.560277938842773 6.664477348327637 -0.025473877787590027
6.5433759689331055 6.675730228424072 -0.025434423238039017
6.522022724151611 6.681626319885254 -0.025344867259263992
6.484417915344238 6.670781135559082 -0.0236387737095356
6.453882217407227 6.6677656173706055 -0.023579245433211327
6.439711093902588 6.680812835693359 -0.02301180362701416
6.410548210144043 6.67905330657959 -0.0229584239423275
6.387369155883789 6.682608127593994 -0.0229252427816391
6.3582763671875 6.679867267608643 -0.022840706631541252
6.330195426940918 6.6788787841796875 -0.022258887067437172
6.309926986694336 6.685225486755371 -0.02223607338964939
6.284249305725098 6.686535358428955 -0.021635940298438072
6.268494606018066 6.697612285614014 -0.021629782393574715
6.233565330505371 6.688056468963623 -0.021556925028562546
6.2277607917785645 6.710513114929199 -0.02102787233889103
6.188939571380615 6.696500301361084 -0.0209432914853096
6.182722568511963 6.717687129974365 -0.020969921723008156
6.137625694274902 6.697345733642578 -0.02031022123992443
6.115884304046631 6.701488018035889 -0.02028440684080124
6.09031867980957 6.701395034790039 -0.020245743915438652
6.080115795135498 6.718905925750732 -0.019706636667251587
6.042873859405518 6.705669403076172 -0.019630543887615204
6.026973247528076 6.716822147369385 -0.01962551474571228
6.006704330444336 6.722245693206787 -0.019055142998695374
5.98474645614624 6.725710868835449 -0.01902944967150688
5.953297138214111 6.719216823577881 -0.018975187093019485
5.932958126068115 6.724322319030762 -0.017341509461402893
5.904386520385742 6.719997406005859 -0.017269985750317574
5.882733345031738 6.724269390106201 -0.016731755807995796
5.85993766784668 6.7263288497924805 -0.01670701429247856
5.810953617095947 6.727095603942871 -0.016104834154248238
5.7958083152771 6.737776279449463 -0.01610194332897663
5.781035900115967 6.749713897705078 -0.015558951534330845
5.759611129760742 6.75301456451416 -0.015538613311946392
5.723708629608154 6.739194393157959 -0.015479144640266895
5.708743572235107 6.750749111175537 -0.014938073232769966
5.673153400421143 6.73696756362915 -0.014881504699587822
5.637154579162598 6.751725673675537 -0.014324892312288284
5.622851848602295 6.763073444366455 -0.014324416406452656
5.600951671600342 6.766082763671875 -0.014305480755865574
5.562698841094971 6.748332977294922 -0.013709123246371746
5.549294471740723 6.7606072425842285 -0.01371089369058609
5.524960041046143 6.760357856750488 -0.013181854970753193
5.506985664367676 6.766975402832031 -0.013144352473318577
5.475523471832275 6.756952285766602 -0.01310199499130249
5.463947772979736 6.772148132324219 -0.012606507167220116
5.4428324699401855 6.774696350097656 -0.012562011368572712
5.418498992919922 6.773995876312256 -0.012538930401206017
5.393640518188477 6.771678447723389 -0.010984501801431179
5.3730998039245605 6.774691581726074 -0.01094342116266489
5.358466148376465 6.7859649658203125 -0.010443661361932755
5.322872161865234 6.769726276397705 -0.010401221923530102
5.314389228820801 6.787880897521973 -0.0103848185390234
5.285025119781494 6.780165195465088 -0.009858381003141403
5.279964447021484 6.802740573883057 -0.009875294752418995
5.245652675628662 6.787611961364746 -0.009313901886343956
5.222315788269043 6.787287712097168 -0.009298117831349373
5.206539630889893 6.795917510986328 -0.009267753921449184
5.18727970123291 6.800822734832764 -0.008764724247157574
5.158630847930908 6.792447090148926 -0.008740021847188473
5.144423484802246 6.803004741668701 -0.00871262326836586
