VERSION .7
FIELDS x y z
SIZE 4 4 4
TYPE F F F
COUNT 1 1 1
WIDTH 855
HEIGHT 1
VIEWPOINT 0 0 0 1 0 0 0
POINTS 855
DATA ascii
9.542536735534668 8.296075820922852 0.19010259211063385
9.501081466674805 8.294715881347656 0.18962180614471436
9.467706680297852 8.301286697387695 0.18853431940078735
9.422337532043457 8.296154975891113 0.18920160830020905
9.383604049682617 8.297497749328613 0.1887732446193695
9.342613220214844 8.296069145202637 0.18767423927783966
9.321783065795898 8.312232971191406 0.1876254826784134
9.268038749694824 8.299712181091309 0.1867274045944214
9.233003616333008 8.303133964538574 0.18637901544570923
9.194676399230957 8.303242683410645 0.18534570932388306
9.157702445983887 8.3052339553833 0.18496021628379822
9.107382774353027 8.294312477111816 0.18428076803684235
9.074705123901367 8.299880981445312 0.1833864003419876
9.039335250854492 8.302250862121582 0.1828613132238388
8.992544174194336 8.293745040893555 0.18241122364997864
8.95737361907959 8.29658317565918 0.18205733597278595
8.917919158935547 8.294694900512695 0.18100668489933014
8.88925838470459 8.303319931030273 0.18078269064426422
8.838268280029297 8.290101051330566 0.17993813753128052
8.809110641479492 8.297388076782227 0.1791115403175354
8.780946731567383 8.30612564086914 0.17889635264873505
8.742135047912598 8.304060935974121 0.17845916748046875
8.715330123901367 8.313071250915527 0.17767614126205444
8.66313648223877 8.298500061035156 0.1768070012331009
8.637689590454102 8.308769226074219 0.1766529679298401
8.592240333557129 8.299448013305664 0.17607514560222626
8.571389198303223 8.314570426940918 0.1754399985074997
8.51776123046875 8.297130584716797 0.17524409294128418
8.446015357971191 8.296850204467773 0.1743451952934265
8.416210174560547 8.301962852478027 0.17409810423851013
8.346639633178711 8.302980422973633 0.17281484603881836
8.309835433959961 8.300747871398926 0.1723896861076355
8.24317455291748 8.303808212280273 0.17102335393428802
8.208869934082031 8.303646087646484 0.170672208070755
8.126636505126953 8.290002822875977 0.16909587383270264
8.059469223022461 8.291047096252441 0.16841965913772583
8.034224510192871 8.299468040466309 0.16769786179065704
7.960306167602539 8.292710304260254 0.1668880581855774
7.942710876464844 8.309636116027832 0.16619083285331726
7.877074241638184 8.30994701385498 0.1655416041612625
7.832775592803955 8.298442840576172 0.1644156575202942
7.804701328277588 8.303357124328613 0.16419662535190582
7.782477378845215 8.31421947479248 0.16394826769828796
7.737608432769775 8.301554679870605 0.16337117552757263
7.708227634429932 8.304723739624023 0.16257336735725403
7.6783976554870605 8.307092666625977 0.16230328381061554
7.6542558670043945 8.316339492797852 0.1621662676334381
7.618523597717285 8.312274932861328 0.16179120540618896
7.585097312927246 8.311172485351562 0.160739928483963
7.546017646789551 8.303098678588867 0.16028648614883423
7.521720886230469 8.310951232910156 0.16013722121715546
7.493075370788574 8.314724922180176 0.1593586504459381
7.453573226928711 8.305691719055176 0.1588798612356186
7.426487445831299 8.310136795043945 0.15852642059326172
7.397527694702148 8.313199043273926 0.157740980386734
7.359184265136719 8.304957389831543 0.15729857981204987
7.32711935043335 8.303421974182129 0.15697075426578522
7.311931610107422 8.321975708007812 0.15703648328781128
7.270778656005859 8.309854507446289 0.15597841143608093
7.242515563964844 8.31311321258545 0.15574590861797333
7.21320915222168 8.314455032348633 0.15535575151443481
7.190328598022461 8.32291030883789 0.15471215546131134
7.156402587890625 8.319293975830078 0.15435567498207092
7.122960090637207 8.315464973449707 0.15400460362434387
7.1028852462768555 8.327762603759766 0.15341676771640778
7.0618181228637695 8.314498901367188 0.1527644693851471
7.038802146911621 8.322550773620605 0.15263906121253967
7.008859634399414 8.322933197021484 0.15185828506946564
6.9801483154296875 8.324045181274414 0.15160316228866577
6.947655200958252 8.320304870605469 0.1507512927055359
6.907026290893555 8.30744743347168 0.1501128077507019
6.879568576812744 8.309649467468262 0.14988809823989868
6.857578277587891 8.318168640136719 0.14926210045814514
6.821846961975098 8.310725212097168 0.14887365698814392
6.792205810546875 8.309928894042969 0.14860032498836517
6.735456466674805 8.311690330505371 0.14745838940143585
6.712433338165283 8.318511962890625 0.14733773469924927
6.658939838409424 8.323704719543457 0.1462889015674591
6.622816562652588 8.313859939575195 0.14587202668190002
6.56862735748291 8.31747055053711 0.14492468535900116
6.551713943481445 8.33154296875 0.14494746923446655
6.515139102935791 8.321556091308594 0.14438985288143158
6.494673728942871 8.330976486206055 0.14382073283195496
6.439260005950928 8.332024574279785 0.14336690306663513
6.405904769897461 8.324511528015137 0.14248992502689362
6.362267971038818 8.34024429321289 0.14218932390213013
6.335007190704346 8.341185569763184 0.1414545476436615
6.278006553649902 8.337969779968262 0.14044798910617828
6.249023914337158 8.336261749267578 0.1396767795085907
6.223936557769775 8.339011192321777 0.1393749862909317
6.187343120574951 8.325972557067871 0.13894502818584442
6.173198699951172 8.34389591217041 0.1385362148284912
6.129979133605957 8.321758270263672 0.13793596625328064
6.110948085784912 8.332076072692871 0.13790638744831085
6.084620475769043 8.333232879638672 0.1371946781873703
6.063786029815674 8.341206550598145 0.136998251080513
6.024509429931641 8.324292182922363 0.13650156557559967
5.99864387512207 8.325089454650879 0.13568301498889923
5.9748382568359375 8.328436851501465 0.13553249835968018
5.9545440673828125 8.337477684020996 0.13549110293388367
5.924698829650879 8.332412719726562 0.13519741594791412
5.895883560180664 8.32843017578125 0.1344304382801056
5.877866268157959 8.340484619140625 0.1344238668680191
5.839147567749023 8.322386741638184 0.13380779325962067
5.818218231201172 8.329265594482422 0.13323713839054108
5.79866361618042 8.339162826538086 0.13319624960422516
5.76078462600708 8.321476936340332 0.13271184265613556
5.748438835144043 8.341442108154297 0.13235968351364136
5.7204461097717285 8.33802318572998 0.13198113441467285
5.697429656982422 8.34152889251709 0.1318548619747162
5.660358428955078 8.325161933898926 0.13041648268699646
5.646781921386719 8.342598915100098 0.13051378726959229
5.613359451293945 8.330408096313477 0.13013584911823273
5.590606689453125 8.334785461425781 0.12954512238502502
5.563776969909668 8.332334518432617 0.12918774783611298
5.510953903198242 8.328967094421387 0.12828557193279266
5.491085052490234 8.336479187011719 0.12823256850242615
5.435878276824951 8.328811645507812 0.1271483451128006
5.4115214347839355 8.329204559326172 0.12697641551494598
5.400153636932373 8.350700378417969 0.12714341282844543
5.366059303283691 8.335864067077637 0.12624891102313995
5.341046333312988 8.3349609375 0.12595263123512268
5.316795825958252 8.336264610290527 0.1257980912923813
5.296343803405762 8.34233283996582 0.12524861097335815
5.244884490966797 8.338682174682617 0.12485960125923157
5.22390604019165 8.343698501586914 0.1241651326417923
5.173500061035156 8.341083526611328 0.12379990518093109
5.1533522605896 8.347223281860352 0.12373258918523788
5.121337890625 8.335148811340332 0.12291736155748367
5.103128433227539 8.344284057617188 0.12289901077747345
5.077663898468018 8.341487884521484 0.12209846079349518
5.051102161407471 8.33790397644043 0.1218978613615036
5.026164531707764 8.335723876953125 0.12123440206050873
5.002943992614746 8.337203025817871 0.1210993081331253
4.987091064453125 8.350248336791992 0.12113381922245026
4.955166339874268 8.336041450500488 0.12030914425849915
4.928069114685059 8.33068561553955 0.11996366828680038
4.908786773681641 8.337763786315918 0.11991512775421143
4.891225814819336 8.34843921661377 0.11944817751646042
4.864677906036377 8.343008995056152 0.11922827363014221
4.8400421142578125 8.340487480163574 0.11904485523700714
4.823567867279053 8.352912902832031 0.1184912845492363
4.788251876831055 8.331873893737793 0.11803852766752243
4.766438007354736 8.33389949798584 0.11793197691440582
4.745772361755371 8.3390531539917 0.11786822229623795
4.731657981872559 8.354535102844238 0.11748142540454865
4.6995978355407715 8.338231086730957 0.1169932559132576
4.672554016113281 8.33181095123291 0.11675864458084106
4.65505838394165 8.341139793395996 0.11629033833742142
4.642030239105225 8.359464645385742 0.11641211807727814
4.607777118682861 8.338750839233398 0.11598551273345947
4.594447135925293 8.35554027557373 0.11551019549369812
4.561763763427734 8.337993621826172 0.11511602997779846
4.548387050628662 8.354920387268066 0.11523812264204025
4.517909049987793 8.340103149414062 0.11442546546459198
4.5003581047058105 8.350247383117676 0.11443698406219482
6.077221393585205 -10.665863990783691 0.17577430605888367
6.1047234535217285 -10.661434173583984 0.1760747730731964
6.163116455078125 -10.660248756408691 0.177067831158638
6.19589376449585 -10.664613723754883 0.17795707285404205
6.249212265014648 -10.652847290039062 0.17819079756736755
6.3402299880981445 -10.653968811035156 0.1796286404132843
6.959647178649902 -10.60232162475586 0.18883225321769714
6.991905689239502 -10.603139877319336 0.18911869823932648
7.049182891845703 -10.592954635620117 0.18946342170238495
7.079011917114258 -10.589770317077637 0.19027948379516602
7.123288631439209 -10.607187271118164 0.1908828318119049
7.140810966491699 -10.585748672485352 0.1909124255180359
7.169979095458984 -10.581266403198242 0.19171947240829468
7.205561637878418 -10.585305213928223 0.19206975400447845
7.243033409118652 -10.593029022216797 0.1925009787082672
7.263906002044678 -10.576091766357422 0.19306319952011108
7.301992893218994 -10.583318710327148 0.1934967041015625
7.337253570556641 -10.587066650390625 0.19400887191295624
7.366267204284668 -10.5808687210083 0.194968581199646
7.39481258392334 -10.575004577636719 0.1951427310705185
7.428942680358887 -10.57672119140625 0.19563084840774536
7.4647603034973145 -10.579876899719238 0.19660019874572754
7.518042087554932 -10.561775207519531 0.19683881103992462
7.559331893920898 -10.572189331054688 0.19796618819236755
7.6182427406311035 -10.561371803283691 0.1985151767730713
7.652822494506836 -10.561965942382812 0.19946813583374023
7.717721462249756 -10.557668685913086 0.1999989151954651
7.751835346221924 -10.558276176452637 0.2003214955329895
7.843108177185059 -10.543007850646973 0.2017461210489273
8.447174072265625 -10.502107620239258 0.21086163818836212
8.546605110168457 -10.490006446838379 0.21236062049865723
8.61999797821045 -10.48956298828125 0.21325752139091492
8.656539916992188 -10.489578247070312 0.21362246572971344
8.73011589050293 -10.488443374633789 0.2150058150291443
8.759285926818848 -10.479183197021484 0.2151879072189331
8.830114364624023 -10.47396183013916 0.21669207513332367
8.858046531677246 -10.462684631347656 0.21681435406208038
8.899603843688965 -10.466619491577148 0.21730025112628937
8.937841415405273 -10.467495918273926 0.21836180984973907
8.971659660339355 -10.462785720825195 0.21901783347129822
9.002683639526367 -10.453960418701172 0.2192258983850479
9.045616149902344 -10.45983600616455 0.22041785717010498
9.075218200683594 -10.449889183044434 0.22060663998126984
9.12010383605957 -10.45663833618164 0.22133424878120422
9.144998550415039 -10.441360473632812 0.22139886021614075
9.194719314575195 -10.45299243927002 0.22274748980998993
9.22685432434082 -10.445734024047852 0.22298774123191833
9.260004997253418 -10.439252853393555 0.22327302396297455
9.301742553710938 -10.441557884216309 0.22440804541110992
9.335431098937988 -10.435691833496094 0.22471225261688232
9.367682456970215 -10.427846908569336 0.22512727975845337
9.41190242767334 -10.43242359161377 0.2256651073694229
9.448185920715332 -10.429044723510742 0.22601540386676788
9.519743919372559 -10.419504165649414 0.22734355926513672
9.635263442993164 -10.413710594177246 0.22941306233406067
9.74742603302002 -10.402973175048828 0.23121857643127441
9.876471519470215 -10.408768653869629 0.23308855295181274
10.214776992797852 -10.365296363830566 0.2386760413646698
10.335331916809082 -10.356583595275879 0.24015995860099792
10.457695960998535 -10.348264694213867 0.2421976774930954
10.586742401123047 -10.345050811767578 0.24439862370491028
10.673323631286621 -10.342143058776855 0.24629074335098267
10.703712463378906 -10.328607559204102 0.24648699164390564
10.781949043273926 -10.316768646240234 0.2472877949476242
10.82677173614502 -10.316704750061035 0.24802137911319733
10.873819351196289 -10.317303657531738 0.2493176907300949
10.918806076049805 -10.3170166015625 0.2498648315668106
10.958966255187988 -10.312002182006836 0.2502790689468384
11.009275436401367 -10.31508731842041 0.2509441673755646
11.046009063720703 -10.30654239654541 0.25200414657592773
11.09695053100586 -10.310818672180176 0.25288423895835876
11.141472816467285 -10.308188438415527 0.2534026801586151
11.176565170288086 -10.297689437866211 0.2537026107311249
11.22567081451416 -10.299681663513184 0.25505638122558594
11.266847610473633 -10.293482780456543 0.2555154860019684
11.300603866577148 -10.281378746032715 0.2557823657989502
11.355382919311523 -10.286965370178223 0.25727230310440063
11.394135475158691 -10.279104232788086 0.25766709446907043
11.442813873291016 -10.280027389526367 0.2584744095802307
11.483630180358887 -10.272448539733887 0.25889310240745544
11.53612995147705 -10.276395797729492 0.26035553216934204
11.617136001586914 -10.261137962341309 0.261191725730896
11.662487030029297 -10.258188247680664 0.2617399990558624
11.752500534057617 -10.249897956848145 0.26352623105049133
11.802202224731445 -10.250202178955078 0.26419341564178467
11.891311645507812 -10.240058898925781 0.26540616154670715
12.605656623840332 -10.181840896606445 0.27759140729904175
12.765645980834961 -10.17912769317627 0.2805033028125763
12.920849800109863 -10.170669555664062 0.28350868821144104
12.965224266052246 -10.162094116210938 0.28402575850486755
13.068187713623047 -10.154241561889648 0.285327672958374
13.111331939697266 -10.14419937133789 0.2865960896015167
13.173360824584961 -10.147278785705566 0.2875002920627594
13.217968940734863 -10.1380033493042 0.2879917025566101
13.28027629852295 -10.141822814941406 0.2891155183315277
13.325814247131348 -10.131872177124023 0.28965193033218384
13.383745193481445 -10.132158279418945 0.29126429557800293
13.421136856079102 -10.115434646606445 0.2915845513343811
13.484518051147461 -10.11939525604248 0.29251939058303833
13.534868240356445 -10.113343238830566 0.2931509017944336
13.597795486450195 -10.115167617797852 0.29405832290649414
13.651386260986328 -10.111095428466797 0.29556789994239807
13.704601287841797 -10.106536865234375 0.29628103971481323
13.754950523376465 -10.098373413085938 0.2977277934551239
13.799482345581055 -10.087061882019043 0.2982220947742462
13.859579086303711 -10.086660385131836 0.29927629232406616
13.929868698120117 -10.092637062072754 0.30035099387168884
13.96434211730957 -10.07348918914795 0.3006290793418884
14.024308204650879 -10.071268081665039 0.3022920489311218
14.085039138793945 -10.07064437866211 0.30314305424690247
14.13985538482666 -10.065559387207031 0.303878515958786
14.201457977294922 -10.06376838684082 0.3047336935997009
14.267879486083984 -10.066426277160645 0.3057170510292053
14.310239791870117 -10.051898956298828 0.30702412128448486
14.377481460571289 -10.053333282470703 0.30799397826194763
14.426780700683594 -10.043292045593262 0.30861347913742065
14.600637435913086 -10.028644561767578 0.31183910369873047
15.446135520935059 -9.953655242919922 0.3263838291168213
15.508260726928711 -9.948204040527344 0.3272511959075928
15.63633918762207 -9.937664031982422 0.3293124735355377
15.71630859375 -9.942761421203613 0.33059436082839966
15.842726707458496 -9.929561614990234 0.33301353454589844
15.904793739318848 -9.922550201416016 0.33387666940689087
16.02775001525879 -9.905733108520508 0.33557096123695374
16.100677490234375 -9.90468978881836 0.33669185638427734
16.162578582763672 -9.89523696899414 0.337537556886673
16.23050880432129 -9.890581130981445 0.33944064378738403
16.29640769958496 -9.884420394897461 0.34037211537361145
16.37209129333496 -9.882545471191406 0.34177446365356445
16.434736251831055 -9.873886108398438 0.3426593542098999
16.517133712768555 -9.875717163085938 0.3439571261405945
16.59148597717285 -9.873205184936523 0.3450596332550049
16.635610580444336 -9.852773666381836 0.3474010229110718
16.70438575744629 -9.845365524291992 0.3484078347682953
16.790782928466797 -9.849395751953125 0.3498036861419678
16.84710693359375 -9.835500717163086 0.3505198061466217
16.932510375976562 -9.836920738220215 0.351875364780426
16.993406295776367 -9.825188636779785 0.35270872712135315
17.080154418945312 -9.828106880187988 0.3541119694709778
17.137516021728516 -9.812442779541016 0.3557945489883423
17.202505111694336 -9.80230712890625 0.35672563314437866
17.285526275634766 -9.801048278808594 0.3580075800418854
17.36087989807129 -9.795928955078125 0.3591490387916565
17.424320220947266 -9.784110069274902 0.36001044511795044
17.586915969848633 -9.77822208404541 0.3625451922416687
17.65528106689453 -9.76832389831543 0.3645034730434418
17.812236785888672 -9.757412910461426 0.3669036328792572
17.879711151123047 -9.74619197845459 0.3678548038005829
18.0322322845459 -9.731050491333008 0.37015414237976074
18.114734649658203 -9.725959777832031 0.3714432716369629
18.289100646972656 -9.721708297729492 0.3751932680606842
18.51467514038086 -9.691685676574707 0.37952476739883423
19.016056060791016 -9.651204109191895 0.3885875344276428
19.26677894592285 -9.626611709594727 0.39249861240386963
19.432504653930664 -9.60766887664795 0.3947639465332031
19.528268814086914 -9.604328155517578 0.396325021982193
19.718215942382812 -9.594832420349121 0.4003974199295044
19.7984619140625 -9.58311653137207 0.40163201093673706
19.988096237182617 -9.57121753692627 0.40466174483299255
20.06876564025879 -9.558699607849121 0.4058750867843628
20.150287628173828 -9.545085906982422 0.4074026346206665
20.249298095703125 -9.540271759033203 0.4089882969856262
20.35733985900879 -9.539602279663086 0.4107883870601654
20.437904357910156 -9.524476051330566 0.4130741059780121
20.525941848754883 -9.51339054107666 0.4144675135612488
20.618270874023438 -9.503046989440918 0.4158904254436493
20.730621337890625 -9.502403259277344 0.417796790599823
20.817991256713867 -9.49022102355957 0.4191456735134125
20.92670249938965 -9.48615837097168 0.4209294319152832
21.018138885498047 -9.47475528717041 0.42237263917922974
21.126190185546875 -9.47076416015625 0.42527398467063904
21.203096389770508 -9.45089340209961 0.4263997972011566
21.314985275268555 -9.447793960571289 0.4282570779323578
21.411422729492188 -9.437426567077637 0.4298108220100403
21.50025177001953 -9.421777725219727 0.431170254945755
21.620044708251953 -9.4208402633667 0.4334806799888611
21.73048210144043 -9.414106369018555 0.4353086054325104
21.82396697998047 -9.40053653717041 0.4367695152759552
21.92730140686035 -9.39115047454834 0.43845170736312866
22.039752960205078 -9.383975982666016 0.44030752778053284
22.15254783630371 -9.377410888671875 0.44334331154823303
22.242647171020508 -9.361170768737793 0.4447275698184967
22.464603424072266 -9.343414306640625 0.44837620854377747
22.594440460205078 -9.342464447021484 0.45060330629348755
22.79755973815918 -9.314220428466797 0.45383721590042114
22.917367935180664 -9.30643081665039 0.4558546841144562
23.152788162231445 -9.289937973022461 0.4597681760787964
23.26235580444336 -9.276599884033203 0.46156489849090576
23.494291305541992 -9.254602432250977 0.46537190675735474
23.84253692626953 -9.219058990478516 0.47233355045318604
24.199247360229492 -9.182530403137207 0.4782297611236572
24.444034576416016 -9.1578369140625 0.4826465845108032
24.570268630981445 -9.146675109863281 0.48476937413215637
24.8063907623291 -9.116170883178711 0.48865145444869995
24.94895362854004 -9.109480857849121 0.4911142885684967
25.21501350402832 -9.086824417114258 0.49558669328689575
25.342025756835938 -9.072856903076172 0.49900931119918823
25.47580909729004 -9.06115436553955 0.501275360584259
25.60010528564453 -9.044170379638672 0.5033150315284729
25.746288299560547 -9.035394668579102 0.5058536529541016
25.879985809326172 -9.020634651184082 0.5081019997596741
26.01396942138672 -9.006465911865234 0.5103559494018555
26.15151023864746 -8.993353843688965 0.5126841068267822
26.287456512451172 -8.977726936340332 0.5150017738342285
26.403440475463867 -8.955822944641113 0.5168694257736206
26.55437660217285 -8.944189071655273 0.5198142528533936
26.699710845947266 -8.931489944458008 0.5223032832145691
26.835914611816406 -8.914795875549316 0.5242450833320618
26.97533416748047 -8.897552490234375 0.5265828371047974
27.126380920410156 -8.884998321533203 0.5291755795478821
27.267736434936523 -8.868301391601562 0.5315686464309692
27.42255210876465 -8.854304313659668 0.5342174172401428
27.572378158569336 -8.839153289794922 0.5375094413757324
27.731443405151367 -8.826725959777832 0.5402606129646301
28.179046630859375 -8.772990226745605 0.5478683710098267
28.348905563354492 -8.760987281799316 0.5508370995521545
28.492691040039062 -8.740689277648926 0.5546980500221252
28.649734497070312 -8.722345352172852 0.5574108958244324
28.822887420654297 -8.709346771240234 0.5604255795478821
28.98391342163086 -8.692403793334961 0.5632030367851257
29.135108947753906 -8.670357704162598 0.5657814741134644
29.311321258544922 -8.656219482421875 0.5688449144363403
29.485130310058594 -8.639517784118652 0.5718610882759094
29.64565086364746 -8.619791030883789 0.5731413960456848
30.0122127532959 -8.589459419250488 0.5795331001281738
30.5302677154541 -8.530442237854004 0.5884645581245422
30.898452758789062 -8.493196487426758 0.5949006676673889
31.083757400512695 -8.474793434143066 0.5981311798095703
31.467966079711914 -8.437331199645996 0.6048359274864197
31.651958465576172 -8.416296005249023 0.6092872023582458
32.02619934082031 -8.37155818939209 0.615363359451294
32.42435836791992 -8.329910278320312 0.6223398447036743
32.6141357421875 -8.306554794311523 0.6256479024887085
32.99796676635742 -8.256487846374512 0.6323336362838745
33.2139892578125 -8.236888885498047 0.6361533999443054
33.42518615722656 -8.215673446655273 0.6398621201515198
33.61973190307617 -8.187824249267578 0.6432605385780334
33.84455108642578 -8.167759895324707 0.6472459435462952
34.04104232788086 -8.140460968017578 0.6506702899932861
34.26190948486328 -8.116401672363281 0.6528617143630981
34.47068786621094 -8.089886665344238 0.656513512134552
34.699283599853516 -8.06583023071289 0.660531759262085
34.916046142578125 -8.039881706237793 0.664339005947113
35.13941192626953 -8.014093399047852 0.6682800054550171
35.362152099609375 -7.985933303833008 0.6722074151039124
35.606449127197266 -7.963005065917969 0.6765275001525879
35.81608963012695 -7.93006706237793 0.6801469326019287
36.081748962402344 -7.910376071929932 0.6849189400672913
36.29709243774414 -7.8781938552856445 0.6886737942695618
36.545963287353516 -7.850986480712891 0.6930999755859375
36.78290557861328 -7.82206916809082 0.697727382183075
37.028690338134766 -7.793562889099121 0.7020997405052185
37.289764404296875 -7.7658562660217285 0.7067589163780212
37.5346794128418 -7.735626697540283 0.7110729217529297
37.800270080566406 -7.708122730255127 0.715796947479248
38.05060958862305 -7.675045490264893 0.7202280163764954
38.30935287475586 -7.644030570983887 0.724833607673645
38.59015655517578 -7.614886283874512 0.7298451662063599
38.85001754760742 -7.582437992095947 0.7344734072685242
39.12031555175781 -7.550435543060303 0.7392591238021851
39.39958190917969 -7.5175886154174805 0.7442466616630554
39.6782112121582 -7.485448837280273 0.7492167353630066
39.9605712890625 -7.452347278594971 0.7542502880096436
40.240665435791016 -7.416193962097168 0.7572535276412964
23.680936813354492 -3.954554319381714 0.4443347454071045
23.83416748046875 -3.9293198585510254 0.44701606035232544
23.855894088745117 -3.573303461074829 0.4466943144798279
23.9736328125 -3.3862297534942627 0.4467954635620117
23.60106658935547 -3.0812625885009766 0.4385618269443512
23.76569366455078 -3.052302837371826 0.44113588333129883
24.191646575927734 -3.054804801940918 0.44819915294647217
25.31005859375 -3.142361879348755 0.4697869122028351
25.372726440429688 -3.0954434871673584 0.47077468037605286
25.530092239379883 -2.9518773555755615 0.4746401011943817
25.902324676513672 -2.940458297729492 0.48179060220718384
46.111820220947266 -5.134909629821777 0.8751602172851562
46.44474411010742 -5.074429512023926 0.882036566734314
46.794227600097656 -5.014368057250977 0.8886609673500061
54.57693862915039 -5.383782863616943 1.0110105276107788
55.04111099243164 -5.314262866973877 1.0186935663223267
49.92704772949219 -4.608356475830078 0.9451726078987122
50.31993865966797 -4.539328098297119 0.952641487121582
50.72834777832031 -4.466941833496094 0.9603807926177979
51.10885238647461 -4.39358377456665 0.9675995707511902
51.55491256713867 -4.324171543121338 0.9759296178817749
58.50233459472656 -4.781055450439453 1.0813570022583008
59.01179122924805 -4.699432373046875 1.0905770063400269
59.5406494140625 -4.616465091705322 1.1002036333084106
60.05802536010742 -4.528299331665039 1.1066498756408691
60.62630081176758 -4.444639682769775 1.116965651512146
61.15428924560547 -4.352026462554932 1.1264963150024414
61.72807693481445 -4.264132022857666 1.1369245052337646
62.8554573059082 -4.076111793518066 1.1573803424835205
63.438053131103516 -3.98171067237854 1.1679518222808838
64.04121398925781 -3.8822402954101562 1.1788973808288574
64.66314697265625 -3.785277843475342 1.1901956796646118
65.30025482177734 -3.6866140365600586 1.2018147706985474
65.9136734008789 -3.5800068378448486 1.212946891784668
66.55415344238281 -3.4762885570526123 1.2246034145355225
67.19107055664062 -3.3697564601898193 1.2361531257629395
67.86903381347656 -3.2584240436553955 1.248531699180603
68.52887725830078 -3.1475791931152344 1.2605488300323486
69.9463882446289 -2.917545795440674 1.285521149635315
70.6676025390625 -2.800736904144287 1.2986849546432495
71.39642333984375 -2.6768763065338135 1.3085112571716309
72.10938262939453 -2.553767204284668 1.3214629888534546
72.6909408569336 -2.267890691757202 1.3389642238616943
73.20507049560547 -2.131877899169922 1.3493168354034424
73.75385284423828 -1.994685173034668 1.360488772392273
74.24504089355469 -1.8492578268051147 1.3668879270553589
74.66152954101562 -1.7046059370040894 1.3761425018310547
76.81298065185547 -1.106513500213623 1.4200912714004517
77.65727233886719 -0.7963183522224426 1.4394001960754395
78.33455657958984 -0.6359084844589233 1.4526060819625854
78.79539489746094 -0.47612541913986206 1.4627171754837036
79.33303833007812 -0.3098962604999542 1.474130392074585
14.718612670898438 8.112555503845215 0.23787793517112732
14.568931579589844 8.110238075256348 0.23516424000263214
14.373552322387695 8.120255470275879 0.23180823028087616
14.160234451293945 8.117594718933105 0.2297813594341278
12.257993698120117 8.12943172454834 0.19741597771644592
12.099437713623047 8.134259223937988 0.19442151486873627
11.974045753479004 8.123387336730957 0.19221296906471252
11.934207916259766 8.132575988769531 0.191681370139122
11.873546600341797 8.127371788024902 0.19095979630947113
11.833110809326172 8.136870384216309 0.1899014115333557
11.772292137145996 8.131082534790039 0.18918874859809875
11.723901748657227 8.133646965026855 0.18848855793476105
11.675531387329102 8.137090682983398 0.18728883564472198
11.621862411499023 8.135571479797363 0.18669632077217102
11.511953353881836 8.131087303161621 0.1845782846212387
11.46569538116455 8.134129524230957 0.18411141633987427
11.313315391540527 8.133426666259766 0.1816042810678482
11.157752990722656 8.129312515258789 0.17923179268836975
10.175665855407715 8.1234769821167 0.16236437857151031
10.05325698852539 8.129758834838867 0.15979065001010895
9.956933975219727 8.121458053588867 0.15799908339977264
9.91841983795166 8.12437629699707 0.15766194462776184
9.823954582214355 8.116372108459473 0.15560877323150635
9.788771629333496 8.121542930603027 0.1551578938961029
9.737335205078125 8.113240242004395 0.1539866179227829
9.698282241821289 8.115666389465332 0.15363793075084686
9.670522689819336 8.126815795898438 0.15287192165851593
9.631486892700195 8.12898063659668 0.1523488461971283
9.58564281463623 8.124411582946777 0.15126846730709076
9.54169750213623 8.12144947052002 0.15082311630249023
9.50023078918457 8.121015548706055 0.1503310203552246
9.45910930633545 8.119898796081543 0.1493130922317505
9.413496017456055 8.114931106567383 0.14886009693145752
9.376678466796875 8.117976188659668 0.147933229804039
9.335153579711914 8.11617660522461 0.1474238485097885
9.292825698852539 8.11410140991211 0.1464063823223114
9.256272315979004 8.116098403930664 0.1460830271244049
9.17689037322998 8.11510944366455 0.14461162686347961
9.138936996459961 8.115405082702637 0.14367589354515076
9.060985565185547 8.114690780639648 0.14223887026309967
9.029787063598633 8.120580673217773 0.14201444387435913
8.945392608642578 8.11308479309082 0.14063501358032227
8.82211971282959 8.102945327758789 0.1384524255990982
8.718353271484375 8.109272956848145 0.13632744550704956
8.50637149810791 8.114749908447266 0.1331537961959839
8.382981300354004 8.098506927490234 0.13011635839939117
8.280284881591797 8.10054874420166 0.12874835729599
8.205283164978027 8.095081329345703 0.12739650905132294
8.17854118347168 8.102258682250977 0.1272653192281723
8.10672664642334 8.09904670715332 0.12594446539878845
8.075963973999023 8.101869583129883 0.12519334256649017
8.008173942565918 8.101819038391113 0.12396138906478882
7.968177795410156 8.094884872436523 0.12357348948717117
7.9304375648498535 8.090848922729492 0.12257912009954453
7.894347190856934 8.087730407714844 0.12227540463209152
7.867752552032471 8.094018936157227 0.1215667873620987
7.829477310180664 8.08914566040039 0.1211143210530281
7.799716472625732 8.091933250427246 0.12035725265741348
7.757787227630615 8.081932067871094 0.11995968967676163
7.732968330383301 8.090600967407227 0.1198243647813797
7.699008941650391 8.08860969543457 0.11889711767435074
7.6691741943359375 8.091611862182617 0.11870886385440826
7.631926536560059 8.086050987243652 0.11785175651311874
7.605495452880859 8.091621398925781 0.11756361275911331
7.571213245391846 8.089509963989258 0.11620253324508667
7.537909507751465 8.087698936462402 0.11595997959375381
7.51422643661499 8.096701622009277 0.11530770361423492
7.489442825317383 8.103658676147461 0.11506341397762299
7.454617023468018 8.099831581115723 0.11423239856958389
7.417203903198242 8.093613624572754 0.1139189675450325
7.397998809814453 8.106565475463867 0.11319778859615326
7.356559753417969 8.094830513000488 0.11282286792993546
7.322358131408691 8.09166145324707 0.11202371120452881
7.293147087097168 8.093274116516113 0.11183804273605347
7.267751693725586 8.09961986541748 0.11104469746351242
7.203867435455322 8.095968246459961 0.11020088195800781
7.180126190185547 8.1038818359375 0.10996247828006744
7.079328536987305 8.092041015625 0.10801005363464355
7.019444942474365 8.092106819152832 0.10761497169733047
6.993452072143555 8.096023559570312 0.1069612130522728
6.933147430419922 8.094876289367676 0.1058928593993187
6.897632598876953 8.087318420410156 0.10559909790754318
6.880504131317139 8.102227210998535 0.1049623191356659
6.839962959289551 8.088447570800781 0.10355424880981445
6.780444145202637 8.086894989013672 0.10251389443874359
6.752383708953857 8.087456703186035 0.10235312581062317
6.696881294250488 8.089991569519043 0.10151086747646332
6.662930488586426 8.083067893981934 0.10061317682266235
6.60151481628418 8.077632904052734 0.09968270361423492
6.574291229248047 8.078478813171387 0.09939280897378922
6.546380519866943 8.079374313354492 0.0987350270152092
6.525810718536377 8.08824634552002 0.0989258736371994
6.491400718688965 8.080052375793457 0.09813620895147324
6.4687299728393555 8.086954116821289 0.09794476628303528
6.435447692871094 8.079660415649414 0.09719172865152359
6.406169414520264 8.077444076538086 0.09698086977005005
6.386519432067871 8.087892532348633 0.0963190346956253
6.3580732345581055 8.086518287658691 0.09614809602499008
6.332910060882568 8.089818000793457 0.09551786631345749
6.308022499084473 8.092570304870605 0.09540192782878876
6.2796430587768555 8.090937614440918 0.0945919007062912
6.24584436416626 8.082775115966797 0.09434649348258972
6.238795280456543 8.108376502990723 0.09401631355285645
6.199369430541992 8.092846870422363 0.0935458168387413
6.169894218444824 8.089086532592773 0.09234517812728882
6.150748252868652 8.098783493041992 0.0923418253660202
6.12716007232666 8.103608131408691 0.0916239470243454
6.0994954109191895 8.101914405822754 0.0914618968963623
6.072079658508301 8.10042667388916 0.09079959988594055
6.043074607849121 8.097719192504883 0.0906258076429367
6.017268180847168 8.09814453125 0.08986598998308182
5.9889702796936035 8.09613037109375 0.08970753103494644
5.961449146270752 8.09400463104248 0.08903975784778595
5.933742046356201 8.091497421264648 0.08876830339431763
5.907166481018066 8.091447830200195 0.08813396096229553
5.88108491897583 8.090925216674805 0.08823759108781815
5.850279808044434 8.08376407623291 0.08752604573965073
5.821124076843262 8.07976245880127 0.08734859526157379
5.796722412109375 8.081198692321777 0.08662296831607819
5.748340606689453 8.085430145263672 0.08592679351568222
5.71925687789917 8.079976081848145 0.08563627302646637
5.694362640380859 8.081360816955566 0.08503640443086624
5.670979976654053 8.08375072479248 0.08494329452514648
5.618194580078125 8.08067798614502 0.08404506742954254
5.58364200592041 8.066645622253418 0.08329567313194275
5.572897434234619 8.087989807128906 0.08340931683778763
5.541637420654297 8.078451156616211 0.08258264511823654
5.512986183166504 8.072546005249023 0.08191525191068649
5.492866516113281 8.080094337463379 0.08189639449119568
5.473557472229004 8.087739944458008 0.08125701546669006
5.444005489349365 8.080145835876465 0.08104722946882248
5.420316219329834 8.08219051361084 0.0804886743426323
5.3993940353393555 8.0872220993042 0.08031397312879562
5.3662261962890625 8.074628829956055 0.07958627492189407
5.345525741577148 8.080018997192383 0.07952681928873062
5.324465751647949 8.0845947265625 0.07889264076948166
5.298436641693115 8.082391738891602 0.07875578105449677
5.2744035720825195 8.082478523254395 0.07839865237474442
5.250783920288086 8.082884788513184 0.0778345987200737
5.230646133422852 8.089659690856934 0.0778021588921547
5.200830936431885 8.08027458190918 0.07747821509838104
5.18001127243042 8.085611343383789 0.07696467638015747
5.152130126953125 8.079171180725098 0.07632668316364288
5.128826141357422 8.079565048217773 0.07610660046339035
5.110268592834473 8.08824634552002 0.07608303427696228
5.080514907836914 8.078450202941895 0.07543262094259262
5.052140712738037 8.071321487426758 0.07466310262680054
5.033048152923584 8.078045845031738 0.07464681565761566
5.002674579620361 8.066766738891602 0.07396945357322693
4.986515045166016 8.07896900177002 0.0738757774233818
4.9591450691223145 8.07227897644043 0.07325088232755661
4.939768314361572 8.078276634216309 0.07275019586086273
4.908692359924316 8.065897941589355 0.07243166863918304
4.891290187835693 8.075212478637695 0.07198018580675125
4.867682456970215 8.07489013671875 0.0718710869550705
4.847422122955322 8.079379081726074 0.07137224823236465
4.81763219833374 8.067628860473633 0.07105443626642227
4.799168109893799 8.075624465942383 0.07057715207338333
4.765696048736572 8.0575532913208 0.07032296061515808
4.74365758895874 8.058409690856934 0.06967818737030029
4.726017951965332 8.067588806152344 0.06967328488826752
4.702364444732666 8.065771102905273 0.06923539936542511
4.680372714996338 8.066473960876465 0.06914879381656647
15.846027374267578 9.039093971252441 0.404525488615036
15.195965766906738 9.00963306427002 0.3890972435474396
14.992803573608398 9.017043113708496 0.3842840790748596
14.755224227905273 9.00095272064209 0.3795962631702423
12.850061416625977 8.914941787719727 0.3349827826023102
12.683759689331055 8.918204307556152 0.3311494290828705
12.496678352355957 8.904586791992188 0.32565343379974365
12.312432289123535 8.890531539916992 0.32137566804885864
12.195444107055664 8.88443660736084 0.3185371160507202
12.141103744506836 8.883474349975586 0.3175998330116272
12.034446716308594 8.883491516113281 0.3148490786552429
11.982791900634766 8.88383674621582 0.3139902949333191
11.875629425048828 8.882135391235352 0.311265230178833
11.804408073425293 8.86712646484375 0.3098337650299072
11.698517799377441 8.864895820617676 0.307868629693985
11.53841781616211 8.858315467834473 0.3036843538284302
10.5780029296875 8.813475608825684 0.2804861068725586
10.421343803405762 8.794530868530273 0.2769334018230438
10.289894104003906 8.794950485229492 0.274236261844635
10.179251670837402 8.7748384475708 0.271424800157547
10.132341384887695 8.771330833435059 0.27067017555236816
10.056398391723633 8.779736518859863 0.26883628964424133
10.007803916931152 8.774188995361328 0.266876220703125
9.929061889648438 8.77917194366455 0.2650798559188843
9.878046035766602 8.770870208740234 0.2640606462955475
9.823898315429688 8.760181427001953 0.2624369263648987
9.787385940551758 8.764152526855469 0.26196223497390747
9.732051849365234 8.751273155212402 0.2609660029411316
9.691471099853516 8.752084732055664 0.25957292318344116
9.656293869018555 8.756767272949219 0.25914570689201355
9.615413665771484 8.757200241088867 0.25788694620132446
9.560068130493164 8.743159294128418 0.256709486246109
9.537399291992188 8.759053230285645 0.25598272681236267
9.4901123046875 8.752860069274902 0.2551901936531067
9.453405380249023 8.755379676818848 0.25408557057380676
9.413228988647461 8.754742622375488 0.2533220052719116
9.37083911895752 8.752513885498047 0.25207433104515076
9.315241813659668 8.73685073852539 0.2510402202606201
9.23854923248291 8.738343238830566 0.24918384850025177
9.203369140625 8.741326332092285 0.24810463190078735
9.117437362670898 8.733036994934082 0.24601173400878906
8.99250602722168 8.722430229187012 0.24300827085971832
8.883796691894531 8.726045608520508 0.24094857275485992
8.528657913208008 8.7003173828125 0.23287548124790192
8.422407150268555 8.700676918029785 0.22954869270324707
8.347661972045898 8.696453094482422 0.22789493203163147
8.303685188293457 8.686649322509766 0.2270115315914154
8.239338874816895 8.692330360412598 0.22569721937179565
8.21867561340332 8.706647872924805 0.22491084039211273
8.124397277832031 8.679713249206543 0.2227100282907486
8.0872163772583 8.676008224487305 0.2220483422279358
8.064292907714844 8.688343048095703 0.2213456630706787
8.017220497131348 8.673869132995605 0.22054563462734222
7.981949329376221 8.671743392944336 0.21934694051742554
7.951383590698242 8.675444602966309 0.21901223063468933
7.9123125076293945 8.669075012207031 0.2184479534626007
7.8726067543029785 8.662453651428223 0.21712647378444672
7.8439764976501465 8.667231559753418 0.21683335304260254
7.807412147521973 8.662894248962402 0.21574074029922485
7.776053428649902 8.665038108825684 0.21538254618644714
7.7382073402404785 8.659160614013672 0.21411219239234924
7.719738006591797 8.67465591430664 0.21412888169288635
7.68376350402832 8.671463012695312 0.2130509316921234
7.650036334991455 8.669578552246094 0.2119334191083908
7.611735820770264 8.66319465637207 0.21077339351177216
7.587764739990234 8.672354698181152 0.21063387393951416
7.542769908905029 8.657114028930664 0.2092968076467514
7.522848606109619 8.671367645263672 0.2091367244720459
7.481219291687012 8.659835815429688 0.20790860056877136
7.461091041564941 8.672852516174316 0.20785531401634216
7.41325569152832 8.654361724853516 0.2063300460577011
7.388436317443848 8.661917686462402 0.20615077018737793
7.350391387939453 8.654479026794434 0.20502538979053497
7.287327766418457 8.652970314025879 0.20369434356689453
7.270060062408447 8.669774055480957 0.203764408826828
7.193409442901611 8.652114868164062 0.20193780958652496
7.151329517364502 8.637901306152344 0.2007063627243042
7.094581604003906 8.643202781677246 0.19944198429584503
7.0623459815979 8.64043140411377 0.19903233647346497
7.00529670715332 8.644679069519043 0.1977820098400116
6.974967956542969 8.6438627243042 0.19687046110630035
6.915288925170898 8.644142150878906 0.195688396692276
6.855306148529053 8.643536567687988 0.19380226731300354
6.82707405090332 8.644726753234863 0.19352401793003082
6.765833854675293 8.641759872436523 0.19213303923606873
6.724535942077637 8.626046180725098 0.19093218445777893
6.673645496368408 8.635305404663086 0.1898522973060608
6.638334274291992 8.626773834228516 0.1893385797739029
6.60093879699707 8.615978240966797 0.18826955556869507
6.578118324279785 8.623199462890625 0.18800707161426544
6.548408508300781 8.621516227722168 0.1873791515827179
6.51890754699707 8.620628356933594 0.18708279728889465
6.495204448699951 8.626435279846191 0.18625572323799133
6.463458061218262 8.622543334960938 0.18588824570178986
6.435819625854492 8.622899055480957 0.1850547343492508
6.410221576690674 8.625887870788574 0.18471097946166992
6.36885929107666 8.608580589294434 0.18352960050106049
6.353410720825195 8.625078201293945 0.18359148502349854
6.321978569030762 8.620031356811523 0.1826850026845932
6.290706634521484 8.615704536437988 0.18217068910598755
6.266252040863037 8.619714736938477 0.18145935237407684
6.246727466583252 8.63156509399414 0.1814330816268921
6.211141109466553 8.619999885559082 0.1802501380443573
6.18190860748291 8.617076873779297 0.1788964569568634
6.155960559844971 8.619726181030273 0.17866721749305725
6.129086494445801 8.61985969543457 0.17777875065803528
6.095073223114014 8.609801292419434 0.17728304862976074
6.067434310913086 8.609701156616211 0.1765144318342209
6.043783664703369 8.614048957824707 0.17635756731033325
6.012880802154541 8.608166694641113 0.17532311379909515
5.987841606140137 8.611223220825195 0.17512580752372742
5.949666500091553 8.594318389892578 0.17401936650276184
5.935508728027344 8.61312484741211 0.17402204871177673
5.90458869934082 8.606426239013672 0.17313051223754883
5.871645450592041 8.596822738647461 0.17293250560760498
5.854523181915283 8.610965728759766 0.17247091233730316
5.822796821594238 8.602644920349121 0.17191949486732483
5.793342113494873 8.598640441894531 0.17109717428684235
5.770664215087891 8.603456497192383 0.17095565795898438
5.735681056976318 8.589778900146484 0.16992731392383575
5.710940361022949 8.592416763305664 0.16961146891117096
5.689085483551025 8.598186492919922 0.16900090873241425
5.651952266693115 8.580705642700195 0.16840441524982452
5.632150173187256 8.590535163879395 0.1677512377500534
5.608712196350098 8.593626022338867 0.16757981479167938
5.559971809387207 8.5978422164917 0.16657456755638123
5.52557373046875 8.583661079406738 0.1655883938074112
5.503128528594971 8.589052200317383 0.16495592892169952
5.475924968719482 8.585766792297363 0.16455264389514923
5.4576416015625 8.596394538879395 0.16403000056743622
5.431454658508301 8.595674514770508 0.1638181209564209
5.392899513244629 8.574007034301758 0.1625482439994812
5.346290111541748 8.57986831665039 0.16173876821994781
5.322701454162598 8.581636428833008 0.1615755409002304
5.270127296447754 8.577308654785156 0.15996131300926208
5.245568752288818 8.578131675720215 0.1600007712841034
5.2155985832214355 8.56926155090332 0.15914683043956757
5.18908166885376 8.565669059753418 0.15874947607517242
5.173193454742432 8.580511093139648 0.15833666920661926
5.145965576171875 8.575785636901855 0.1580558866262436
5.115525245666504 8.565295219421387 0.15705406665802002
5.091582775115967 8.56672477722168 0.1568736732006073
5.069016456604004 8.569194793701172 0.15626180171966553
5.046009540557861 8.570840835571289 0.15597012639045715
5.011507034301758 8.553980827331543 0.15498508512973785
4.993374824523926 8.563727378845215 0.15496087074279785
4.966980934143066 8.560192108154297 0.1540972739458084
4.9481201171875 8.568843841552734 0.15408019721508026
4.9236674308776855 8.567505836486816 0.15339061617851257
4.902288436889648 8.572397232055664 0.1526888608932495
4.871015548706055 8.559124946594238 0.1522732675075531
4.845736503601074 8.555959701538086 0.15154680609703064
4.828733444213867 8.568325996398926 0.15146507322788239
4.7977190017700195 8.554997444152832 0.15056362748146057
4.781275272369385 8.568281173706055 0.15063385665416718
4.745057106018066 8.545248985290527 0.14944972097873688
4.732361793518066 8.564212799072266 0.14961601793766022
4.703912258148193 8.555602073669434 0.14880286157131195
4.683247089385986 8.560294151306152 0.14860408008098602
4.651839256286621 8.545942306518555 0.1479443460702896
4.6359944343566895 8.559085845947266 0.1480116844177246
66.05987548828125 2.518629789352417 1.4207725524902344
64.62919616699219 2.598419666290283 1.389709234237671
59.64717483520508 3.025604724884033 1.2822259664535522
56.83378219604492 3.2412421703338623 1.2187964916229248
56.15174865722656 3.3192644119262695 1.2043092250823975
54.19904708862305 3.548596143722534 1.1613221168518066
43.67951202392578 5.07792329788208 0.9263252019882202
42.841861724853516 5.253716945648193 0.9092398881912231
41.912384033203125 5.407907962799072 0.8874731063842773
41.43907928466797 5.523852348327637 0.8779250383377075
41.219085693359375 5.582113265991211 0.8734889626502991
40.70828628540039 5.687624454498291 0.8606228828430176
40.46184158325195 5.738821983337402 0.8556845784187317
40.22747802734375 5.792778015136719 0.850910484790802
39.99457550048828 5.844474792480469 0.8462833762168884
39.79901123046875 5.900278091430664 0.8423823118209839
39.564781188964844 5.951470375061035 0.8376550674438477
39.35581970214844 6.0040693283081055 0.8315116763114929
39.085052490234375 6.045785903930664 0.8255509734153748
38.714168548583984 6.155468463897705 0.8182662725448608
38.5087890625 6.206709384918213 0.8141640424728394
37.905616760253906 6.3542327880859375 0.8007780313491821
37.33052062988281 6.499362945556641 0.7876133918762207
34.13960266113281 7.058082580566406 0.7181389927864075
33.40375518798828 7.125213623046875 0.7031182646751404
32.741058349609375 7.199344158172607 0.6892895698547363
32.117923736572266 7.274296283721924 0.6751084327697754
31.6967716217041 7.319381237030029 0.6669000387191772
31.51532745361328 7.3464035987854 0.663398027420044
31.13027000427246 7.395008087158203 0.6540027260780334
30.915647506713867 7.412232398986816 0.6498074531555176
30.703861236572266 7.430455684661865 0.6456827521324158
30.51723289489746 7.45236349105835 0.64205002784729
30.324291229248047 7.472353935241699 0.6379388570785522
30.138050079345703 7.494398593902588 0.6343775391578674
29.94141387939453 7.511898994445801 0.6305660605430603
29.740962982177734 7.527247905731201 0.6251328587532043
29.536399841308594 7.542264938354492 0.6211320161819458
29.37604331970215 7.566669464111328 0.6177752017974854
29.18723487854004 7.5841803550720215 0.6141234636306763
28.998680114746094 7.599462032318115 0.6090087294578552
28.64583969116211 7.636063575744629 0.6019067764282227
28.10565185546875 7.681632041931152 0.5911799669265747
27.586978912353516 7.726579666137695 0.579534649848938
27.069265365600586 7.76542854309082 0.5682892799377441
25.622716903686523 7.878082275390625 0.5386457443237305
25.159950256347656 7.909258842468262 0.5286624431610107
24.72052764892578 7.942230224609375 0.5188747048377991
24.444839477539062 7.9673848152160645 0.513167679309845
24.27712631225586 7.968491554260254 0.5099909901618958
23.99890899658203 7.989286422729492 0.504836916923523
23.851768493652344 7.9953227043151855 0.5005577206611633
23.73212432861328 8.011651992797852 0.4984116554260254
23.5972843170166 8.020719528198242 0.49593305587768555
23.447710037231445 8.024197578430176 0.49190753698349
23.32076644897461 8.036449432373047 0.4893037676811218
23.193214416503906 8.046379089355469 0.4869860112667084
23.072093963623047 8.058040618896484 0.48359009623527527
22.925342559814453 8.061775207519531 0.4808470606803894
