VERSION .7
FIELDS x y z
SIZE 4 4 4
TYPE F F F
COUNT 1 1 1
WIDTH 847
HEIGHT 1
VIEWPOINT 0 0 0 1 0 0 0
POINTS 847
DATA ascii
29.642215728759766 0.009046087972819805 0.4970552623271942
29.62689781188965 0.07052314281463623 0.49678176641464233
29.59723663330078 0.1336798220872879 0.49632105231285095
29.562387466430664 0.19487205147743225 0.49575334787368774
29.532499313354492 0.3190585672855377 0.4950070083141327
29.490663528442383 0.3798140585422516 0.49430355429649353
29.415523529052734 0.4416969418525696 0.4960457384586334
29.361570358276367 0.501833438873291 0.4935918152332306
29.373348236083984 0.6257842779159546 0.4938308000564575
29.275657653808594 0.9920781254768372 0.4920988380908966
29.170475006103516 1.1115224361419678 0.49041759967803955
29.11516571044922 1.1699271202087402 0.4895049035549164
29.134639739990234 1.2330539226531982 0.4899056851863861
29.10079574584961 1.2921249866485596 0.4878663420677185
29.082250595092773 1.3517773151397705 0.48759546875953674
29.063627243041992 1.4131388664245605 0.48705223202705383
29.077045440673828 1.4742807149887085 0.48736903071403503
28.99771499633789 1.530863642692566 0.4860333800315857
28.98554039001465 1.6523914337158203 0.4859473407268524
28.959239959716797 1.7129642963409424 0.4855691194534302
28.953168869018555 1.7729063034057617 0.4855453372001648
28.912046432495117 1.8306193351745605 0.4849081039428711
28.90187644958496 1.891972303390503 0.48630425333976746
28.881797790527344 1.9508583545684814 0.48605114221572876
28.846345901489258 2.00887393951416 0.48525306582450867
28.839805603027344 2.070068359375 0.48522379994392395
28.79924201965332 2.127237319946289 0.48312440514564514
28.776351928710938 2.1858651638031006 0.48279380798339844
28.770870208740234 2.2470078468322754 0.48277747631073
28.738344192504883 2.3044791221618652 0.48229438066482544
28.72604751586914 2.3652637004852295 0.4821810722351074
28.68610382080078 2.4219181537628174 0.48158490657806396
28.693220138549805 2.48276424407959 0.4818021357059479
28.66647720336914 2.5418920516967773 0.481405645608902
28.672508239746094 2.6024069786071777 0.4816129505634308
28.62380599975586 2.65964937210083 0.4793637692928314
28.63848304748535 2.720968723297119 0.4797334671020508
28.594627380371094 2.776688575744629 0.47906041145324707
28.595617294311523 2.8384604454040527 0.47919413447380066
28.57765769958496 2.896578788757324 0.478716105222702
28.547903060913086 2.9534268379211426 0.4783308506011963
28.540576934814453 3.0143046379089355 0.4782940745353699
28.526445388793945 3.072683334350586 0.4781739115715027
28.4980525970459 3.1312239170074463 0.4763178825378418
28.491159439086914 3.1903188228607178 0.47632136940956116
28.44519805908203 3.3065271377563477 0.4757677912712097
28.41582489013672 3.3628923892974854 0.4753817915916443
28.39202880859375 3.4813828468322754 0.4749782681465149
28.37527084350586 3.6006886959075928 0.474934846162796
28.361249923706055 3.6587281227111816 0.4748597741127014
28.317913055419922 3.7128965854644775 0.4742502272129059
28.320785522460938 3.7748301029205322 0.47295570373535156
28.326374053955078 3.835418701171875 0.47320303320884705
28.3004207611084 3.8917274475097656 0.4726407825946808
28.276901245117188 3.9500598907470703 0.47238031029701233
28.243412017822266 4.005152702331543 0.4724973142147064
28.221099853515625 4.063507080078125 0.4722691476345062
28.202423095703125 4.120574951171875 0.4706464409828186
28.188013076782227 4.178231716156006 0.47055381536483765
28.15338134765625 4.234581470489502 0.4698435068130493
28.123188018798828 4.289740085601807 0.4694778025150299
28.093746185302734 4.3449249267578125 0.46914857625961304
28.061965942382812 4.401411056518555 0.46882301568984985
28.014097213745117 4.453486919403076 0.46816185116767883
28.000564575195312 4.512683868408203 0.466668963432312
27.948183059692383 4.5637664794921875 0.4659503698348999
27.89842987060547 4.615100383758545 0.46354788541793823
27.845996856689453 4.6675615310668945 0.46282485127449036
27.833438873291016 4.724860191345215 0.4627815783023834
27.809200286865234 4.780401706695557 0.46256083250045776
27.750396728515625 4.8310866355896 0.4617098569869995
27.699214935302734 4.8814215660095215 0.45958343148231506
27.625633239746094 4.929324626922607 0.4585148096084595
27.60668182373047 4.985078811645508 0.45812690258026123
27.545434951782227 5.033066749572754 0.4572650194168091
27.49856948852539 5.085232257843018 0.4566737413406372
27.475082397460938 5.1398773193359375 0.4564606845378876
27.417526245117188 5.189493179321289 0.4556797742843628
27.391294479370117 5.243691444396973 0.4539777636528015
27.374929428100586 5.299471855163574 0.4546806216239929
27.30727195739746 5.346920490264893 0.4537303149700165
27.274044036865234 5.399207592010498 0.4531146287918091
27.246055603027344 5.452447891235352 0.45280927419662476
27.19176483154297 5.502022743225098 0.4506831467151642
27.164579391479492 5.5552263259887695 0.45042726397514343
27.112686157226562 5.6032562255859375 0.4497506320476532
27.06748390197754 5.654233932495117 0.4491974413394928
27.02971839904785 5.704909324645996 0.44878891110420227
26.94095230102539 5.8047943115234375 0.4460207223892212
26.917322158813477 5.858181476593018 0.44297587871551514
26.88256072998047 5.910792350769043 0.44262394309043884
26.848255157470703 5.9616851806640625 0.4422430098056793
26.808176040649414 6.0111870765686035 0.4417721629142761
26.750160217285156 6.058224678039551 0.440781831741333
26.72490692138672 6.110836505889893 0.439150333404541
26.68222427368164 6.161086082458496 0.4386617839336395
26.626222610473633 6.20638370513916 0.4379275441169739
26.597862243652344 6.257996559143066 0.43769073486328125
26.560976028442383 6.309228420257568 0.43729305267333984
26.530902862548828 6.360276699066162 0.43536636233329773
26.475069046020508 6.406472206115723 0.4346478283405304
26.448041915893555 6.45831823348999 0.4344448745250702
26.39319610595703 6.502992153167725 0.4345005750656128
26.353782653808594 6.553027629852295 0.43408074975013733
26.312721252441406 6.600828647613525 0.4322230815887451
26.28397560119629 6.651623725891113 0.43198373913764954
26.241539001464844 6.700565338134766 0.4312586486339569
26.213178634643555 6.751297950744629 0.43104034662246704
26.17271614074707 6.798824310302734 0.43058550357818604
26.14549446105957 6.851407527923584 0.42896658182144165
26.091094970703125 6.895046710968018 0.4283146858215332
26.06435775756836 6.947325706481934 0.42789027094841003
26.01189613342285 6.991446018218994 0.42724472284317017
25.998258590698242 7.0456624031066895 0.42307403683662415
25.9334716796875 7.087606906890869 0.4222642183303833
25.914615631103516 7.1402812004089355 0.42080003023147583
25.85361099243164 7.181230545043945 0.4200454354286194
25.81061363220215 7.228714466094971 0.41933366656303406
25.782163619995117 7.27847957611084 0.4191202223300934
25.75577735900879 7.330471038818359 0.4189634323120117
25.709758758544922 7.3750834465026855 0.41707226634025574
25.66017723083496 7.418525695800781 0.4165073037147522
25.638641357421875 7.471683979034424 0.4161762595176697
25.594926834106445 7.516605377197266 0.41569456458091736
25.580965042114258 7.57020378112793 0.41437962651252747
25.515392303466797 7.6101179122924805 0.41353464126586914
25.489259719848633 7.659958839416504 0.4141329526901245
25.426359176635742 7.7000603675842285 0.41308510303497314
25.41843032836914 7.755538463592529 0.4118545651435852
25.348464965820312 7.791727066040039 0.4109811782836914
25.338823318481445 7.84804630279541 0.41110676527023315
25.257915496826172 7.880467414855957 0.410011351108551
25.103233337402344 7.889409065246582 0.40745148062705994
24.96198081970215 7.903646469116211 0.4039994180202484
24.835708618164062 7.920409202575684 0.40213215351104736
24.550987243652344 7.943672180175781 0.3979465663433075
24.397611618041992 7.950013637542725 0.39142411947250366
24.103214263916016 7.966526031494141 0.3857225477695465
23.954965591430664 7.972707748413086 0.38351452350616455
23.811798095703125 7.981599807739258 0.38141733407974243
23.651630401611328 7.982547283172607 0.37881848216056824
23.49681282043457 7.984648704528809 0.3752747178077698
23.360593795776367 7.994065761566162 0.3733823597431183
23.18472671508789 7.987668514251709 0.3708220422267914
23.038972854614258 7.992552757263184 0.3687556982040405
22.876083374023438 7.989267826080322 0.3649146854877472
22.73057746887207 7.99141263961792 0.3628545105457306
22.587369918823242 7.995322227478027 0.3608270585536957
22.40919303894043 7.984620571136475 0.358706533908844
22.264022827148438 7.98629093170166 0.3554293215274811
22.13810157775879 7.993256568908691 0.3534661531448364
21.99502944946289 7.993231296539307 0.35143592953681946
21.838409423828125 7.989169120788574 0.3492036461830139
21.71648406982422 7.995699405670166 0.3463195264339447
21.573774337768555 7.994034290313721 0.34429818391799927
21.430681228637695 7.993119239807129 0.3420533537864685
21.294178009033203 7.992583751678467 0.3401416540145874
21.161300659179688 7.994089126586914 0.3371279537677765
21.031171798706055 7.9950761795043945 0.3353017568588257
20.906538009643555 7.997390270233154 0.3310680389404297
20.772964477539062 7.99697208404541 0.32921865582466125
20.644834518432617 7.9971089363098145 0.32629215717315674
20.52954864501953 8.001485824584961 0.32474198937416077
20.378353118896484 7.992744445800781 0.3226035237312317
20.27376365661621 8.000307083129883 0.32100602984428406
20.146221160888672 7.99833345413208 0.3181135356426239
20.0220890045166 7.998607158660889 0.31642603874206543
19.89013671875 7.9937968254089355 0.31459081172943115
19.784399032592773 8.000432968139648 0.312996506690979
19.647930145263672 7.992729663848877 0.30998045206069946
19.544084548950195 7.997795104980469 0.30861321091651917
19.432117462158203 8.000481605529785 0.30711036920547485
19.314422607421875 7.998940944671631 0.3054937720298767
19.194873809814453 7.997288703918457 0.30279508233070374
19.090871810913086 8.000712394714355 0.3012236952781677
18.990631103515625 8.005073547363281 0.2998986542224884
18.87088966369629 8.001899719238281 0.2972157895565033
18.75802230834961 8.000224113464355 0.29570236802101135
18.647985458374023 7.999072074890137 0.2942247688770294
18.54763412475586 8.002982139587402 0.29270732402801514
18.455116271972656 8.008530616760254 0.29048797488212585
18.34333038330078 8.00529670715332 0.2889922857284546
18.250030517578125 8.01103401184082 0.2878004014492035
18.132631301879883 8.004420280456543 0.2839675545692444
17.916099548339844 7.99915885925293 0.2800753116607666
17.83274269104004 8.006367683410645 0.27904656529426575
17.63291358947754 8.006048202514648 0.27624988555908203
17.551128387451172 8.012886047363281 0.27424970269203186
17.45453453063965 8.01388931274414 0.27299076318740845
17.344118118286133 8.006814956665039 0.2713366150856018
17.1621150970459 8.010645866394043 0.2680550515651703
17.066362380981445 8.009126663208008 0.26680272817611694
16.95849609375 8.002756118774414 0.2653718590736389
16.88710594177246 8.011957168579102 0.2632131576538086
16.796049118041992 8.012553215026855 0.26205211877822876
16.700407028198242 8.00971508026123 0.26081475615501404
16.600173950195312 8.004056930541992 0.2585613429546356
16.53744888305664 8.01719856262207 0.25768229365348816
16.44112777709961 8.012883186340332 0.2564293146133423
16.344572067260742 8.007842063903809 0.2542538344860077
16.276708602905273 8.017556190490723 0.2534573972225189
16.196435928344727 8.02002239227295 0.25229722261428833
16.106630325317383 8.017216682434082 0.2511500120162964
16.012102127075195 8.012890815734863 0.249018132686615
15.923964500427246 8.010147094726562 0.24789348244667053
15.845300674438477 8.01284122467041 0.2467736005783081
15.758552551269531 8.010278701782227 0.2447645664215088
15.677323341369629 8.009969711303711 0.2437700480222702
15.595993041992188 8.010281562805176 0.2427603155374527
15.515270233154297 8.009750366210938 0.24159085750579834
15.429594993591309 8.00611686706543 0.23961412906646729
15.357383728027344 8.010334014892578 0.2387777417898178
15.267335891723633 8.003710746765137 0.23762927949428558
15.19172191619873 8.004304885864258 0.23565444350242615
15.114115715026855 8.00471305847168 0.23471380770206451
15.040067672729492 8.005505561828613 0.23383180797100067
14.969297409057617 8.008729934692383 0.23178255558013916
14.89290714263916 8.00784683227539 0.23085547983646393
14.80836009979248 8.002044677734375 0.22979946434497833
14.747148513793945 8.009716987609863 0.22810134291648865
14.654776573181152 7.998973369598389 0.22690783441066742
14.593481063842773 8.005840301513672 0.22624103724956512
14.505718231201172 7.997087001800537 0.2242657095193863
14.441174507141113 8.000624656677246 0.2233744114637375
14.371219635009766 8.001852989196777 0.22253918647766113
14.296913146972656 7.999578475952148 0.2208179384469986
14.22387409210205 7.997514247894287 0.21993358433246613
14.158662796020508 8.000518798828125 0.21903033554553986
14.093347549438477 8.002426147460938 0.21827013790607452
13.946113586425781 7.996679782867432 0.21635636687278748
13.88360595703125 7.999168395996094 0.21481753885746002
13.742441177368164 7.995110988616943 0.21314460039138794
13.683563232421875 7.998909950256348 0.21153192222118378
13.553335189819336 7.999555587768555 0.21003642678260803
13.477584838867188 7.992605209350586 0.20830780267715454
13.398853302001953 7.984652519226074 0.20718097686767578
13.34501838684082 7.990146636962891 0.20662519335746765
13.213289260864258 7.987061500549316 0.20385321974754333
13.148807525634766 7.985388278961182 0.20310814678668976
13.027567863464355 7.987051486968994 0.2008131891489029
12.962827682495117 7.985332489013672 0.20007114112377167
12.891128540039062 7.9782915115356445 0.19843503832817078
12.837702751159668 7.982119083404541 0.19787660241127014
12.776556015014648 7.981819152832031 0.19705769419670105
12.712700843811035 7.978829383850098 0.19554634392261505
12.667023658752441 7.986849784851074 0.19510768353939056
12.584125518798828 7.972026824951172 0.1940918117761612
12.532869338989258 7.976223468780518 0.1941702514886856
12.46633529663086 7.970276832580566 0.19262667000293732
12.40533447265625 7.9686598777771 0.19194062054157257
12.358465194702148 7.974830627441406 0.19148588180541992
12.306984901428223 7.978725433349609 0.19004766643047333
12.240553855895996 7.971957206726074 0.18927153944969177
12.190366744995117 7.975348472595215 0.18876218795776367
12.132568359375 7.974425792694092 0.18723434209823608
12.077035903930664 7.974036693572998 0.18663614988327026
12.019946098327637 7.972208499908447 0.1860085129737854
11.960578918457031 7.969505310058594 0.18462224304676056
11.908597946166992 7.970774173736572 0.183940127491951
11.849746704101562 7.967920303344727 0.18226629495620728
11.809307098388672 7.976534843444824 0.18189816176891327
11.747035026550293 7.970022678375244 0.18119829893112183
11.700382232666016 7.974753379821777 0.18001791834831238
11.631107330322266 7.96310567855835 0.17905151844024658
11.58189868927002 7.9647674560546875 0.17855370044708252
11.531242370605469 7.966097831726074 0.17731165885925293
11.475961685180664 7.963308334350586 0.17658193409442902
11.429847717285156 7.967367172241211 0.17541475594043732
11.35978889465332 7.953780174255371 0.1745888888835907
11.322749137878418 7.962912559509277 0.17428147792816162
11.271568298339844 7.962793350219727 0.17291560769081116
11.209342002868652 7.953922271728516 0.17361365258693695
11.1660737991333 7.958110332489014 0.1731991320848465
11.064116477966309 7.955921649932861 0.17131106555461884
10.972097396850586 7.960066795349121 0.16971319913864136
10.91920280456543 7.956329822540283 0.16900227963924408
10.811007499694824 7.947412014007568 0.1671471744775772
10.764954566955566 7.948022842407227 0.1660243421792984
10.656497955322266 7.937505722045898 0.16470971703529358
10.61648941040039 7.942013263702393 0.16353631019592285
10.517032623291016 7.9369072914123535 0.16171161830425262
10.436274528503418 7.945166110992432 0.1609896570444107
10.394566535949707 7.947540283203125 0.15979762375354767
10.283591270446777 7.931539535522461 0.1585996150970459
10.254799842834473 7.9441657066345215 0.157632976770401
10.202468872070312 7.937558174133301 0.15706953406333923
10.15266227722168 7.9328460693359375 0.15589427947998047
10.104521751403809 7.929891586303711 0.15542301535606384
10.065380096435547 7.933143138885498 0.1555902361869812
10.021645545959473 7.932445526123047 0.15517295897006989
9.97642707824707 7.931213855743408 0.1540754735469818
9.928345680236816 7.926832675933838 0.1534729301929474
9.886920928955078 7.927410125732422 0.1524200588464737
9.85141658782959 7.933415412902832 0.15215544402599335
9.804469108581543 7.929366588592529 0.1516689658164978
9.764739990234375 7.931636810302734 0.15053807199001312
9.715173721313477 7.925055980682373 0.1500258892774582
9.67619514465332 7.926759719848633 0.1490514576435089
9.630128860473633 7.9232988357543945 0.14847886562347412
9.591109275817871 7.924790382385254 0.14812172949314117
9.540207862854004 7.916102886199951 0.14695541560649872
9.501354217529297 7.918035507202148 0.1464894711971283
9.453639030456543 7.9117326736450195 0.14536812901496887
9.411925315856934 7.910091400146484 0.14499293267726898
9.379161834716797 7.916644096374512 0.14397990703582764
9.344823837280273 7.921088218688965 0.14373105764389038
9.293621063232422 7.91170597076416 0.1431846171617508
9.261726379394531 7.917922019958496 0.14233794808387756
9.216079711914062 7.91206169128418 0.1417585015296936
9.181792259216309 7.916597843170166 0.14088037610054016
9.138701438903809 7.912727355957031 0.14045938849449158
9.098240852355957 7.911604881286621 0.13998204469680786
9.051504135131836 7.904011249542236 0.13950389623641968
9.021081924438477 7.910660266876221 0.13929177820682526
8.937215805053711 7.903944969177246 0.13778771460056305
8.895047187805176 7.899608612060547 0.13676930963993073
8.821213722229004 7.900737762451172 0.1354229599237442
8.784918785095215 7.901147365570068 0.13512159883975983
8.718486785888672 7.9080681800842285 0.13388948142528534
8.6416015625 7.904919624328613 0.13262943923473358
8.590616226196289 7.891088485717773 0.13208243250846863
8.518534660339355 7.891279697418213 0.13089697062969208
8.484396934509277 7.892435550689697 0.13052573800086975
8.405877113342285 7.885687828063965 0.12922891974449158
8.375570297241211 7.890803337097168 0.1284269392490387
8.310993194580078 7.895488262176514 0.12724019587039948
8.266845703125 7.887057304382324 0.12681356072425842
8.230878829956055 7.885592937469482 0.1263953596353531
8.194389343261719 7.883311748504639 0.12550482153892517
8.158296585083008 7.882058620452881 0.125208780169487
8.129223823547363 7.886811256408691 0.12433204054832458
8.085859298706055 7.878182411193848 0.12392440438270569
8.05295467376709 7.87876558303833 0.1230907216668129
8.02197265625 7.881258964538574 0.1228637620806694
7.985990524291992 7.87934684753418 0.12246151268482208
7.95327615737915 7.879865646362305 0.12163965404033661
7.9207258224487305 7.880255699157715 0.12139154970645905
7.887773036956787 7.880913257598877 0.12047082930803299
7.865899562835693 7.891901969909668 0.12038332968950272
7.822686672210693 7.881189823150635 0.11939937621355057
7.782693862915039 7.874313831329346 0.11892811208963394
7.7516655921936035 7.875699996948242 0.11837263405323029
7.716426849365234 7.873311996459961 0.11808397620916367
7.685022354125977 7.874046325683594 0.11773855239152908
7.645989894866943 7.866648197174072 0.11682432889938354
7.620100498199463 7.87343692779541 0.11668989062309265
7.592403411865234 7.877623081207275 0.11585217714309692
7.558204650878906 7.874779224395752 0.11558016389608383
7.518787384033203 7.86712646484375 0.11468004435300827
7.4928388595581055 7.872776508331299 0.11452566832304001
7.457419395446777 7.8689961433410645 0.11357922106981277
7.423120498657227 7.865432262420654 0.11330170184373856
7.383858680725098 7.856586933135986 0.11294843256473541
7.36614465713501 7.871208190917969 0.11172620952129364
7.325002670288086 7.86003303527832 0.1113482341170311
7.296284198760986 7.861865043640137 0.11060866713523865
7.258828639984131 7.854935646057129 0.11019815504550934
7.2408318519592285 7.868314266204834 0.10963577777147293
7.171667575836182 7.85932731628418 0.10842596739530563
7.140652179718018 7.858026504516602 0.10820018500089645
7.076286315917969 7.853392601013184 0.10708104074001312
7.04600191116333 7.852488994598389 0.10687365382909775
6.992097854614258 7.858746528625488 0.10623516142368317
6.95805025100708 7.853235244750977 0.10532614588737488
6.907270431518555 7.862383842468262 0.10452887415885925
6.832192420959473 7.843298435211182 0.10323649644851685
6.794284820556641 7.832539081573486 0.10290452837944031
6.74162483215332 7.838278770446777 0.10198455303907394
6.712669849395752 7.837454319000244 0.10178957879543304
6.664780616760254 7.848199367523193 0.10093457996845245
6.630129814147949 7.840313911437988 0.0996021032333374
6.574129581451416 7.840827465057373 0.0986318439245224
6.5396318435668945 7.833451271057129 0.09784930944442749
6.512383460998535 7.833959579467773 0.09758474677801132
6.498358726501465 7.85017204284668 0.09711068123579025
6.459650993347168 7.837275981903076 0.09676376730203629
6.430147171020508 7.834709644317627 0.09595847874879837
6.403385162353516 7.836016654968262 0.09580519795417786
6.381358623504639 7.842380046844482 0.09520521759986877
6.356766700744629 7.845357894897461 0.09498368948698044
6.321599960327148 7.835960388183594 0.09470759332180023
6.3003830909729 7.843070030212402 0.09432285279035568
6.278451919555664 7.8490753173828125 0.09413667023181915
6.239689826965332 7.834708213806152 0.0932813510298729
6.208196640014648 7.828607082366943 0.09305382519960403
6.175830364227295 7.821075916290283 0.09220144897699356
6.156719207763672 7.83104944229126 0.0921679213643074
6.129466533660889 7.829934120178223 0.09149963408708572
6.102293968200684 7.829463005065918 0.09124762564897537
6.081151008605957 7.835981369018555 0.09066319465637207
6.048006057739258 7.826752185821533 0.09041309356689453
6.014719009399414 7.8179731369018555 0.08955241739749908
5.997673511505127 7.82954740524292 0.0895514115691185
5.967465877532959 7.8236918449401855 0.08832777291536331
5.947240829467773 7.831651210784912 0.08768472075462341
5.911255359649658 7.818058013916016 0.08738291263580322
5.8874969482421875 7.82031774520874 0.08678163588047028
5.863149166107178 7.822534084320068 0.08656617999076843
5.841691493988037 7.8278656005859375 0.08648914098739624
5.811595916748047 7.82218074798584 0.08579158037900925
5.790207862854004 7.8274359703063965 0.08562441170215607
5.759570121765137 7.819908142089844 0.08489957451820374
5.735960483551025 7.822629928588867 0.08481017500162125
5.712488651275635 7.824783802032471 0.08411389589309692
5.680487632751465 7.814952850341797 0.0838690996170044
5.654459476470947 7.8141889572143555 0.08333505690097809
5.628110885620117 7.811858654022217 0.08319500833749771
5.587093353271484 7.824193000793457 0.08249492198228836
5.555811882019043 7.8146257400512695 0.08177844434976578
5.4944376945495605 7.797628402709961 0.08076706528663635
5.485142230987549 7.818847179412842 0.08078722655773163
5.427166938781738 7.805922508239746 0.07992123067378998
5.40675687789917 7.811100959777832 0.07928770780563354
5.381653785705566 7.810436248779297 0.07916509360074997
5.352866172790527 7.80326509475708 0.07800211012363434
5.295034408569336 7.789079666137695 0.07705454528331757
5.2789764404296875 7.800226211547852 0.07707040756940842
5.2348246574401855 7.805605411529541 0.07632773369550705
5.201722621917725 7.791150093078613 0.075599804520607
5.183971881866455 7.8004255294799805 0.0754905417561531
5.165228843688965 7.807492256164551 0.07497626543045044
5.131650924682617 7.791827201843262 0.07472220808267593
5.107147693634033 7.790802001953125 0.07403631508350372
5.089181423187256 7.798644542694092 0.07401715219020844
5.0648956298828125 7.797603130340576 0.07390692830085754
5.038585186004639 7.792622089385986 0.07327867299318314
5.015485763549805 7.7923126220703125 0.07308686524629593
4.99584436416626 7.798352241516113 0.07257184386253357
4.966743469238281 7.7884626388549805 0.07238352298736572
4.94642448425293 7.793100357055664 0.07176566123962402
4.922150611877441 7.790716171264648 0.07164337486028671
4.89608097076416 7.785183906555176 0.07102683931589127
4.875600814819336 7.789319038391113 0.07088438421487808
4.860062122344971 7.800617218017578 0.07042401283979416
4.829690456390381 7.7878313064575195 0.07021716982126236
4.807716369628906 7.789324760437012 0.06958021223545074
4.790372848510742 7.7975592613220215 0.06910235434770584
4.762784957885742 7.788846969604492 0.06838000565767288
4.746450424194336 7.799520969390869 0.06838619709014893
4.714669227600098 7.783622741699219 0.06768881529569626
4.697821140289307 7.793150901794434 0.06760402023792267
4.674422264099121 7.7910332679748535 0.06750047206878662
4.64950704574585 7.786086559295654 0.06691044569015503
4.631856918334961 7.794127464294434 0.06680736690759659
4.6001787185668945 7.777706146240234 0.06611248850822449
4.587096691131592 7.792448043823242 0.06616233289241791
4.559518814086914 7.78340482711792 0.0654517412185669
4.541614532470703 7.790043354034424 0.06543033570051193
4.520227909088135 7.790470123291016 0.0648096576333046
4.487802028656006 7.77278995513916 0.06457192450761795
5.433457374572754 -10.175066947937012 0.10286850482225418
5.449749946594238 -10.154804229736328 0.10289625078439713
5.470400333404541 -10.141229629516602 0.10346556454896927
5.494487762451172 -10.135489463806152 0.10365073382854462
5.521988868713379 -10.13595962524414 0.10435877740383148
5.559127330780029 -10.152443885803223 0.10525408387184143
5.576879501342773 -10.134881973266602 0.1052788570523262
5.619734287261963 -10.162773132324219 0.1064160093665123
5.64782190322876 -10.16224479675293 0.10652963817119598
5.679046154022217 -10.168671607971191 0.10743867605924606
5.703591823577881 -10.161567687988281 0.10748469084501266
5.737685203552246 -10.172792434692383 0.10833350569009781
5.758647918701172 -10.160624504089355 0.10844507068395615
5.781953811645508 -10.15113353729248 0.10906342417001724
5.816434860229492 -10.16257381439209 0.10992060601711273
5.845236301422119 -10.16391372680664 0.11018911749124527
5.865070343017578 -10.148178100585938 0.11073849350214005
5.902048587799072 -10.16341781616211 0.11116443574428558
5.928144454956055 -10.159748077392578 0.11185956001281738
5.956113338470459 -10.157768249511719 0.11197647452354431
5.9784345626831055 -10.147516250610352 0.11272002756595612
6.008321762084961 -10.148612022399902 0.11287990212440491
6.035921573638916 -10.147136688232422 0.11359995603561401
6.0930094718933105 -10.145618438720703 0.11459241807460785
6.119707107543945 -10.142325401306152 0.11541659384965897
6.151705265045166 -10.147457122802734 0.11562269181013107
6.178464889526367 -10.142892837524414 0.11632693558931351
6.202569484710693 -10.135064125061035 0.11649521440267563
6.230633735656738 -10.133398056030273 0.11723196506500244
6.264106273651123 -10.139459609985352 0.1174672320485115
6.291534900665283 -10.136751174926758 0.11842583119869232
6.3210954666137695 -10.135988235473633 0.11857730895280838
6.3466949462890625 -10.130157470703125 0.11938989162445068
6.3902268409729 -10.104804992675781 0.12012079358100891
6.43317985534668 -10.126145362854004 0.12115686386823654
6.485217094421387 -10.113699913024902 0.12205769121646881
6.5171380043029785 -10.117213249206543 0.12226700782775879
6.541911602020264 -10.108175277709961 0.12294202297925949
6.576794147491455 -10.115988731384277 0.12333277612924576
6.597044944763184 -10.101203918457031 0.12331312894821167
6.629476547241211 -10.103652954101562 0.12412827461957932
6.664386749267578 -10.11104965209961 0.12452603131532669
6.717887878417969 -10.099397659301758 0.12533921003341675
6.75738000869751 -10.113194465637207 0.1264325976371765
6.776735305786133 -10.09540843963623 0.12638022005558014
6.8099470138549805 -10.099531173706055 0.1273539811372757
6.838618278503418 -10.096565246582031 0.12749308347702026
6.872052192687988 -10.099615097045898 0.12834227085113525
6.901712417602539 -10.098085403442383 0.12925493717193604
6.958863258361816 -10.090222358703613 0.13015395402908325
6.987398147583008 -10.086747169494629 0.1305343210697174
7.019589424133301 -10.08820915222168 0.1313694417476654
7.0353264808654785 -10.06511402130127 0.13137371838092804
7.073681831359863 -10.075176239013672 0.13233189284801483
7.11069393157959 -10.082244873046875 0.13263225555419922
7.145878314971924 -10.087621688842773 0.13364700973033905
7.168414115905762 -10.074827194213867 0.133670836687088
7.202836513519287 -10.077779769897461 0.13455381989479065
7.235676288604736 -10.079446792602539 0.13489587604999542
7.259953022003174 -10.067795753479004 0.13557367026805878
7.301603317260742 -10.081389427185059 0.13610033690929413
7.321379661560059 -10.064448356628418 0.13606533408164978
7.343769073486328 -10.050241470336914 0.1367117464542389
7.378020763397217 -10.053254127502441 0.1370858997106552
7.419712543487549 -10.065985679626465 0.13811872899532318
7.440516471862793 -10.049406051635742 0.13810662925243378
7.470527648925781 -10.046279907226562 0.13904061913490295
7.498992919921875 -10.039697647094727 0.1391628384590149
7.532278537750244 -10.040733337402344 0.14003527164459229
7.563022613525391 -10.03803825378418 0.14034272730350494
7.598477363586426 -10.040610313415527 0.14125078916549683
7.622010231018066 -10.028389930725098 0.14129607379436493
7.660529613494873 -10.035558700561523 0.14241507649421692
7.688235282897949 -10.027581214904785 0.1425096094608307
7.716914176940918 -10.021845817565918 0.14343024790287018
7.757689476013184 -10.030400276184082 0.14379650354385376
7.786307334899902 -10.024349212646484 0.1447034329175949
7.838951587677002 -10.004864692687988 0.14553222060203552
7.877729415893555 -10.011492729187012 0.1460026651620865
7.902409553527832 -9.998831748962402 0.1460578292608261
7.9258809089660645 -9.985860824584961 0.14674530923366547
7.970486164093018 -9.999374389648438 0.14733169972896576
8.01399040222168 -10.01000690460205 0.14839835464954376
8.04061508178711 -10.000653266906738 0.14850233495235443
8.103687286376953 -9.992630958557129 0.14968115091323853
8.142449378967285 -9.997947692871094 0.15000800788402557
8.201953887939453 -9.984837532043457 0.1511227786540985
8.240468978881836 -9.989179611206055 0.151447594165802
8.272963523864746 -9.985247611999512 0.152323380112648
8.291376113891602 -9.965304374694824 0.15239140391349792
8.342375755310059 -9.98417854309082 0.15362486243247986
8.367803573608398 -9.97144889831543 0.15369397401809692
8.410701751708984 -9.980433464050293 0.1549026370048523
8.465723037719727 -9.960296630859375 0.15580502152442932
8.49840259552002 -9.956591606140137 0.15614581108093262
8.535926818847656 -9.95760440826416 0.15712139010429382
8.568763732910156 -9.95403003692627 0.15733982622623444
8.59479808807373 -9.942265510559082 0.15823319554328918
8.663116455078125 -9.93660831451416 0.15872544050216675
8.720189094543457 -9.959038734436035 0.16020560264587402
8.7450590133667 -9.945722579956055 0.16027994453907013
8.781083106994629 -9.944999694824219 0.16122959554195404
8.812591552734375 -9.937814712524414 0.1614198237657547
8.840044021606445 -9.927196502685547 0.1623489260673523
8.876770973205566 -9.926681518554688 0.16265273094177246
8.917348861694336 -9.929494857788086 0.16300727427005768
8.9465970993042 -9.920571327209473 0.1633048951625824
8.984000205993652 -9.919358253479004 0.16426873207092285
9.0270357131958 -9.925399780273438 0.16468322277069092
9.04976749420166 -9.908799171447754 0.16553866863250732
9.082134246826172 -9.90188217163086 0.16575363278388977
9.12386417388916 -9.906031608581543 0.1668148934841156
9.165145874023438 -9.909302711486816 0.16734769940376282
9.192850112915039 -9.89696216583252 0.1681390106678009
9.240946769714355 -9.907430648803711 0.1686485856771469
9.264928817749023 -9.891705513000488 0.16870643198490143
9.297144889831543 -9.88390064239502 0.16959263384342194
9.386183738708496 -9.89472770690918 0.17130163311958313
9.423013687133789 -9.892356872558594 0.1715882420539856
9.489487648010254 -9.878503799438477 0.17288699746131897
9.519659996032715 -9.868837356567383 0.17303431034088135
9.555892944335938 -9.864141464233398 0.1740281879901886
9.594653129577637 -9.863113403320312 0.17449083924293518
9.674392700195312 -9.86164665222168 0.17591208219528198
9.716072082519531 -9.863105773925781 0.17641930282115936
9.77238655090332 -9.837060928344727 0.17737901210784912
9.859238624572754 -9.841245651245117 0.1790594756603241
9.897842407226562 -9.838859558105469 0.17939393222332
9.926409721374512 -9.826184272766113 0.18024039268493652
9.982003211975098 -9.839288711547852 0.18102751672267914
10.015110969543457 -9.831029891967773 0.18197058141231537
10.054076194763184 -9.828191757202148 0.1822972595691681
10.098551750183105 -9.829771041870117 0.18344423174858093
10.123324394226074 -9.812853813171387 0.18366539478302002
10.175259590148926 -9.821324348449707 0.18422141671180725
10.215832710266113 -9.81961727142334 0.1851797103881836
10.243757247924805 -9.805439949035645 0.1854565143585205
10.28194808959961 -9.800193786621094 0.18577803671360016
10.318892478942871 -9.7946195602417 0.18678072094917297
10.349725723266602 -9.781941413879395 0.18696261942386627
10.397867202758789 -9.786670684814453 0.18834175169467926
10.445914268493652 -9.790891647338867 0.18884804844856262
10.494962692260742 -9.795032501220703 0.18935924768447876
10.523133277893066 -9.780543327331543 0.19037064909934998
10.571063041687012 -9.784082412719727 0.19087162613868713
10.614450454711914 -9.78242301940918 0.19201409816741943
10.651944160461426 -9.775975227355957 0.19232220947742462
10.679309844970703 -9.760340690612793 0.19333957135677338
10.722448348999023 -9.758009910583496 0.19448024034500122
10.769340515136719 -9.75970458984375 0.194955512881279
10.80052375793457 -9.746223449707031 0.195138081908226
10.84726333618164 -9.747637748718262 0.19652923941612244
10.883774757385254 -9.73949909210205 0.19680646061897278
10.930915832519531 -9.739912986755371 0.19728389382362366
11.0037841796875 -9.723012924194336 0.1987558752298355
11.066699028015137 -9.736785888671875 0.20029491186141968
11.146013259887695 -9.723597526550293 0.20096905529499054
11.192989349365234 -9.723748207092285 0.20206762850284576
11.286638259887695 -9.722002983093262 0.2030247449874878
11.358498573303223 -9.700874328613281 0.20449760556221008
11.411556243896484 -9.705306053161621 0.2058395892381668
11.49562931060791 -9.693674087524414 0.20661258697509766
11.635971069335938 -9.687511444091797 0.20896100997924805
11.720401763916016 -9.674522399902344 0.2122238427400589
11.764126777648926 -9.669636726379395 0.2126467376947403
11.820213317871094 -9.674504280090332 0.21330420672893524
11.84909439086914 -9.656149864196777 0.21423955261707306
11.896865844726562 -9.654065132141113 0.21472176909446716
11.99399185180664 -9.649392127990723 0.2166796177625656
12.040188789367676 -9.64526653289795 0.2171521931886673
12.087157249450684 -9.640775680541992 0.21763482689857483
12.138381004333496 -9.640484809875488 0.21914410591125488
12.18731689453125 -9.637971878051758 0.21965622901916504
12.225016593933105 -9.625611305236816 0.21995915472507477
12.278207778930664 -9.6262845993042 0.22104699909687042
12.323273658752441 -9.619180679321289 0.22165092825889587
12.37394905090332 -9.617480278015137 0.22299326956272125
12.468852996826172 -9.607284545898438 0.22396010160446167
12.522602081298828 -9.607144355773926 0.22554373741149902
12.57619571685791 -9.606868743896484 0.22615361213684082
12.612024307250977 -9.591846466064453 0.2264140248298645
12.661798477172852 -9.588088989257812 0.2277560532093048
12.769116401672363 -9.58521556854248 0.2291320562362671
12.810121536254883 -9.57429313659668 0.23032128810882568
12.867277145385742 -9.574442863464355 0.23261460661888123
12.902249336242676 -9.558929443359375 0.232859805226326
12.962872505187988 -9.562037467956543 0.233608216047287
13.013849258422852 -9.556985855102539 0.23515087366104126
13.071483612060547 -9.557413101196289 0.23583611845970154
13.116374969482422 -9.548527717590332 0.23711442947387695
13.15863037109375 -9.536555290222168 0.23749898374080658
13.272112846374512 -9.533806800842285 0.23982465267181396
13.320287704467773 -9.526568412780762 0.24034734070301056
13.419729232788086 -9.512519836425781 0.24139200150966644
13.519567489624023 -9.49799919128418 0.24312032759189606
13.687848091125488 -9.488264083862305 0.24611011147499084
13.847390174865723 -9.470532417297363 0.24892736971378326
13.953483581542969 -9.457088470458984 0.2509768605232239
14.009377479553223 -9.45260238647461 0.25162214040756226
14.066307067871094 -9.448386192321777 0.2522946298122406
14.123872756958008 -9.443540573120117 0.2557262182235718
14.182111740112305 -9.439742088317871 0.2564239501953125
14.22740364074707 -9.427342414855957 0.2568977177143097
14.29736042022705 -9.430014610290527 0.25867289304733276
14.342838287353516 -9.41714859008789 0.2591434121131897
14.471166610717773 -9.41463851928711 0.26180174946784973
14.519428253173828 -9.403000831604004 0.26231101155281067
14.573722839355469 -9.394243240356445 0.2629258334636688
14.632095336914062 -9.388736724853516 0.26451417803764343
14.697454452514648 -9.386622428894043 0.2653356194496155
14.752708435058594 -9.378866195678711 0.26598572731018066
14.8070650100708 -9.37012004852295 0.26678672432899475
14.876596450805664 -9.369888305664062 0.26877230405807495
14.937986373901367 -9.365099906921387 0.26953059434890747
14.988043785095215 -9.353211402893066 0.2700764536857605
15.049888610839844 -9.347408294677734 0.27171793580055237
15.10598373413086 -9.338648796081543 0.2723933160305023
15.16788387298584 -9.332405090332031 0.2731364369392395
15.225990295410156 -9.324652671813965 0.2749277651309967
15.28294563293457 -9.315763473510742 0.27561450004577637
15.345134735107422 -9.30898380279541 0.27636396884918213
15.413536071777344 -9.306561470031738 0.2772636413574219
15.473701477050781 -9.299126625061035 0.27892202138900757
15.551839828491211 -9.30113697052002 0.2808958888053894
15.611722946166992 -9.292804718017578 0.2827189564704895
15.674548149108887 -9.286203384399414 0.2835109829902649
15.730441093444824 -9.274190902709961 0.28414779901504517
15.856653213500977 -9.258832931518555 0.2866560220718384
16.050830841064453 -9.23740005493164 0.2902265191078186
16.180461883544922 -9.22150993347168 0.29187536239624023
16.38232421875 -9.20059871673584 0.2958139479160309
16.584205627441406 -9.177315711975098 0.29938286542892456
16.728382110595703 -9.165288925170898 0.3012988865375519
16.795005798339844 -9.156304359436035 0.30330294370651245
16.863637924194336 -9.14837646484375 0.30420511960983276
16.92215347290039 -9.133610725402832 0.3049006462097168
17.006139755249023 -9.133195877075195 0.3060789108276367
17.08349609375 -9.129115104675293 0.3081112504005432
17.294004440307617 -9.101181983947754 0.3120574653148651
17.360637664794922 -9.090067863464355 0.3129107356071472
17.444610595703125 -9.087961196899414 0.31410089135169983
17.513774871826172 -9.076705932617188 0.314998984336853
17.576345443725586 -9.062685012817383 0.31677472591400146
17.807283401489258 -9.040506362915039 0.3201104402542114
17.968313217163086 -9.027284622192383 0.32334500551223755
18.047035217285156 -9.019979476928711 0.3248522877693176
18.123798370361328 -9.01024055480957 0.32585835456848145
18.214557647705078 -9.008037567138672 0.3282230794429779
18.275732040405273 -8.989984512329102 0.3291778564453125
18.3681583404541 -8.988157272338867 0.3305152952671051
18.43573760986328 -8.97362232208252 0.3313896358013153
18.505126953125 -8.958783149719238 0.3333238959312439
18.677852630615234 -8.946672439575195 0.33576276898384094
18.758235931396484 -8.936195373535156 0.33687499165534973
18.829051971435547 -8.921801567077637 0.3377950191497803
18.92229652404785 -8.91677188873291 0.3401998281478882
19.00532341003418 -8.907746315002441 0.34049779176712036
19.178569793701172 -8.89062786102295 0.34403109550476074
19.35001564025879 -8.871294021606445 0.3464334309101105
19.6141357421875 -8.843585014343262 0.3512405753135681
19.877864837646484 -8.81255054473877 0.35520491003990173
20.151060104370117 -8.78250503540039 0.360894113779068
20.33998680114746 -8.763100624084473 0.3636035621166229
20.430526733398438 -8.751639366149902 0.36491137742996216
20.725576400756836 -8.724237442016602 0.37035784125328064
20.8126277923584 -8.708837509155273 0.37156400084495544
21.012622833251953 -8.689970016479492 0.3758668899536133
21.109956741333008 -8.677712440490723 0.3772808015346527
21.298521041870117 -8.650552749633789 0.37765905261039734
21.41608428955078 -8.64657211303711 0.37943732738494873
21.516281127929688 -8.634883880615234 0.3808814287185669
21.617502212524414 -8.622190475463867 0.3835461139678955
21.71487808227539 -8.608585357666016 0.3849361538887024
21.825586318969727 -8.598825454711914 0.3865923285484314
22.023313522338867 -8.571044921875 0.3896801471710205
22.128747940063477 -8.557950019836426 0.39123451709747314
22.242074966430664 -8.548760414123535 0.39412441849708557
22.346242904663086 -8.535354614257812 0.39565277099609375
22.555377960205078 -8.506561279296875 0.39945563673973083
22.660085678100586 -8.491067886352539 0.4009879231452942
22.774993896484375 -8.480267524719238 0.40270933508872986
22.89061737060547 -8.46900749206543 0.40444034337997437
22.99523162841797 -8.452176094055176 0.4072156548500061
23.214691162109375 -8.422035217285156 0.4104793965816498
23.561155319213867 -8.380495071411133 0.41565263271331787
23.910842895507812 -8.335914611816406 0.4185653328895569
24.14063262939453 -8.302168846130371 0.42197972536087036
24.259700775146484 -8.286859512329102 0.42374229431152344
24.512893676757812 -8.258231163024902 0.42886874079704285
24.62065315246582 -8.237683296203613 0.43044570088386536
24.861783981323242 -8.202099800109863 0.4340614080429077
24.99654769897461 -8.188796997070312 0.43613046407699585
25.11426544189453 -8.168279647827148 0.43787339329719543
25.250099182128906 -8.154555320739746 0.4418444335460663
25.396007537841797 -8.143232345581055 0.4443787634372711
25.522422790527344 -8.123967170715332 0.4462973475456238
25.641077041625977 -8.103172302246094 0.44806069135665894
25.771535873413086 -8.083889961242676 0.4500279128551483
26.043163299560547 -8.050230979919434 0.4541969895362854
26.1629638671875 -8.02636432647705 0.4573734998703003
26.320133209228516 -8.01485824584961 0.45983749628067017
26.43536376953125 -7.989745616912842 0.4615173935890198
26.587566375732422 -7.974096775054932 0.46390312910079956
26.72500228881836 -7.9546098709106445 0.4660224914550781
26.869667053222656 -7.935522556304932 0.46397665143013
27.129314422607422 -7.889634609222412 0.4678857922554016
27.264713287353516 -7.866181373596191 0.46999016404151917
27.379146575927734 -7.837687015533447 0.4717884659767151
27.50463104248047 -7.811591148376465 0.47523006796836853
27.62973403930664 -7.783676624298096 0.4772041440010071
27.75109100341797 -7.755441665649414 0.479104220867157
27.879995346069336 -7.727595329284668 0.4814684987068176
28.011852264404297 -7.701581954956055 0.48353469371795654
28.140430450439453 -7.6738600730896 0.485567569732666
28.270553588867188 -7.644797325134277 0.48761722445487976
28.39788246154785 -7.616023540496826 0.4899212419986725
28.532146453857422 -7.586734294891357 0.49206283688545227
28.66899299621582 -7.559456825256348 0.4942498207092285
28.93912696838379 -7.500482559204102 0.5000870823860168
29.063514709472656 -7.468390464782715 0.5020583271980286
29.324153900146484 -7.403857231140137 0.5062208771705627
22.040821075439453 -5.466301441192627 0.3788227438926697
22.034502029418945 -5.416220664978027 0.3785144090652466
22.015243530273438 -5.313270568847656 0.3754866421222687
22.011409759521484 -5.264030456542969 0.37524548172950745
22.009723663330078 -5.165732383728027 0.37485402822494507
22.072345733642578 -5.131888389587402 0.3769175112247467
22.259550094604492 -5.125555515289307 0.3801334500312805
22.45763397216797 -5.122114658355713 0.3834713399410248
22.484907150268555 -5.07903528213501 0.3840363025665283
29.1707820892334 -6.524125576019287 0.5034606456756592
30.226581573486328 -6.626718521118164 0.5171358585357666
21.75189781188965 -4.721485137939453 0.37025219202041626
21.770206451416016 -4.6779398918151855 0.3701741397380829
21.73334503173828 -4.527273178100586 0.36905527114868164
21.8632755279541 -4.505862712860107 0.3712541460990906
21.932676315307617 -4.472506046295166 0.37229135632514954
22.008878707885742 -4.439328193664551 0.37347090244293213
22.072757720947266 -4.404563903808594 0.37558403611183167
22.0789794921875 -4.357950687408447 0.3756028115749359
22.32724952697754 -4.357654571533203 0.3798813819885254
22.4753360748291 -4.338159561157227 0.38231518864631653
22.564453125 -4.306578636169434 0.3837794065475464
22.695087432861328 -4.232531547546387 0.38463497161865234
22.043550491333008 -4.015257835388184 0.37192612886428833
21.847270965576172 -3.9324512481689453 0.3691680431365967
21.83753776550293 -3.8827860355377197 0.36887943744659424
21.843549728393555 -3.8371098041534424 0.3688419461250305
21.828584671020508 -3.786428689956665 0.3684388995170593
21.82778549194336 -3.739647388458252 0.36831456422805786
21.82958984375 -3.6453917026519775 0.3680737316608429
22.122413635253906 -3.6471190452575684 0.3731048107147217
23.371015548706055 -3.6510396003723145 0.3943813443183899
23.51652717590332 -3.6237947940826416 0.39672011137008667
30.400205612182617 -4.489074230194092 0.5146251916885376
24.80813980102539 -3.4500651359558105 0.4175351858139038
24.79856300354004 -3.3962912559509277 0.41724932193756104
24.796693801879883 -3.342085838317871 0.4170942008495331
24.79639434814453 -3.289668083190918 0.41697514057159424
25.09524154663086 -3.2763359546661377 0.4221266806125641
25.238656997680664 -3.2402398586273193 0.424318790435791
26.294811248779297 -3.264674663543701 0.4407252073287964
30.393524169921875 -3.707974672317505 0.5129806399345398
30.365978240966797 -3.6406772136688232 0.5123819708824158
30.33565330505371 -3.5713226795196533 0.51171875
30.347850799560547 -3.508923053741455 0.5118340849876404
30.331584930419922 -3.4429893493652344 0.5114291906356812
30.315227508544922 -3.3758368492126465 0.5101922154426575
30.278844833374023 -3.3081860542297363 0.5094408988952637
30.256187438964844 -3.241905450820923 0.5089448094367981
30.212141036987305 -3.17220139503479 0.5096189379692078
30.18684196472168 -3.10622501373291 0.5074713230133057
30.18704605102539 -3.0426700115203857 0.5074140429496765
30.181100845336914 -2.9772374629974365 0.5072436928749084
30.153209686279297 -2.9110355377197266 0.5066514015197754
30.132482528686523 -2.844357967376709 0.5062020421028137
30.120380401611328 -2.780165672302246 0.5058946013450623
30.130298614501953 -2.7161800861358643 0.5059657692909241
30.1193904876709 -2.6521968841552734 0.505713701248169
30.1046142578125 -2.587949752807617 0.5085211992263794
30.094005584716797 -2.522286891937256 0.5064098834991455
30.071025848388672 -2.4575300216674805 0.5059090256690979
30.056442260742188 -2.3289554119110107 0.5055370926856995
30.031179428100586 -2.264312982559204 0.505006730556488
30.036548614501953 -2.2001986503601074 0.5050250291824341
30.01347541809082 -2.135899543762207 0.5045445561408997
29.965621948242188 -2.005694627761841 0.5035935044288635
29.97506332397461 -1.9438520669937134 0.5036982297897339
29.939603805541992 -1.8149677515029907 0.5023969411849976
29.941635131835938 -1.7527356147766113 0.5023744702339172
29.89263153076172 -1.6857985258102417 0.5011800527572632
29.905635833740234 -1.624281644821167 0.50135737657547
29.909902572631836 -1.5619919300079346 0.5013981461524963
29.889923095703125 -1.4972058534622192 0.5010043978691101
29.879045486450195 -1.434507131576538 0.500790536403656
29.87367820739746 -1.3702917098999023 0.5006446838378906
29.880126953125 -1.3084559440612793 0.5007306933403015
