VERSION .7
FIELDS x y z
SIZE 4 4 4
TYPE F F F
COUNT 1 1 1
WIDTH 840
HEIGHT 1
VIEWPOINT 0 0 0 1 0 0 0
POINTS 840
DATA ascii
8.034292221069336 4.6091742515563965 -0.25592225790023804
8.002674102783203 4.613785743713379 -0.25464296340942383
7.966646671295166 4.615068435668945 -0.2538272738456726
7.935002326965332 4.618756294250488 -0.2525539994239807
7.911818027496338 4.627917289733887 -0.25157469511032104
7.882786750793457 4.632917404174805 -0.2509598731994629
7.855287075042725 4.639360427856445 -0.2498386949300766
7.831545829772949 4.647287368774414 -0.24882355332374573
7.797116279602051 4.648761749267578 -0.2478206604719162
7.778414726257324 4.660163879394531 -0.24721592664718628
7.746838569641113 4.663119316101074 -0.24596627056598663
7.715230941772461 4.666575908660889 -0.24502764642238617
7.699404239654541 4.678853988647461 -0.24641624093055725
7.676042556762695 4.686495780944824 -0.24573639035224915
7.640169143676758 4.687027931213379 -0.24438205361366272
7.6040754318237305 4.686633110046387 -0.24297240376472473
7.591883659362793 4.701164245605469 -0.24290511012077332
7.550053596496582 4.69732666015625 -0.24133199453353882
7.5295090675354 4.706246376037598 -0.24045541882514954
7.473673343658447 4.71523380279541 -0.23853275179862976
7.453707218170166 4.72456693649292 -0.2379014492034912
7.375514984130859 4.740261077880859 -0.23507139086723328
7.251304626464844 4.768734931945801 -0.23056018352508545
7.166187763214111 4.777919769287109 -0.22775743901729584
7.117212295532227 4.788330078125 -0.2258060872554779
7.097905158996582 4.797122955322266 -0.22527453303337097
7.067389011383057 4.798169136047363 -0.2261325716972351
7.0553741455078125 4.811788558959961 -0.22576037049293518
7.0260772705078125 4.813199043273926 -0.22494009137153625
7.002946853637695 4.81901216506958 -0.223984956741333
6.980924129486084 4.825589179992676 -0.2231031358242035
6.959622383117676 4.832239627838135 -0.22218619287014008
6.924527168273926 4.82947301864624 -0.22120624780654907
6.914199352264404 4.843984127044678 -0.22089363634586334
6.874826431274414 4.837973594665527 -0.21944190561771393
6.861732482910156 4.850080490112305 -0.21882835030555725
6.834890365600586 4.852763652801514 -0.21778875589370728
6.811830043792725 4.857956886291504 -0.21715161204338074
6.793031692504883 4.866203784942627 -0.21637019515037537
6.764535903930664 4.867062568664551 -0.21529097855091095
6.7332258224487305 4.86639928817749 -0.21433371305465698
6.722017765045166 4.8795671463012695 -0.2137773185968399
6.6999592781066895 4.885088920593262 -0.2132040560245514
6.6698713302612305 4.884736061096191 -0.2120714783668518
6.647021293640137 4.889498233795166 -0.21115946769714355
6.627903461456299 4.896664619445801 -0.2103690654039383
6.5969157218933105 4.895317554473877 -0.20921199023723602
6.581142425537109 4.905096054077148 -0.20904451608657837
6.559872627258301 4.910450458526611 -0.20818841457366943
6.532444953918457 4.911457061767578 -0.20713546872138977
6.5164031982421875 4.920867919921875 -0.20818495750427246
6.466198444366455 4.9258527755737305 -0.20653054118156433
6.454632759094238 4.938244342803955 -0.2059798538684845
6.399500370025635 4.938928604125977 -0.2041059136390686
6.359850883483887 4.951205253601074 -0.20281240344047546
6.331125736236572 4.949977397918701 -0.2017337530851364
6.287924766540527 4.959011077880859 -0.2000502347946167
6.2711405754089355 4.967268943786621 -0.1993439495563507
6.247790336608887 4.970178604125977 -0.19844844937324524
6.234455108642578 4.9807305335998535 -0.19784438610076904
6.2091217041015625 4.981986999511719 -0.19719673693180084
6.182486057281494 4.982012748718262 -0.19618429243564606
6.162349700927734 4.986913204193115 -0.19538813829421997
6.148739814758301 4.997402667999268 -0.19479596614837646
6.120882034301758 4.996160984039307 -0.1939941942691803
6.108336925506592 5.007078170776367 -0.1934226155281067
6.076430320739746 5.002664566040039 -0.19228622317314148
6.069785118103027 5.018363952636719 -0.19218051433563232
6.032361030578613 5.008885383605957 -0.19086050987243652
6.016956806182861 5.0174970626831055 -0.19022534787654877
6.001834392547607 5.0260396003723145 -0.19151952862739563
5.978512287139893 5.028275489807129 -0.19063135981559753
5.958371162414551 5.0324835777282715 -0.1898604929447174
5.939491271972656 5.038043975830078 -0.18911989033222198
5.922613143920898 5.045170783996582 -0.1884503811597824
5.904852867126465 5.051225185394287 -0.1877332627773285
5.873961448669434 5.04656982421875 -0.18661555647850037
5.866301536560059 5.061185836791992 -0.18623672425746918
5.838784694671631 5.058619022369385 -0.185233473777771
5.820200443267822 5.064324378967285 -0.18475697934627533
5.797385215759277 5.065649509429932 -0.18392011523246765
5.782870292663574 5.074520587921143 -0.18331636488437653
5.764005661010742 5.0794501304626465 -0.18261228501796722
5.7409210205078125 5.080311298370361 -0.1817123293876648
5.722224235534668 5.085603713989258 -0.18100985884666443
5.69589900970459 5.08340311050415 -0.18005414307117462
5.678689956665039 5.089254379272461 -0.1793769896030426
5.657899856567383 5.0924577713012695 -0.17858180403709412
5.644364356994629 5.101517677307129 -0.17804543673992157
5.6032538414001465 5.107398986816406 -0.17649370431900024
5.581594944000244 5.1089043617248535 -0.17567047476768494
5.566915035247803 5.117364883422852 -0.17536494135856628
5.540886402130127 5.114694595336914 -0.1744253933429718
5.5063934326171875 5.125970840454102 -0.17466959357261658
5.488720417022705 5.130821228027344 -0.17398735880851746
5.474775791168213 5.139745235443115 -0.17343130707740784
5.4549407958984375 5.142462730407715 -0.17270022630691528
5.429893493652344 5.14017391204834 -0.17176857590675354
5.411730766296387 5.14494514465332 -0.17109039425849915
5.404443264007568 5.159411907196045 -0.17100074887275696
5.375309467315674 5.153591632843018 -0.16998350620269775
5.364323139190674 5.16446590423584 -0.1694987267255783
5.34224796295166 5.164617538452148 -0.16869094967842102
5.313467979431152 5.15880012512207 -0.16767705976963043
5.300764083862305 5.167877674102783 -0.1671774685382843
5.287562370300293 5.17645263671875 -0.16642959415912628
5.267193794250488 5.178593635559082 -0.16569910943508148
5.2466864585876465 5.1798882484436035 -0.16493380069732666
5.227947235107422 5.183131217956543 -0.16424721479415894
5.211627006530762 5.1887969970703125 -0.16362449526786804
5.188925743103027 5.187682151794434 -0.16279460489749908
5.174966335296631 5.195878505706787 -0.16225244104862213
5.157862663269043 5.20024299621582 -0.16160863637924194
5.134102821350098 5.198095321655273 -0.1607687771320343
5.120293617248535 5.206035614013672 -0.16024354100227356
5.108223915100098 5.215368270874023 -0.15973946452140808
5.083374977111816 5.21186637878418 -0.16044625639915466
5.072971820831299 5.223199367523193 -0.15983229875564575
5.05280065536499 5.22407865524292 -0.1591062992811203
5.03602409362793 5.229042053222656 -0.15846757590770721
5.024319648742676 5.2386016845703125 -0.1580089032649994
5.004220962524414 5.239646911621094 -0.15725906193256378
4.979429244995117 5.2357587814331055 -0.15641680359840393
4.966596603393555 5.244013786315918 -0.15589573979377747
4.953373432159424 5.252481460571289 -0.15540505945682526
4.925356864929199 5.244534492492676 -0.15439552068710327
4.90993595123291 5.249904155731201 -0.1533903330564499
4.890449523925781 5.251511573791504 -0.15269611775875092
4.874383926391602 5.256087303161621 -0.1521160751581192
4.842338562011719 5.265839099884033 -0.1509016454219818
4.829968452453613 5.274312973022461 -0.1504339873790741
4.785067558288574 5.269667625427246 -0.148866206407547
4.738006591796875 5.284212589263916 -0.14693793654441833
4.704660415649414 5.291689872741699 -0.14573687314987183
4.689570426940918 5.296812534332275 -0.14517411589622498
4.661567687988281 5.310074806213379 -0.1454659253358841
4.608552932739258 5.3167314529418945 -0.14315328001976013
4.589882850646973 5.317734718322754 -0.14247897267341614
4.577908039093018 5.326536655426025 -0.1420416235923767
4.552165985107422 5.318873882293701 -0.14114335179328918
4.5377349853515625 5.324626922607422 -0.1404360830783844
4.528717041015625 5.3368096351623535 -0.14008256793022156
4.5080742835998535 5.334885597229004 -0.139364093542099
4.487742900848389 5.333895683288574 -0.13864567875862122
4.474302291870117 5.3403778076171875 -0.13816021382808685
4.45687198638916 5.342344284057617 -0.1373007744550705
4.437097549438477 5.341508865356445 -0.13643218576908112
4.427248954772949 5.35221004486084 -0.13603560626506805
4.414210319519043 5.359342575073242 -0.13555783033370972
4.394913673400879 5.358912467956543 -0.13489902019500732
4.379595756530762 5.363185405731201 -0.13434430956840515
4.366875171661377 5.370316028594971 -0.1336718201637268
4.3467841148376465 5.368707656860352 -0.13300548493862152
4.333554267883301 5.375430583953857 -0.13251906633377075
4.313505172729492 5.373344898223877 -0.1315903514623642
4.300899505615234 5.380855083465576 -0.13112881779670715
4.290165901184082 5.390619277954102 -0.13186772167682648
4.255627632141113 5.370433807373047 -0.13072717189788818
4.241008281707764 5.374861717224121 -0.13020682334899902
4.229510307312012 5.383520126342773 -0.1296016275882721
4.223804950714111 5.399667739868164 -0.12936118245124817
4.205265998840332 5.3993144035339355 -0.12871304154396057
4.190587043762207 5.403561592102051 -0.12819214165210724
4.180269241333008 5.413801670074463 -0.12739166617393494
4.150357723236084 5.3984832763671875 -0.1264195740222931
4.138129234313965 5.40614128112793 -0.12596125900745392
4.12835693359375 5.416626453399658 -0.12559282779693604
4.109260559082031 5.4151411056518555 -0.12476024031639099
4.095364570617676 5.42053747177124 -0.12427682429552078
4.081035614013672 5.424941539764404 -0.12352858483791351
4.063170909881592 5.424891471862793 -0.12292084097862244
4.046821594238281 5.426885604858398 -0.12236438691616058
4.0204362869262695 5.439152717590332 -0.12124429643154144
4.006805419921875 5.444311141967773 -0.1207730770111084
3.9767794609069824 5.4514570236206055 -0.1193208247423172
3.9217581748962402 5.447634696960449 -0.1172824427485466
3.8819479942321777 5.46445894241333 -0.11676423251628876
3.8482046127319336 5.465567588806152 -0.1152188777923584
3.8355109691619873 5.471625328063965 -0.11476847529411316
3.806182861328125 5.478733062744141 -0.1135743036866188
3.795011520385742 5.4872307777404785 -0.11319063603878021
3.7644693851470947 5.492053985595703 -0.11192218959331512
3.7534971237182617 5.500802993774414 -0.11134452372789383
3.7175076007843018 5.497331619262695 -0.11015776544809341
3.699748992919922 5.495930194854736 -0.10916538536548615
3.6738386154174805 5.507048606872559 -0.10826984792947769
3.661259174346924 5.51325798034668 -0.10765528678894043
3.6436853408813477 5.511991500854492 -0.10685133934020996
3.6316640377044678 5.518667221069336 -0.10643081367015839
3.6158056259155273 5.519800186157227 -0.1059158444404602
3.597294330596924 5.516895294189453 -0.10513241589069366
3.587556838989258 5.52731990814209 -0.10478061437606812
3.5758447647094727 5.534389972686768 -0.10414422303438187
3.5525145530700684 5.523810386657715 -0.10408049076795578
3.5435352325439453 5.535387992858887 -0.10357876121997833
3.5246686935424805 5.531579971313477 -0.10297234356403351
3.517167329788208 5.545493125915527 -0.10246454179286957
3.505186080932617 5.5520429611206055 -0.10205791890621185
3.491270065307617 5.555929660797119 -0.10140644013881683
3.47506046295166 5.556023597717285 -0.10088124126195908
3.4630584716796875 5.56247615814209 -0.10024622082710266
3.4464502334594727 5.561915397644043 -0.09953266382217407
3.4301435947418213 5.56167459487915 -0.09898488223552704
3.4125256538391113 5.558895111083984 -0.09842018783092499
3.401048183441162 5.566502094268799 -0.09762443602085114
3.390850067138672 5.576120376586914 -0.09726964682340622
3.3767242431640625 5.578936576843262 -0.09679537266492844
3.358767509460449 5.575788497924805 -0.09605321288108826
3.344764232635498 5.579038619995117 -0.09536455571651459
3.3296468257904053 5.580048084259033 -0.09486956894397736
3.3135251998901367 5.580085754394531 -0.094179168343544
3.302150249481201 5.587308883666992 -0.0935695618391037
3.288241386413574 5.590665817260742 -0.09311115741729736
3.27569317817688 5.596216201782227 -0.09251958131790161
3.2564609050750732 5.589935779571533 -0.09191527962684631
3.245464324951172 5.598176956176758 -0.09114618599414825
3.234724998474121 5.606780052185059 -0.09077557176351547
3.215406656265259 5.600111484527588 -0.09061299264431
3.203615665435791 5.606933116912842 -0.08982361108064651
3.177431583404541 5.615431785583496 -0.08895576000213623
3.1659271717071533 5.622740745544434 -0.08840982615947723
3.138455390930176 5.628819465637207 -0.08728504180908203
3.1225531101226807 5.628179550170898 -0.08659429103136063
3.0963242053985596 5.636731147766113 -0.08552980422973633
3.060177803039551 5.6548848152160645 -0.08376891911029816
8.83614730834961 4.423943519592285 -0.2680061161518097
7.6604461669921875 4.6766815185546875 -0.23247846961021423
7.605257511138916 4.687068939208984 -0.23085643351078033
7.5747785568237305 4.690001487731934 -0.22991082072257996
7.512056350708008 4.695046424865723 -0.22806933522224426
7.443360328674316 4.717441558837891 -0.22610796988010406
7.381507873535156 4.743546485900879 -0.224299818277359
7.303415775299072 4.758500099182129 -0.22228498756885529
6.545427322387695 4.899081707000732 -0.19984053075313568
6.514792442321777 4.919095993041992 -0.19878152012825012
6.48112154006958 4.914822578430176 -0.19805830717086792
6.445307731628418 4.93055534362793 -0.19688278436660767
6.423998832702637 4.935420036315918 -0.19626809656620026
6.378035068511963 4.942961692810059 -0.1950211077928543
6.358608245849609 4.949060440063477 -0.19424034655094147
6.30546760559082 4.95048189163208 -0.19276195764541626
6.298175811767578 4.965917587280273 -0.19257323443889618
6.248296737670898 4.969405651092529 -0.19099123775959015
6.222051620483398 4.969646453857422 -0.19023245573043823
6.177521705627441 4.976837158203125 -0.18902826309204102
6.117295265197754 4.992055892944336 -0.1871577501296997
6.060003757476807 5.009099006652832 -0.1854102611541748
6.002079963684082 5.025343894958496 -0.18413150310516357
5.557159423828125 5.107215404510498 -0.17150068283081055
5.51377534866333 5.109996795654297 -0.1698870211839676
5.491627216339111 5.111043453216553 -0.16929151117801666
5.465068340301514 5.129098415374756 -0.16868361830711365
5.431096076965332 5.118801116943359 -0.16750504076480865
5.40468692779541 5.136713981628418 -0.16689780354499817
5.377162933349609 5.13218355178833 -0.16592839360237122
5.363093852996826 5.140344619750977 -0.16562561690807343
5.349554061889648 5.149059295654297 -0.165294349193573
5.319413185119629 5.141355991363525 -0.16423442959785461
5.304327964782715 5.148388862609863 -0.1636669635772705
5.291672706604004 5.157824516296387 -0.1636034995317459
5.280379295349121 5.168229579925537 -0.16314077377319336
5.246275901794434 5.156489372253418 -0.1619616448879242
5.236354827880859 5.168497562408447 -0.16175466775894165
5.2137603759765625 5.167598724365234 -0.16117393970489502
5.202939987182617 5.178603649139404 -0.16073663532733917
5.183311462402344 5.180874824523926 -0.16021433472633362
5.155364036560059 5.174652099609375 -0.1594819724559784
5.126226902008057 5.188648223876953 -0.15855970978736877
5.114164352416992 5.198251724243164 -0.15832430124282837
5.056962966918945 5.20516300201416 -0.15668508410453796
4.693431377410889 5.2774739265441895 -0.1462084949016571
4.632071018218994 5.2748870849609375 -0.14428003132343292
4.610037803649902 5.294604301452637 -0.14364585280418396
4.58717155456543 5.290470123291016 -0.14282412827014923
4.561055660247803 5.305327415466309 -0.1422749161720276
4.543530464172363 5.307182788848877 -0.14165917038917542
4.5050435066223145 5.307308673858643 -0.14050576090812683
4.489982604980469 5.311868667602539 -0.1401679962873459
4.455649375915527 5.316504001617432 -0.13894979655742645
4.4479217529296875 5.330079555511475 -0.13882943987846375
4.41872501373291 5.317777633666992 -0.13784626126289368
4.409078121185303 5.32862663269043 -0.13771407306194305
4.3981170654296875 5.338262557983398 -0.13728351891040802
4.37409782409668 5.3319091796875 -0.1366509050130844
4.352081775665283 5.327580451965332 -0.13588327169418335
4.342453956604004 5.338738441467285 -0.1355251669883728
4.326220512390137 5.341680526733398 -0.13494223356246948
4.307013988494873 5.340587615966797 -0.13468772172927856
4.290731430053711 5.343423843383789 -0.13411495089530945
4.281367778778076 5.354781627655029 -0.1339881718158722
4.259873390197754 5.350625991821289 -0.13324111700057983
4.244718074798584 5.3550262451171875 -0.13271570205688477
4.223386764526367 5.350888252258301 -0.13198426365852356
4.19611930847168 5.362627029418945 -0.13118526339530945
4.181303024291992 5.366601943969727 -0.1308945268392563
4.151801109313965 5.3752760887146 -0.13001573085784912
4.138199329376221 5.380710601806641 -0.1295313537120819
4.103653907775879 5.382549285888672 -0.1283315271139145
4.089928150177002 5.387698650360107 -0.12824957072734833
4.05828332901001 5.3930230140686035 -0.12713855504989624
4.038562297821045 5.390060901641846 -0.1264607310295105
3.7791013717651367 5.438019752502441 -0.118462473154068
3.7316348552703857 5.442411422729492 -0.11701753735542297
3.7231650352478027 5.454293251037598 -0.11693012714385986
3.708665132522583 5.45765495300293 -0.1164262443780899
3.689584732055664 5.454288005828857 -0.11578628420829773
3.679192066192627 5.463320732116699 -0.11559805274009705
3.665069103240967 5.467119216918945 -0.11511270701885223
3.643592596054077 5.45994758605957 -0.1144011989235878
3.6364998817443848 5.473888397216797 -0.11414195597171783
3.615461587905884 5.467525005340576 -0.1134486198425293
3.606887102127075 5.479236602783203 -0.11329562962055206
3.587099552154541 5.473877906799316 -0.11285700649023056
3.578608512878418 5.486450672149658 -0.11255476623773575
3.5609264373779297 5.4841790199279785 -0.11173973977565765
3.544347047805786 5.48352575302124 -0.11117367446422577
3.5360238552093506 5.496369361877441 -0.11111519485712051
3.5132579803466797 5.485968589782715 -0.11035601049661636
3.505312919616699 5.498981475830078 -0.11024904251098633
3.493701457977295 5.506355285644531 -0.10984991490840912
3.4720165729522705 5.49736213684082 -0.10911828279495239
3.459451675415039 5.50305700302124 -0.10869462788105011
3.4489245414733887 5.512080669403076 -0.10833252966403961
3.4335124492645264 5.512857913970947 -0.10780839622020721
3.4145710468292236 5.50821590423584 -0.10735748708248138
3.400792121887207 5.5119171142578125 -0.1069069653749466
3.3873507976531982 5.515711784362793 -0.10644229501485825
3.3735690116882324 5.519678115844727 -0.10598991811275482
3.3603148460388184 5.523719787597656 -0.10575473308563232
3.3460190296173096 5.526350975036621 -0.1052732765674591
3.3293168544769287 5.5250349044799805 -0.10489286482334137
3.3186211585998535 5.533228874206543 -0.10453356802463531
3.3023242950439453 5.532388210296631 -0.10399116575717926
3.2899489402770996 5.53816556930542 -0.10357492417097092
3.275691032409668 5.540316581726074 -0.10310152173042297
3.262653112411499 5.544837951660156 -0.10265982151031494
3.2503433227539062 5.550670623779297 -0.10224592685699463
3.229846477508545 5.542353630065918 -0.1017547994852066
3.1994681358337402 5.543417930603027 -0.10074043273925781
7.756338119506836 -12.144685745239258 -0.21380791068077087
7.858504295349121 -12.135790824890137 -0.2171662449836731
7.956412315368652 -12.11931037902832 -0.21953150629997253
8.069051742553711 -12.124055862426758 -0.2232005000114441
8.140623092651367 -12.120615005493164 -0.22465595602989197
8.248251914978027 -12.11560344696045 -0.22820577025413513
9.926860809326172 -12.02751636505127 -0.27608364820480347
10.046018600463867 -12.01719856262207 -0.2796207368373871
10.125558853149414 -12.00920295715332 -0.2819214463233948
10.247044563293457 -11.999397277832031 -0.28525322675704956
10.340597152709961 -11.955916404724121 -0.2881444990634918
10.428104400634766 -11.904996871948242 -0.29099705815315247
10.512300491333008 -11.849974632263184 -0.2932356595993042
11.213933944702148 -10.640087127685547 -0.31580284237861633
11.233345031738281 -10.568964958190918 -0.31602567434310913
11.260917663574219 -10.462231636047363 -0.31681835651397705
11.275107383728027 -10.387284278869629 -0.3178700804710388
11.694774627685547 -9.047143936157227 -0.332967609167099
11.747761726379395 -8.970650672912598 -0.3346864581108093
11.792047500610352 -8.695072174072266 -0.336195170879364
11.820919036865234 -7.27097225189209 -0.3386420011520386
11.796337127685547 -7.15402889251709 -0.33831918239593506
11.876922607421875 -5.747997283935547 -0.3421303331851959
9.033061027526855 4.761582374572754 -0.19054192304611206
7.648470878601074 5.005959510803223 -0.15774786472320557
7.578850746154785 5.028731346130371 -0.15586987137794495
7.493673801422119 5.04034948348999 -0.15389937162399292
7.444459915161133 5.052913665771484 -0.15279118716716766
7.416872978210449 5.056702613830566 -0.15217849612236023
7.357333183288574 5.061627388000488 -0.15084457397460938
6.538675308227539 5.222537040710449 -0.13143548369407654
6.462010383605957 5.2281813621521 -0.129543736577034
6.453719139099121 5.243670463562012 -0.12936978042125702
6.386239528656006 5.233646392822266 -0.12767352163791656
6.370937347412109 5.2432451248168945 -0.1275896281003952
6.35841178894043 5.255760192871094 -0.1270616352558136
6.3333330154418945 5.2571916580200195 -0.12628525495529175
6.303114891052246 5.254238128662109 -0.1258900761604309
6.287860870361328 5.264329433441162 -0.12531384825706482
6.270016670227051 5.271561145782471 -0.12490536272525787
6.203749656677246 5.282770156860352 -0.12324591726064682
6.1395721435546875 5.295063018798828 -0.12162458896636963
6.0672221183776855 5.299542427062988 -0.11986856907606125
5.524050712585449 5.4063568115234375 -0.10741806775331497
5.492828369140625 5.398530006408691 -0.10656987875699997
5.4604716300964355 5.4117584228515625 -0.10589402168989182
5.443145751953125 5.417390823364258 -0.10531020909547806
5.390416145324707 5.4099225997924805 -0.10399738699197769
5.389092445373535 5.431458473205566 -0.10399767756462097
5.365458011627197 5.430423736572266 -0.10349532961845398
5.3372039794921875 5.424665451049805 -0.10271932184696198
5.322859764099121 5.432590007781982 -0.1021871566772461
5.3044233322143555 5.436590194702148 -0.10185663402080536
5.285398483276367 5.439998626708984 -0.10145298391580582
5.2657470703125 5.442325592041016 -0.10083971917629242
5.228590965270996 5.449662685394287 -0.10009118914604187
5.210159778594971 5.453354358673096 -0.09949566423892975
5.182183265686035 5.469712257385254 -0.09868595004081726
5.162543296813965 5.471977233886719 -0.09833356738090515
5.119429588317871 5.47197151184082 -0.0972401350736618
5.100255966186523 5.474498748779297 -0.09662102162837982
5.060441493988037 5.477837085723877 -0.09609043598175049
5.046143531799316 5.48515510559082 -0.09560069441795349
5.012875556945801 5.495259761810303 -0.09495538473129272
4.6125078201293945 5.550298690795898 -0.0848340392112732
4.581982612609863 5.5610456466674805 -0.08406202495098114
4.569199085235596 5.569038391113281 -0.0838012769818306
4.536992073059082 5.577521324157715 -0.08276991546154022
4.506412506103516 5.563473701477051 -0.08198085427284241
4.481372833251953 5.580448150634766 -0.08152212202548981
4.4620361328125 5.580048561096191 -0.0809391438961029
4.431390285491943 5.5898261070251465 -0.08012686669826508
4.413985729217529 5.591669082641602 -0.07959892600774765
4.3910417556762695 5.587102890014648 -0.07919621467590332
4.38054895401001 5.5976243019104 -0.0787985622882843
4.357269287109375 5.592137813568115 -0.07814513146877289
4.34844970703125 5.60508394241333 -0.07797224819660187
4.326594829559326 5.600872993469238 -0.07735021412372589
4.31040096282959 5.604303359985352 -0.07683645188808441
4.298397064208984 5.613073825836182 -0.0766400694847107
4.2805280685424805 5.613836288452148 -0.07629671692848206
4.255784034729004 5.606182098388672 -0.0756315290927887
4.24418830871582 5.6150641441345215 -0.07544182240962982
4.237696170806885 5.630728721618652 -0.0751066505908966
4.216556549072266 5.627620697021484 -0.07451271265745163
4.193347930908203 5.62091588973999 -0.07387957721948624
4.177395343780518 5.623846054077148 -0.07357527315616608
4.163437843322754 5.63014030456543 -0.07310443371534348
4.149425029754639 5.635616779327393 -0.07288163900375366
4.12470006942749 5.651734828948975 -0.07201685011386871
4.10075569152832 5.643481254577637 -0.07154303044080734
4.06626558303833 5.645864486694336 -0.0705249011516571
4.05926513671875 5.660879611968994 -0.07018302381038666
4.018248081207275 5.653806209564209 -0.06945226341485977
3.9705252647399902 5.661701202392578 -0.06797412037849426
3.9271631240844727 5.675436973571777 -0.06677310168743134
3.7858736515045166 5.698312759399414 -0.06284268200397491
3.7412166595458984 5.709059715270996 -0.06187403202056885
3.691059112548828 5.710507392883301 -0.06038540229201317
3.6426100730895996 5.714027404785156 -0.0591253936290741
3.623025417327881 5.709409236907959 -0.05857950448989868
3.6145808696746826 5.722658157348633 -0.05822983756661415
3.607703685760498 5.7385430335998535 -0.05790463835000992
3.585371255874634 5.729372501373291 -0.05732284486293793
3.5718352794647217 5.734515190124512 -0.05729975551366806
3.5573997497558594 5.738275051116943 -0.05686226859688759
3.5437750816345215 5.742875099182129 -0.0564144104719162
3.527240753173828 5.743060111999512 -0.055932000279426575
3.511056423187256 5.743839740753174 -0.05544336140155792
3.495455741882324 5.7450761795043945 -0.054984889924526215
3.4838624000549316 5.753664970397949 -0.0545806922018528
3.4722037315368652 5.761362075805664 -0.054364971816539764
3.4518728256225586 5.754605293273926 -0.05381869897246361
3.4376206398010254 5.758697509765625 -0.05338352918624878
3.422065258026123 5.759764671325684 -0.05292147397994995
3.4075965881347656 5.762965202331543 -0.05247283726930618
3.3894991874694824 5.760056018829346 -0.05197250097990036
3.3772010803222656 5.766501426696777 -0.051559753715991974
3.359884023666382 5.764686584472656 -0.05124770849943161
3.344505786895752 5.766224384307861 -0.050796687602996826
3.3375821113586426 5.782258987426758 -0.05047076568007469
3.3127694129943848 5.767334938049316 -0.049868978559970856
3.2983546257019043 5.769931793212891 -0.04943764954805374
3.2889785766601562 5.781703948974609 -0.049067623913288116
3.276369094848633 5.787909984588623 -0.04865100979804993
3.260047435760498 5.787056922912598 -0.04859162122011185
3.2436280250549316 5.78632116317749 -0.04811766743659973
3.2321367263793945 5.794443130493164 -0.04773556813597679
3.2151718139648438 5.792250156402588 -0.047251783311367035
3.2007663249969482 5.794971466064453 -0.04682315140962601
3.1806344985961914 5.7873334884643555 -0.04629899933934212
3.179403066635132 5.813643455505371 -0.04605165496468544
3.1580653190612793 5.803571701049805 -0.04569021612405777
3.1449167728424072 5.808558464050293 -0.04504644125699997
3.1317524909973145 5.813398361206055 -0.04462891072034836
8.32104778289795 -12.114141464233398 -0.10950833559036255
8.42564582824707 -12.102680206298828 -0.11257944256067276
8.536378860473633 -12.098816871643066 -0.1148519366979599
8.649566650390625 -12.097076416015625 -0.11806733906269073
8.726004600524902 -12.095985412597656 -0.11983775347471237
10.45118522644043 -11.982906341552734 -0.1611204743385315
10.582110404968262 -11.98013687133789 -0.16393932700157166
10.702841758728027 -11.96438217163086 -0.16714349389076233
10.79322338104248 -11.963638305664062 -0.1687508225440979
10.917221069335938 -11.949182510375977 -0.1720448136329651
11.048395156860352 -11.941131591796875 -0.17547310888767242
11.18312931060791 -11.935348510742188 -0.17842039465904236
12.896074295043945 -11.782069206237793 -0.21949860453605652
13.004753112792969 -11.73221206665039 -0.2228817343711853
13.10456371307373 -11.67365837097168 -0.2255181074142456
13.215852737426758 -11.624603271484375 -0.22898991405963898
13.283004760742188 -11.584811210632324 -0.23041802644729614
13.383992195129395 -11.52554702758789 -0.23310886323451996
13.816980361938477 -9.87906265258789 -0.254968523979187
13.841032028198242 -9.765350341796875 -0.25633546710014343
13.863517761230469 -9.651250839233398 -0.2572535574436188
14.002164840698242 -7.900836944580078 -0.270175576210022
13.990922927856445 -7.778943061828613 -0.2709645926952362
13.915583610534668 -6.09812068939209 -0.27701932191848755
10.948467254638672 4.320525169372559 -0.2620951533317566
10.79838752746582 4.3399529457092285 -0.25884950160980225
9.443717956542969 4.578436851501465 -0.22810021042823792
9.34153938293457 4.601653099060059 -0.22567182779312134
9.226682662963867 4.6173787117004395 -0.2227066159248352
9.152199745178223 4.628403663635254 -0.2219998836517334
9.110696792602539 4.631181240081787 -0.22123344242572784
9.052082061767578 4.64946174621582 -0.2196657955646515
9.0011625289917 4.646940231323242 -0.2183801531791687
8.941390037536621 4.663877964019775 -0.2170814573764801
8.248235702514648 4.7990617752075195 -0.20175912976264954
8.139619827270508 4.804991722106934 -0.19926011562347412
8.050171852111816 4.820686340332031 -0.1972632259130478
7.987738609313965 4.828740119934082 -0.1959773600101471
7.963306427001953 4.836942195892334 -0.19528692960739136
7.908252716064453 4.848834991455078 -0.1941789835691452
7.86806058883667 4.847062110900879 -0.19288454949855804
7.853458404541016 4.860864639282227 -0.19277866184711456
7.816016674041748 4.860526084899902 -0.19158120453357697
7.799017906188965 4.872429847717285 -0.1913757473230362
7.769743919372559 4.876873016357422 -0.19090190529823303
7.751590251922607 4.8883056640625 -0.19017711281776428
7.703446388244629 4.880317211151123 -0.18925797939300537
7.660268783569336 4.898293972015381 -0.18874214589595795
7.627514839172363 4.899964332580566 -0.1879020482301712
7.563638687133789 4.903767108917236 -0.18660202622413635
7.535799980163574 4.9082441329956055 -0.18584643304347992
7.481476306915283 4.917575836181641 -0.18478074669837952
6.98714542388916 5.0026774406433105 -0.17323952913284302
6.935214996337891 5.009809494018555 -0.17195990681648254
6.909648895263672 5.013195037841797 -0.17127883434295654
6.872690200805664 5.03069543838501 -0.1706782430410385
6.848349571228027 5.034738540649414 -0.16979414224624634
6.821779251098633 5.037688732147217 -0.16941578686237335
6.798983097076416 5.042692184448242 -0.16858193278312683
6.761248588562012 5.0368499755859375 -0.16792576014995575
6.749061584472656 5.049863338470459 -0.16735634207725525
6.7184038162231445 5.048705101013184 -0.1668662428855896
6.703893661499023 5.059966087341309 -0.1665472388267517
6.674516677856445 5.059847831726074 -0.16578534245491028
6.653764724731445 5.065893173217773 -0.16530263423919678
6.628335952758789 5.068937301635742 -0.16466298699378967
6.606184959411621 5.073758125305176 -0.1641671359539032
6.586599349975586 5.080844879150391 -0.16364030539989471
6.5599684715271 5.082328796386719 -0.1630197912454605
6.544711589813232 5.092277526855469 -0.16290390491485596
6.507333755493164 5.085270881652832 -0.16174107789993286
6.489654541015625 5.0934600830078125 -0.1613386869430542
6.4390106201171875 5.097679138183594 -0.16012457013130188
6.421406269073486 5.1054558753967285 -0.15965163707733154
6.373401641845703 5.111244201660156 -0.15878872573375702
6.34951114654541 5.113771438598633 -0.1579742580652237
6.287718296051025 5.129505634307861 -0.15673242509365082
5.988947868347168 5.186520576477051 -0.14943093061447144
5.940773010253906 5.188382148742676 -0.1480640470981598
5.914867401123047 5.1877946853637695 -0.14743205904960632
5.89788818359375 5.194597244262695 -0.1470656841993332
5.874266624450684 5.196117401123047 -0.14648735523223877
5.855327606201172 5.2010626792907715 -0.14608295261859894
5.835070610046387 5.20477294921875 -0.14582140743732452
5.812472820281982 5.206954002380371 -0.1450750231742859
5.793941497802734 5.212066650390625 -0.14468435943126678
5.772671699523926 5.214925289154053 -0.1441408097743988
5.752727508544922 5.218990325927734 -0.1437278687953949
5.7257208824157715 5.216192245483398 -0.1430417150259018
5.721940994262695 5.234797477722168 -0.1430177390575409
5.696623802185059 5.233756065368652 -0.14218395948410034
5.679178237915039 5.239502906799316 -0.1420237123966217
5.65091609954834 5.235819339752197 -0.14111757278442383
5.635910511016846 5.2436933517456055 -0.1410311758518219
5.61845588684082 5.2495269775390625 -0.14038917422294617
5.594227313995361 5.249037742614746 -0.14009293913841248
5.569311141967773 5.247434616088867 -0.13925716280937195
5.55750846862793 5.2584075927734375 -0.1390344500541687
5.52548885345459 5.250248908996582 -0.13825398683547974
5.5086774826049805 5.256350517272949 -0.13789242506027222
5.492718696594238 5.262942314147949 -0.137497216463089
5.468548774719238 5.261957168579102 -0.1369878351688385
5.453936576843262 5.270017623901367 -0.135968416929245
5.429495811462402 5.2685956954956055 -0.13562822341918945
5.413862228393555 5.2752838134765625 -0.13503891229629517
5.397100448608398 5.281109809875488 -0.13445883989334106
5.355379104614258 5.284335136413574 -0.133507639169693
5.296716690063477 5.292862892150879 -0.13223028182983398
5.247576713562012 5.310107231140137 -0.13110964000225067
5.174909591674805 5.3028411865234375 -0.12947218120098114
5.140862464904785 5.312530040740967 -0.1285451054573059
5.092580795288086 5.329273700714111 -0.12745103240013123
5.046380519866943 5.325649738311768 -0.1262199580669403
5.034890174865723 5.335657596588135 -0.12595883011817932
5.0164055824279785 5.338586807250977 -0.12558481097221375
4.997759819030762 5.341195106506348 -0.12448647618293762
4.986934185028076 5.35184383392334 -0.12430718541145325
4.968256950378418 5.354403495788574 -0.12387298047542572
4.9527082443237305 5.360196590423584 -0.12332725524902344
4.9264020919799805 5.354344844818115 -0.12276023626327515
4.913728713989258 5.363149642944336 -0.12247197329998016
4.888418197631836 5.3578033447265625 -0.12193255126476288
4.876319885253906 5.367241859436035 -0.12146859616041183
4.857783317565918 5.369470596313477 -0.12128354609012604
4.837601661682129 5.369518280029297 -0.12060647457838058
4.821989059448242 5.374948024749756 -0.12032562494277954
4.79526948928833 5.367818832397461 -0.11968104541301727
4.784794807434082 5.378890037536621 -0.11952096223831177
4.770368576049805 5.385422706604004 -0.11918868124485016
4.750673294067383 5.385663986206055 -0.11852709203958511
4.726066589355469 5.380607604980469 -0.11802227795124054
4.709667682647705 5.384720802307129 -0.1176476925611496
4.699943542480469 5.396160125732422 -0.1174812763929367
4.681088447570801 5.397749900817871 -0.1168486475944519
4.661106586456299 5.397297382354736 -0.11664154380559921
4.645088195800781 5.4013671875 -0.1161058247089386
4.625838279724121 5.402285099029541 -0.11546505987644196
4.614340782165527 5.411548137664795 -0.11545754969120026
4.597890853881836 5.415353775024414 -0.11490307748317719
4.575630187988281 5.412151336669922 -0.11400969326496124
4.556947708129883 5.412794589996338 -0.11338816583156586
4.540413856506348 5.41630744934082 -0.1130731850862503
4.527495861053467 5.424012660980225 -0.11279316246509552
4.510761737823486 5.426817417144775 -0.11246807873249054
4.481700897216797 5.415346145629883 -0.11178846657276154
4.467751979827881 5.421357154846191 -0.11152545362710953
4.456233024597168 5.430301666259766 -0.11111751198768616
4.438305377960205 5.432076454162598 -0.11050526797771454
4.4250359535217285 5.438833236694336 -0.11046405136585236
4.38205623626709 5.432581901550293 -0.10935543477535248
4.372956275939941 5.444382667541504 -0.10916239023208618
4.355186462402344 5.446045875549316 -0.10883568227291107
4.340119361877441 5.450355529785156 -0.10830933600664139
4.320119380950928 5.448404312133789 -0.10784865915775299
4.305354118347168 5.453672409057617 -0.10758312046527863
4.282899856567383 5.448439598083496 -0.10687126219272614
4.269285678863525 5.4550652503967285 -0.10684529691934586
4.2622575759887695 5.469432830810547 -0.10652439296245575
4.241150379180908 5.465703010559082 -0.1058506891131401
4.222476005554199 5.465703964233398 -0.10568062961101532
4.203388214111328 5.46439790725708 -0.1050676628947258
4.187346458435059 5.466981887817383 -0.10476820915937424
4.172451972961426 5.471709251403809 -0.10408903658390045
4.161551475524902 5.480966567993164 -0.10386337339878082
4.146410942077637 5.484923839569092 -0.1035841554403305
4.125279903411865 5.48097038269043 -0.10293315351009369
4.1114912033081055 5.486309051513672 -0.10287083685398102
4.09102725982666 5.483372688293457 -0.10222972929477692
4.081676006317139 5.494591236114502 -0.10185405611991882
4.067536354064941 5.499361038208008 -0.1016230434179306
4.053282260894775 5.5046467781066895 -0.10130886733531952
4.036005973815918 5.505074501037598 -0.10098199546337128
4.015326023101807 5.500770568847656 -0.10034237056970596
4.002458572387695 5.507810592651367 -0.10007359087467194
3.980398178100586 5.501424312591553 -0.09962336719036102
3.9742796421051025 5.517348289489746 -0.09934383630752563
3.957988739013672 5.519246578216553 -0.09900036454200745
3.941422939300537 5.52030086517334 -0.09868811815977097
3.924091100692749 5.520926475524902 -0.09815806895494461
3.9033119678497314 5.515895843505859 -0.09772378206253052
3.890808582305908 5.522808074951172 -0.09746424108743668
3.870706796646118 5.51896858215332 -0.09686124324798584
3.860286235809326 5.528478622436523 -0.09668821096420288
3.840409278869629 5.525119304656982 -0.09609052538871765
3.821906328201294 5.522919654846191 -0.09590589255094528
3.803622245788574 5.520947456359863 -0.09533762186765671
3.7945756912231445 5.533079147338867 -0.09503018856048584
3.771578311920166 5.524087905883789 -0.09452499449253082
3.767340660095215 5.542862415313721 -0.09452378004789352
3.7462525367736816 5.536925792694092 -0.0938822478055954
3.7354135513305664 5.545666694641113 -0.09349183738231659
3.7243151664733887 5.554349422454834 -0.09351364523172379
3.7037453651428223 5.548943519592285 -0.0928744524717331
3.685059070587158 5.54583740234375 -0.09228169918060303
3.6752829551696777 5.556840896606445 -0.09233230352401733
3.6606454849243164 5.559751033782959 -0.09185939282178879
3.6508359909057617 5.56998348236084 -0.09149399399757385
3.6354472637176514 5.572432994842529 -0.09122626483440399
3.6099393367767334 5.558506965637207 -0.0906510204076767
3.5841972827911377 5.570084571838379 -0.09001559019088745
3.567516326904297 5.569526672363281 -0.08947932720184326
3.5359363555908203 5.571749687194824 -0.08887701481580734
3.498204469680786 5.589657783508301 -0.0880090743303299
3.463566303253174 5.586490631103516 -0.08715323358774185
3.4489428997039795 5.588768005371094 -0.08666881918907166
3.418179988861084 5.591472625732422 -0.08613036572933197
3.4076883792877197 5.600728988647461 -0.08594117313623428
3.391749858856201 5.601109027862549 -0.08566141128540039
3.380624532699585 5.608973979949951 -0.0852774828672409
3.3580996990203857 5.59818172454834 -0.08461183309555054
3.3513593673706055 5.613758087158203 -0.08473707735538483
3.3357014656066895 5.613967418670654 -0.08423251658678055
3.3174216747283936 5.610018730163574 -0.08366772532463074
3.3019461631774902 5.610832214355469 -0.08341275900602341
3.289952516555786 5.617086410522461 -0.08317442238330841
3.271059274673462 5.611843109130859 -0.08261053264141083
3.260446548461914 5.620857238769531 -0.08245381712913513
3.24057674407959 5.6137542724609375 -0.08186177909374237
3.2173943519592285 5.617161750793457 -0.08135978877544403
11.08265495300293 4.726021766662598 -0.16722005605697632
10.983445167541504 4.738481521606445 -0.16527976095676422
10.846390724182129 4.7604522705078125 -0.16337060928344727
9.537210464477539 4.948774337768555 -0.14268925786018372
9.468100547790527 4.963635444641113 -0.14132264256477356
9.436149597167969 4.971875190734863 -0.14101605117321014
9.356246948242188 4.980230331420898 -0.13946181535720825
9.326189041137695 4.9890947341918945 -0.1389169991016388
9.254537582397461 5.001007080078125 -0.1380528211593628
9.208580017089844 5.000889778137207 -0.13797211647033691
9.140762329101562 5.014023780822754 -0.13692300021648407
9.11115550994873 5.022407531738281 -0.13635683059692383
9.036108016967773 5.0307722091674805 -0.1351952999830246
8.927692413330078 5.044193267822266 -0.1331520974636078
8.1405029296875 5.1568098068237305 -0.12086103856563568
8.111347198486328 5.162352561950684 -0.12027667462825775
8.054201126098633 5.173769950866699 -0.11949031054973602
8.02324104309082 5.177434921264648 -0.11883445084095001
7.957187652587891 5.182404518127441 -0.11763018369674683
7.933335304260254 5.190349102020264 -0.11717534065246582
7.8933515548706055 5.187911033630371 -0.1167479008436203
7.877067565917969 5.2010393142700195 -0.11610233038663864
7.848514556884766 5.2056074142456055 -0.11582261323928833
7.825939178466797 5.214349746704102 -0.1156497672200203
7.788248062133789 5.212996482849121 -0.11468398571014404
7.761200428009033 5.218245983123779 -0.11445987224578857
7.711879730224609 5.232378959655762 -0.11347968876361847
7.672356605529785 5.2291436195373535 -0.11338311433792114
7.622328281402588 5.242195129394531 -0.11239618808031082
7.585237503051758 5.239904403686523 -0.11179600656032562
7.528232574462891 5.247496604919434 -0.11072906851768494
7.449397087097168 5.26243782043457 -0.10947974026203156
7.047460556030273 5.318902015686035 -0.10253066569566727
6.968682289123535 5.32853889465332 -0.10109913349151611
6.894242286682129 5.340633392333984 -0.09997966885566711
6.881591796875 5.35410213470459 -0.09942788630723953
6.8420844078063965 5.346487045288086 -0.09901411831378937
6.831944465637207 5.361435890197754 -0.09848399460315704
6.799638748168945 5.359301567077637 -0.09820432960987091
6.780969619750977 5.367731094360352 -0.0978383719921112
6.748288631439209 5.364677429199219 -0.09724709391593933
6.732220649719238 5.375121116638184 -0.09695982187986374
6.698816299438477 5.371542930603027 -0.09634976089000702
6.676898956298828 5.377152442932129 -0.09595810621976852
6.650786399841309 5.379204750061035 -0.09546448290348053
6.634896278381348 5.389167785644531 -0.09514372795820236
6.602907180786133 5.386343955993652 -0.09458321332931519
6.58299446105957 5.393182754516602 -0.0942026823759079
6.563605308532715 5.400099277496338 -0.09388045966625214
6.534874439239502 5.3999128341674805 -0.09333513677120209
6.508793830871582 5.401129722595215 -0.09292423725128174
6.46064567565918 5.407281875610352 -0.09203027188777924
6.448465824127197 5.419882774353027 -0.09172731637954712
6.393221855163574 5.419558525085449 -0.09074871242046356
6.372410774230957 5.424683570861816 -0.09039755165576935
6.32383918762207 5.429433822631836 -0.08951662480831146
6.306517124176025 5.4373369216918945 -0.0892082154750824
6.249873161315918 5.434553146362305 -0.08823416382074356
6.1231465339660645 5.46173095703125 -0.08590536564588547
6.046459674835205 5.461968421936035 -0.0843278244137764
5.988348007202148 5.478231430053711 -0.08327829092741013
5.949502944946289 5.488519191741943 -0.0825624018907547
5.921998023986816 5.486316204071045 -0.08185045421123505
5.874821662902832 5.488766670227051 -0.08104327321052551
5.8586015701293945 5.4964280128479 -0.08046339452266693
5.835849761962891 5.497897148132324 -0.08031956851482391
5.811494827270508 5.498432159423828 -0.07965624332427979
5.803013801574707 5.513275623321533 -0.0796976387500763
5.774250507354736 5.509085178375244 -0.07897333800792694
5.753111362457275 5.512149810791016 -0.07862517237663269
5.73559045791626 5.518235206604004 -0.07827359437942505
5.7111663818359375 5.5178985595703125 -0.0779113918542862
5.691654205322266 5.522311210632324 -0.07749577611684799
5.666900157928467 5.521169662475586 -0.07711850106716156
5.657654762268066 5.535770416259766 -0.07665358483791351
5.628467559814453 5.5301194190979 -0.07644476741552353
5.60997200012207 5.5351691246032715 -0.07583768665790558
5.5929412841796875 5.541699409484863 -0.07578733563423157
5.567887306213379 5.539820671081543 -0.0751321017742157
5.543602466583252 5.53889274597168 -0.07475824654102325
5.531269073486328 5.549937725067139 -0.0744563639163971
5.500209808349609 5.541726112365723 -0.07399074733257294
5.482269287109375 5.547301769256592 -0.07363820821046829
5.473076820373535 5.56103515625 -0.07347093522548676
5.4472575187683105 5.55811882019043 -0.07278904318809509
5.422948837280273 5.5567169189453125 -0.07217171788215637
5.400205612182617 5.556435585021973 -0.07153423130512238
5.382920742034912 5.5619916915893555 -0.07126520574092865
5.3681559562683105 5.57020378112793 -0.07093843072652817
5.348432540893555 5.572835922241211 -0.07038521766662598
5.311582565307617 5.581300735473633 -0.06973429024219513
5.288110733032227 5.580075263977051 -0.06936807930469513
5.227540493011475 5.586082458496094 -0.06810992956161499
5.186788082122803 5.589533805847168 -0.06741109490394592
5.172486305236816 5.597372055053711 -0.06717421114444733
5.120398044586182 5.58803653717041 -0.0663437470793724
5.075540065765381 5.609475612640381 -0.06529294699430466
5.037256240844727 5.614511489868164 -0.06463224440813065
5.013756275177002 5.611702919006348 -0.06403873860836029
4.986025810241699 5.6281938552856445 -0.06352202594280243
4.960343360900879 5.623058319091797 -0.06241743266582489
4.947678565979004 5.632219314575195 -0.062204159796237946
4.92759370803833 5.6331892013549805 -0.06167246401309967
4.912139892578125 5.639486789703369 -0.06160549819469452
4.889597415924072 5.637485980987549 -0.06102423369884491
4.86712121963501 5.635154724121094 -0.06068382412195206
4.856630802154541 5.647047996520996 -0.060458503663539886
4.835777282714844 5.646764278411865 -0.059879083186388016
4.818838119506836 5.65067720413208 -0.05962589755654335
4.806412696838379 5.660553932189941 -0.059362687170505524
4.779217720031738 5.65225887298584 -0.05897803604602814
4.761822700500488 5.6558427810668945 -0.05845636874437332
4.742013454437256 5.656402111053467 -0.0583588182926178
4.726352691650391 5.661543846130371 -0.05786927044391632
4.707257270812988 5.662911415100098 -0.057317182421684265
4.680981159210205 5.655438423156738 -0.057151198387145996
4.671998500823975 5.668493270874023 -0.05674711614847183
4.657434463500977 5.675175666809082 -0.056501276791095734
4.637484550476074 5.67514705657959 -0.05617392808198929
4.608842849731445 5.664044380187988 -0.055757272988557816
4.597470283508301 5.674787521362305 -0.05533060431480408
4.580591201782227 5.678003787994385 -0.05500951409339905
4.561214447021484 5.678455829620361 -0.054735273122787476
4.55241060256958 5.691957473754883 -0.05431938171386719
4.52974796295166 5.687780380249023 -0.05357006937265396
4.515653133392334 5.6946940422058105 -0.0532742403447628
4.491115570068359 5.688265800476074 -0.052941590547561646
4.478005409240723 5.695924758911133 -0.05247478187084198
4.466633319854736 5.706507682800293 -0.052244365215301514
4.4479169845581055 5.706955909729004 -0.051970914006233215
4.408733367919922 5.706082344055176 -0.05115995556116104
4.388709545135498 5.704594612121582 -0.05083129554986954
4.372978687286377 5.709342956542969 -0.050575852394104004
4.361200332641602 5.718509197235107 -0.050152044743299484
4.330313205718994 5.702511787414551 -0.049694061279296875
4.317221164703369 5.71055793762207 -0.049491263926029205
4.303407669067383 5.716909408569336 -0.04901227355003357
4.286585330963135 5.71922492980957 -0.04897367209196091
4.270147323608398 5.722725868225098 -0.04848112165927887
4.246220588684082 5.715366363525391 -0.047922052443027496
4.231491565704346 5.721030235290527 -0.0476977676153183
4.222282886505127 5.733428478240967 -0.047498222440481186
4.207238674163818 5.737900733947754 -0.04700249433517456
4.184571743011475 5.732626914978027 -0.04670184850692749
4.171743392944336 5.740028381347656 -0.04644688591361046
4.156412601470947 5.743961334228516 -0.04622693732380867
4.140437126159668 5.747696399688721 -0.04574422165751457
