VERSION .7
FIELDS x y z
SIZE 4 4 4
TYPE F F F
COUNT 1 1 1
WIDTH 832
HEIGHT 1
VIEWPOINT 0 0 0 1 0 0 0
POINTS 832
DATA ascii
3.891418933868408 5.803995609283447 -0.10543519258499146
3.8804779052734375 5.813724517822266 -0.10535679757595062
3.8522119522094727 5.79816198348999 -0.1044987142086029
3.845349073410034 5.813972473144531 -0.10432503372430801
3.8297085762023926 5.816522121429443 -0.10380348563194275
3.8073716163635254 5.809579372406006 -0.10342242568731308
3.7965617179870605 5.819390773773193 -0.10303516685962677
3.7788686752319336 5.819397926330566 -0.10257857292890549
3.7595016956329346 5.815961837768555 -0.10195392370223999
3.7474324703216553 5.823763370513916 -0.10184754431247711
3.7339060306549072 5.830073356628418 -0.10150307416915894
3.708965539932251 5.817679405212402 -0.10073404014110565
3.6996591091156006 5.829735279083252 -0.10038687288761139
3.6792452335357666 5.82503604888916 -0.10006490349769592
3.668243408203125 5.83439826965332 -0.09978023171424866
3.650919198989868 5.834264755249023 -0.09922309219837189
3.6375341415405273 5.839992523193359 -0.09877031296491623
3.623194694519043 5.843959808349609 -0.09860610216856003
3.604409694671631 5.84128475189209 -0.09811833500862122
3.5905723571777344 5.8461761474609375 -0.09776176512241364
3.572495460510254 5.843902587890625 -0.0971808210015297
3.5636396408081055 5.8574981689453125 -0.09686224162578583
3.5509960651397705 5.864087104797363 -0.09685099869966507
3.5227208137512207 5.844732761383057 -0.09598932415246964
3.506883144378662 5.846670150756836 -0.09548108279705048
3.5023438930511475 5.866667747497559 -0.095274917781353
3.4795072078704834 5.856597900390625 -0.09499169141054153
3.4601144790649414 5.851783752441406 -0.09438100457191467
3.45215106010437 5.866067886352539 -0.09408135712146759
3.4446427822113037 5.881810188293457 -0.09380179643630981
3.422229766845703 5.8716559410095215 -0.09321211278438568
3.4019360542297363 5.864778518676758 -0.09288571774959564
3.386733293533325 5.867412090301514 -0.09239983558654785
14.360742568969727 4.085875511169434 -0.23595458269119263
14.338628768920898 4.1771979331970215 -0.2357824444770813
14.31683349609375 4.236340045928955 -0.2350451946258545
14.286731719970703 4.325295448303223 -0.23499572277069092
12.684118270874023 4.821480751037598 -0.20960967242717743
12.505048751831055 4.843605041503906 -0.20631997287273407
12.44914722442627 4.851686954498291 -0.20555780827999115
12.348101615905762 4.872307300567627 -0.20362479984760284
12.286154747009277 4.877354145050049 -0.20277133584022522
12.232519149780273 4.8863372802734375 -0.2018519639968872
12.1804780960083 4.89488410949707 -0.2005627453327179
12.130321502685547 4.903989791870117 -0.1999107152223587
12.069503784179688 4.909426689147949 -0.1990714967250824
12.017088890075684 4.91719388961792 -0.19818176329135895
11.86498737335205 4.942262172698975 -0.19617173075675964
10.740771293640137 5.123620986938477 -0.17728233337402344
10.614941596984863 5.145761966705322 -0.1753799468278885
10.468433380126953 5.156266689300537 -0.17277204990386963
10.38454532623291 5.169201850891113 -0.17103540897369385
10.359619140625 5.183849334716797 -0.1708086133003235
10.313908576965332 5.187766075134277 -0.1700546145439148
10.267574310302734 5.1919732093811035 -0.16895052790641785
10.217916488647461 5.193517684936523 -0.16829821467399597
10.179798126220703 5.200753688812256 -0.16768094897270203
10.147735595703125 5.211739540100098 -0.16681182384490967
10.100042343139648 5.213761329650879 -0.16620352864265442
10.069375038146973 5.225003242492676 -0.16588345170021057
10.021141052246094 5.226596832275391 -0.1645839661359787
9.981773376464844 5.232442855834961 -0.16410750150680542
9.864641189575195 5.250934600830078 -0.1620502769947052
9.182741165161133 5.342549800872803 -0.14984486997127533
9.074532508850098 5.356233596801758 -0.1478109210729599
8.984411239624023 5.379484176635742 -0.1462634652853012
8.903069496154785 5.381844997406006 -0.14483124017715454
8.869135856628418 5.386684894561768 -0.14430168271064758
8.792736053466797 5.390913963317871 -0.14295129477977753
8.772692680358887 5.403894424438477 -0.14265799522399902
8.708259582519531 5.414737224578857 -0.14151409268379211
8.666147232055664 5.413710594177246 -0.14037978649139404
8.647642135620117 5.427678108215332 -0.14027661085128784
8.59271240234375 5.418090343475342 -0.13892924785614014
8.571075439453125 5.4295268058776855 -0.1387733817100525
8.542943000793457 5.437125205993652 -0.13850589096546173
8.511815071105957 5.442352294921875 -0.13757307827472687
8.47115707397461 5.441699028015137 -0.13709236681461334
8.445106506347656 5.44975471496582 -0.1362464427947998
8.40709400177002 5.450156211853027 -0.13581421971321106
8.377715110778809 5.456377029418945 -0.13507315516471863
8.347010612487793 5.461082458496094 -0.13460105657577515
8.330859184265137 5.475423336029053 -0.1345309466123581
8.278678894042969 5.466302871704102 -0.1332584023475647
8.205438613891602 5.492326736450195 -0.13204404711723328
8.101884841918945 5.497079372406006 -0.13032370805740356
7.751537322998047 5.549746990203857 -0.12341830134391785
7.666715621948242 5.562252521514893 -0.12203896045684814
7.608207702636719 5.568861961364746 -0.12090054154396057
7.580568313598633 5.572826862335205 -0.12021297961473465
7.519928932189941 5.577185153961182 -0.11905115097761154
7.480937480926514 5.5723676681518555 -0.1184781864285469
7.444041728973389 5.593782424926758 -0.1178429126739502
7.404870986938477 5.5884294509887695 -0.11683005839586258
7.385063171386719 5.598282337188721 -0.11671179533004761
7.356864929199219 5.600984573364258 -0.11589008569717407
7.327924728393555 5.603192329406738 -0.1156146302819252
7.3047637939453125 5.610069751739502 -0.11487355083227158
7.273832321166992 5.610350131988525 -0.11456923186779022
7.244603157043457 5.612529754638672 -0.11388207226991653
7.222929954528809 5.619762897491455 -0.11358055472373962
7.201868534088135 5.627407550811768 -0.1130186915397644
7.181967735290527 5.636608123779297 -0.11276338249444962
7.147765636444092 5.6337738037109375 -0.11198954284191132
7.131139278411865 5.644700527191162 -0.11176944524049759
7.080903053283691 5.629581928253174 -0.11075910180807114
7.071009635925293 5.645704746246338 -0.11064658313989639
7.037957191467285 5.643976211547852 -0.10990675538778305
7.010637283325195 5.6460113525390625 -0.10951821506023407
6.992442607879639 5.655320167541504 -0.10900616645812988
6.940062522888184 5.661468505859375 -0.10801646113395691
6.914926052093506 5.664902687072754 -0.10767306387424469
6.870304584503174 5.676867485046387 -0.10680606216192245
6.842228889465332 5.678127288818359 -0.10615366697311401
6.803287506103516 5.693839073181152 -0.10537289083003998
6.7213544845581055 5.698023796081543 -0.103725366294384
6.495577812194824 5.720797061920166 -0.09937835484743118
6.449655532836914 5.728583335876465 -0.09852026402950287
6.433351516723633 5.7382097244262695 -0.09832580387592316
6.375608921051025 5.735099792480469 -0.09727995842695236
6.361371040344238 5.746219635009766 -0.09686361998319626
6.307004928588867 5.745530605316162 -0.0958699882030487
6.285964012145996 5.750277519226074 -0.09521932899951935
6.252124309539795 5.743721961975098 -0.0948813334107399
6.239782810211182 5.756487846374512 -0.09474392235279083
6.214115619659424 5.756724834442139 -0.09415188431739807
6.195529937744141 5.7641496658325195 -0.09380987286567688
6.1703009605407715 5.764611721038818 -0.09347408264875412
6.142429828643799 5.763016700744629 -0.09285859763622284
6.12738037109375 5.773032188415527 -0.09268269687891006
6.106200218200684 5.777044773101807 -0.09215929359197617
6.088261127471924 5.78458833694458 -0.09155873954296112
6.063053131103516 5.784806251525879 -0.09136670082807541
6.036184310913086 5.78314733505249 -0.09062591195106506
6.02175760269165 5.794046878814697 -0.09047037363052368
5.994318962097168 5.791650295257568 -0.0898565724492073
5.984412670135498 5.806667327880859 -0.08977044373750687
5.947488784790039 5.7950310707092285 -0.08901337534189224
5.929440498352051 5.801481246948242 -0.08842280507087708
5.907965660095215 5.805042743682861 -0.08828069269657135
5.889335632324219 5.810988903045654 -0.08767938613891602
5.863687038421631 5.809745788574219 -0.08747734129428864
5.812681198120117 5.807924747467041 -0.08606971055269241
5.799176216125488 5.819057464599609 -0.08605967462062836
5.763022422790527 5.831164360046387 -0.08500901609659195
5.728137493133545 5.8205037117004395 -0.08454449474811554
5.693178176879883 5.833922386169434 -0.08415079116821289
5.680889129638672 5.845549583435059 -0.08365386724472046
5.6353230476379395 5.84773588180542 -0.0828535407781601
5.560132026672363 5.842782020568848 -0.08129556477069855
5.512925148010254 5.86659049987793 -0.08016650378704071
5.463142395019531 5.862897872924805 -0.07930758595466614
5.4381232261657715 5.860567569732666 -0.07875386625528336
5.405679702758789 5.874849796295166 -0.07803671061992645
5.378556728363037 5.869956016540527 -0.07782106101512909
5.339167594909668 5.876279830932617 -0.07675791531801224
5.320548057556152 5.8804426193237305 -0.07654404640197754
5.306399345397949 5.889862537384033 -0.0760386660695076
5.279764175415039 5.884810447692871 -0.07547084987163544
5.260993957519531 5.888611316680908 -0.07525433599948883
5.239401340484619 5.889533042907715 -0.07476651668548584
5.220733642578125 5.89331579208374 -0.074552021920681
5.2041239738464355 5.899724960327148 -0.07426051050424576
5.176888942718506 5.893457889556885 -0.07392634451389313
5.159214496612549 5.898162364959717 -0.07348586618900299
5.139698028564453 5.901056289672852 -0.0729125440120697
5.125099182128906 5.909008979797363 -0.07288068532943726
5.094217777252197 5.898273944854736 -0.0721362754702568
5.07736349105835 5.904022216796875 -0.07159680128097534
5.065119743347168 5.914755344390869 -0.07160674035549164
5.046186447143555 5.918002128601074 -0.07103938609361649
5.02731466293335 5.920712471008301 -0.0704740509390831
4.999847412109375 5.913379669189453 -0.07025586068630219
4.9858784675598145 5.922283172607422 -0.0697689950466156
4.96940803527832 5.927643775939941 -0.06935512274503708
4.954751014709473 5.935323238372803 -0.06920424103736877
4.930454254150391 5.931741714477539 -0.06857730448246002
4.9112091064453125 5.933781623840332 -0.06813089549541473
4.893380641937256 5.937283515930176 -0.06792870908975601
4.880293846130371 5.947056293487549 -0.06745655089616776
4.853726863861084 5.939963340759277 -0.06691157817840576
4.835704803466797 5.943589210510254 -0.06671611964702606
4.817107677459717 5.945892333984375 -0.0661594420671463
4.802754878997803 5.953583240509033 -0.06578800082206726
4.785181999206543 5.957608222961426 -0.06525186449289322
4.767374038696289 5.960730075836182 -0.06518387794494629
4.7381086349487305 5.950153827667236 -0.06507012248039246
4.725672721862793 5.959875106811523 -0.06460735946893692
4.693000793457031 5.970144271850586 -0.0636926218867302
4.662983417510986 5.957361698150635 -0.06333079189062119
4.635132789611816 5.973440170288086 -0.06249295920133591
4.615424156188965 5.973595142364502 -0.06227559596300125
4.601607799530029 5.982082366943359 -0.061801113188266754
4.577802658081055 5.976759910583496 -0.061311811208724976
4.554316997528076 5.9717278480529785 -0.0610419437289238
4.547964096069336 5.989891052246094 -0.060672033578157425
4.521917343139648 5.98131799697876 -0.060146432369947433
4.488611221313477 5.989531517028809 -0.05946637690067291
4.470508575439453 5.991243362426758 -0.059051863849163055
4.441987991333008 6.005624294281006 -0.05843767523765564
4.419671058654785 6.001461505889893 -0.05796477198600769
4.402941703796387 6.005571365356445 -0.05746563524007797
4.381202220916748 6.001999855041504 -0.05688771232962608
4.366323947906494 6.0079545974731445 -0.056856751441955566
4.3480987548828125 6.009634017944336 -0.056330498307943344
4.327848434448242 6.0078582763671875 -0.05611351877450943
4.310527801513672 6.010847091674805 -0.05583459138870239
4.295598030090332 6.016353607177734 -0.055353641510009766
4.273398399353027 6.01160192489624 -0.05522511154413223
4.261235237121582 6.021689414978027 -0.05478883162140846
4.239025115966797 6.016745090484619 -0.05421068146824837
4.225725173950195 6.024381160736084 -0.05408759042620659
4.20502233505249 6.022190093994141 -0.05365320295095444
4.191195487976074 6.029004096984863 -0.05319005623459816
4.170272350311279 6.0257487297058105 -0.05263148993253708
4.154928684234619 6.030868053436279 -0.05260077118873596
4.143051624298096 6.040421009063721 -0.0521625280380249
4.127193927764893 6.0449442863464355 -0.05168180167675018
4.107852458953857 6.0435099601745605 -0.05126410722732544
4.091187477111816 6.04594087600708 -0.05109947547316551
4.073756694793701 6.047977447509766 -0.05059432238340378
4.0530500411987305 6.044268608093262 -0.05016353353857994
4.039793014526367 6.051609516143799 -0.049710411578416824
4.025603294372559 6.058340072631836 -0.04958369955420494
4.008377552032471 6.059659957885742 -0.049086812883615494
3.9831418991088867 6.048956394195557 -0.048597704619169235
3.9712467193603516 6.058825492858887 -0.04816504567861557
3.9507672786712646 6.054949760437012 -0.04795564338564873
3.937889814376831 6.063477993011475 -0.04763001203536987
3.9219021797180176 6.0663838386535645 -0.047145161777734756
3.9033021926879883 6.065181732177734 -0.047072283923625946
3.8948206901550293 6.080506801605225 -0.04680687189102173
3.8648786544799805 6.06141996383667 -0.04615209996700287
3.861088514328003 6.084108352661133 -0.0458250492811203
3.836261034011841 6.072803974151611 -0.04556436464190483
3.8263185024261475 6.084995269775391 -0.04527468979358673
3.8052449226379395 6.080266952514648 -0.04473797231912613
3.78660249710083 6.078492641448975 -0.044230684638023376
3.7734382152557373 6.085463047027588 -0.0441124364733696
3.7652018070220947 6.101243019104004 -0.04384627193212509
3.742785930633545 6.09317684173584 -0.043291062116622925
3.705990791320801 6.090640544891357 -0.042405784130096436
3.698112964630127 6.1061930656433105 -0.042351387441158295
3.6814322471618652 6.108059883117676 -0.0418730266392231
3.660447835922241 6.101848602294922 -0.041342996060848236
3.6496596336364746 6.112584114074707 -0.04104199260473251
3.6275198459625244 6.105096340179443 -0.04082750901579857
3.614534854888916 6.112090110778809 -0.04039054736495018
3.5993332862854004 6.115313529968262 -0.03993115574121475
3.5833804607391357 6.118069171905518 -0.039574168622493744
3.567934036254883 6.12078857421875 -0.03911326453089714
3.548689842224121 6.117556095123291 -0.03893489018082619
3.5359840393066406 6.125121593475342 -0.03850425034761429
3.5142054557800293 6.116676330566406 -0.03807976096868515
3.498276472091675 6.119176864624023 -0.0377289280295372
3.4850306510925293 6.125474452972412 -0.03761288896203041
3.470754623413086 6.129943370819092 -0.03717194125056267
3.455270290374756 6.133116722106934 -0.036711327731609344
3.431814432144165 6.121150970458984 -0.03627985715866089
3.4242379665374756 6.138116359710693 -0.03590833395719528
3.4090566635131836 6.141047477722168 -0.03577735275030136
3.3937056064605713 6.143401622772217 -0.03531870245933533
3.3751018047332764 6.140680313110352 -0.03494323790073395
3.3569676876068115 6.1378278732299805 -0.034460075199604034
3.3448331356048584 6.145901679992676 -0.034039456397295
3.327500820159912 6.145285129547119 -0.033889878541231155
3.3109078407287598 6.14506196975708 -0.033532340079545975
13.29272747039795 2.9257044792175293 -0.2566678524017334
13.266195297241211 3.00742769241333 -0.2563196122646332
13.211225509643555 3.141139268875122 -0.2558845579624176
13.203689575195312 3.2271785736083984 -0.25487008690834045
12.928850173950195 4.276266098022461 -0.2499479353427887
12.929006576538086 4.366677284240723 -0.24963611364364624
12.904611587524414 4.419071197509766 -0.24952560663223267
12.885746955871582 4.442510604858398 -0.2493579387664795
12.815000534057617 4.478594779968262 -0.2475452572107315
12.789241790771484 4.499396324157715 -0.24661436676979065
12.691129684448242 4.525032997131348 -0.24427396059036255
12.517884254455566 4.552163124084473 -0.24149776995182037
12.35411262512207 4.580745697021484 -0.23807650804519653
12.199018478393555 4.610678672790527 -0.23545114696025848
12.041377067565918 4.637818336486816 -0.23237529397010803
10.749382019042969 4.883420467376709 -0.20793622732162476
10.610052108764648 4.900822639465332 -0.2053011655807495
10.484306335449219 4.922947406768799 -0.20222483575344086
10.36103630065918 4.944798946380615 -0.1995696872472763
10.238906860351562 4.9657816886901855 -0.19764170050621033
10.185534477233887 4.966031551361084 -0.19681069254875183
10.165934562683105 4.983382225036621 -0.19593961536884308
10.111002922058105 4.982506275177002 -0.19508913159370422
10.030553817749023 4.9954729080200195 -0.19394773244857788
10.001148223876953 5.00675630569458 -0.19288420677185059
9.907702445983887 5.012269020080566 -0.1914897859096527
9.883235931396484 5.0256781578063965 -0.19122424721717834
9.752090454101562 5.0363993644714355 -0.18862999975681305
9.660360336303711 5.066205978393555 -0.18679818511009216
8.583389282226562 5.239699363708496 -0.16575592756271362
8.50551986694336 5.241280555725098 -0.16407045722007751
8.471004486083984 5.244477272033691 -0.16361984610557556
8.414534568786621 5.258484840393066 -0.16234591603279114
8.385578155517578 5.264798164367676 -0.16199855506420135
8.32388973236084 5.27507209777832 -0.16124014556407928
8.301633834838867 5.285144805908203 -0.1604125052690506
8.232908248901367 5.290247440338135 -0.15951457619667053
8.208351135253906 5.298568248748779 -0.15865913033485413
8.163871765136719 5.2944183349609375 -0.1580163538455963
8.14841079711914 5.308623790740967 -0.15792682766914368
8.11992359161377 5.31410026550293 -0.15699565410614014
8.081854820251465 5.313701629638672 -0.15647655725479126
8.045578956604004 5.313975811004639 -0.15599539875984192
8.02498722076416 5.3243255615234375 -0.15565933287143707
7.98728084564209 5.323739051818848 -0.15470536053180695
7.97719669342041 5.341137886047363 -0.15428712964057922
7.939237594604492 5.339616775512695 -0.15318745374679565
7.875129699707031 5.3448052406311035 -0.15194647014141083
7.848803520202637 5.350761413574219 -0.15121330320835114
7.797119140625 5.363763809204102 -0.15050742030143738
7.776410102844238 5.373850345611572 -0.14989373087882996
7.674872875213623 5.375285625457764 -0.1480111926794052
6.967292785644531 5.4929046630859375 -0.13446518778800964
6.895010471343994 5.506556987762451 -0.13319455087184906
6.817903518676758 5.515531539916992 -0.13183726370334625
6.785218238830566 5.512598514556885 -0.13129472732543945
6.7672271728515625 5.521848678588867 -0.13077694177627563
6.7472639083862305 5.5289225578308105 -0.13061031699180603
6.708065509796143 5.5202836990356445 -0.12994246184825897
6.690091133117676 5.529330253601074 -0.12902909517288208
6.676656723022461 5.5417609214782715 -0.1288575530052185
6.646196365356445 5.539812088012695 -0.12822383642196655
6.623589992523193 5.54481840133667 -0.12761814892292023
6.592169761657715 5.541995525360107 -0.12710481882095337
6.569316864013672 5.546092987060547 -0.12688782811164856
6.556473731994629 5.559107780456543 -0.12647266685962677
6.525435447692871 5.556283473968506 -0.1259688436985016
6.496933460235596 5.555825233459473 -0.1252528429031372
6.482939720153809 5.5671916007995605 -0.12507155537605286
6.451445579528809 5.563621997833252 -0.12468965351581573
6.4268693923950195 5.566239356994629 -0.12405519187450409
6.415440082550049 5.579681396484375 -0.12392651289701462
6.388908863067627 5.5801100730896 -0.12364108860492706
6.349461078643799 5.569438457489014 -0.12258873879909515
6.334003448486328 5.579179763793945 -0.1225161924958229
6.31928825378418 5.5897216796875 -0.12207116186618805
6.291744232177734 5.5891876220703125 -0.12163426727056503
6.244480133056641 5.593915939331055 -0.12066170573234558
6.225703239440918 5.6009392738342285 -0.1205279529094696
6.184647083282471 5.611310005187988 -0.11968114972114563
6.154123783111572 5.606944561004639 -0.11931726336479187
6.090774059295654 5.619705677032471 -0.11762937158346176
6.0234503746032715 5.628102779388428 -0.11650706827640533
5.956260681152344 5.635873317718506 -0.1153898611664772
5.766006946563721 5.666423797607422 -0.11178658157587051
12.680095672607422 -8.740236282348633 -0.250524640083313
12.704132080078125 -8.717970848083496 -0.2508732080459595
12.69426155090332 -8.671366691589355 -0.2510250210762024
12.715490341186523 -8.647223472595215 -0.25131770968437195
12.726456642150879 -8.616110801696777 -0.2518859803676605
12.75620174407959 -8.596566200256348 -0.2523477077484131
12.750391960144043 -8.554228782653809 -0.25258952379226685
12.77439022064209 -8.531940460205078 -0.25270986557006836
12.772181510925293 -8.491065979003906 -0.2525366544723511
12.784191131591797 -8.460847854614258 -0.2531324625015259
12.796760559082031 -8.43075180053711 -0.25326067209243774
12.82309627532959 -8.40915298461914 -0.2541316747665405
12.845420837402344 -8.385725975036621 -0.2544569671154022
12.856735229492188 -8.353996276855469 -0.2550314664840698
12.855179786682129 -8.315096855163574 -0.25489091873168945
12.88492202758789 -8.296181678771973 -0.25514066219329834
12.878135681152344 -8.215576171875 -0.2552533745765686
12.902216911315918 -8.193038940429688 -0.25469833612442017
12.9132719039917 -8.1616792678833 -0.25479835271835327
12.924203872680664 -8.131104469299316 -0.2549092173576355
12.930264472961426 -8.097237586975098 -0.25492435693740845
12.955089569091797 -8.07458209991455 -0.25507646799087524
12.969001770019531 -8.04593276977539 -0.2557172477245331
12.96897029876709 -8.008417129516602 -0.255621075630188
12.977190017700195 -7.975522994995117 -0.25613075494766235
12.968803405761719 -7.895316123962402 -0.2555338740348816
12.961753845214844 -7.854203224182129 -0.25600361824035645
12.99410629272461 -7.762546539306641 -0.25659239292144775
12.992536544799805 -7.651193618774414 -0.25653040409088135
13.051335334777832 -7.142136096954346 -0.2567647099494934
13.057109832763672 -7.0389933586120605 -0.2578164339065552
9.666926383972168 -5.133133411407471 -0.19201937317848206
13.087905883789062 -6.844632625579834 -0.258512407541275
13.109249114990234 -6.751183986663818 -0.258988618850708
13.11626148223877 -6.685058116912842 -0.2594715654850006
13.131098747253418 -6.658329010009766 -0.25948309898376465
13.120068550109863 -6.618293285369873 -0.2592228055000305
13.126036643981934 -6.586416721343994 -0.25838279724121094
13.138229370117188 -6.558190822601318 -0.25836095213890076
13.15249252319336 -6.530500888824463 -0.25812917947769165
13.140774726867676 -6.490724563598633 -0.2583147883415222
13.160133361816406 -6.466101169586182 -0.2586438059806824
13.153533935546875 -6.42825984954834 -0.2582455277442932
13.163687705993652 -6.399167537689209 -0.2590813636779785
13.171072006225586 -6.369000434875488 -0.258960485458374
13.188773155212402 -6.343079566955566 -0.25971752405166626
13.177760124206543 -6.270326614379883 -0.2592109739780426
13.207261085510254 -6.250043869018555 -0.2601953446865082
13.167837142944336 -6.164382457733154 -0.2591395080089569
13.18430233001709 -6.13803243637085 -0.25986748933792114
13.198494911193848 -6.077138900756836 -0.2598670721054077
13.213706016540527 -5.9837517738342285 -0.2603010833263397
13.226633071899414 -5.889686107635498 -0.2607113718986511
13.240275382995605 -5.796297073364258 -0.2604684829711914
13.329988479614258 -5.116393089294434 -0.2625308334827423
13.342164039611816 -5.056933879852295 -0.2612653374671936
13.326316833496094 -5.019093036651611 -0.2609713077545166
13.3477144241333 -4.9632978439331055 -0.26097995042800903
13.350801467895508 -4.932703018188477 -0.26169872283935547
13.336915969848633 -4.863836765289307 -0.2610306739807129
13.366523742675781 -4.748383045196533 -0.2616899311542511
13.374882698059082 -4.688011169433594 -0.2623274326324463
13.387222290039062 -4.6611647605896 -0.2623818814754486
13.378829956054688 -4.595160961151123 -0.26269200444221497
13.407087326049805 -4.573784828186035 -0.263055682182312
13.408269882202148 -4.511238098144531 -0.26356983184814453
13.405939102172852 -4.478822231292725 -0.2633395493030548
13.408625602722168 -4.417717933654785 -0.2632376253604889
13.432411193847656 -3.475745677947998 -0.2625288963317871
13.458661079406738 -3.3924102783203125 -0.26345670223236084
13.453653335571289 -3.301337957382202 -0.26294001936912537
13.467026710510254 -3.2750048637390137 -0.26328378915786743
13.44035530090332 -3.2086288928985596 -0.263131707906723
13.438446998596191 -3.178711175918579 -0.2629653811454773
13.445293426513672 -3.1205968856811523 -0.2636870741844177
13.452399253845215 -3.0625991821289062 -0.2635658085346222
13.45668888092041 -3.0342159271240234 -0.26353612542152405
13.461244583129883 -2.946439743041992 -0.2640955150127411
13.477073669433594 -2.8612420558929443 -0.2627754807472229
13.567805290222168 -1.8822335004806519 -0.26397767663002014
13.573965072631836 -1.796185851097107 -0.26470819115638733
13.583168029785156 -1.710587978363037 -0.2646641731262207
13.593571662902832 -1.653771996498108 -0.2653615474700928
13.589398384094238 -1.5666335821151733 -0.2652903199195862
13.599550247192383 -1.394782304763794 -0.2636672258377075
15.836149215698242 0.1415998935699463 -0.17875610291957855
15.319866180419922 3.7097394466400146 -0.1670960783958435
15.286018371582031 3.8718647956848145 -0.16716238856315613
15.266770362854004 3.969287872314453 -0.16625578701496124
15.263392448425293 4.071020126342773 -0.16649101674556732
13.239059448242188 4.940147399902344 -0.1403794139623642
13.168082237243652 4.944818496704102 -0.13974091410636902
13.053365707397461 4.964565277099609 -0.13874056935310364
12.924869537353516 4.978100776672363 -0.13612304627895355
12.874853134155273 4.9895429611206055 -0.13570527732372284
12.76045036315918 5.0071187019348145 -0.13388362526893616
12.713423728942871 5.019135475158691 -0.13349947333335876
10.88119888305664 5.305206298828125 -0.11195424199104309
10.738195419311523 5.319296836853027 -0.11010239273309708
10.602622985839844 5.335411548614502 -0.10833071917295456
10.481880187988281 5.357495307922363 -0.10599486529827118
10.388251304626465 5.364939212799072 -0.10528276860713959
10.351635932922363 5.373269081115723 -0.10431204736232758
10.265830993652344 5.383733749389648 -0.1036776453256607
10.230382919311523 5.392242431640625 -0.10325397551059723
10.150283813476562 5.404768466949463 -0.10215311497449875
10.110401153564453 5.410490989685059 -0.10185655951499939
10.014657974243164 5.413632392883301 -0.10043130815029144
9.975597381591797 5.419297695159912 -0.1001538336277008
9.901118278503418 5.432965278625488 -0.09946516156196594
9.863693237304688 5.439091682434082 -0.09868130087852478
9.785364151000977 5.449766159057617 -0.097958043217659
8.582132339477539 5.616405010223389 -0.08203215897083282
8.485285758972168 5.629530906677246 -0.08082516491413116
8.445550918579102 5.628632545471191 -0.08055459707975388
8.390108108520508 5.642854690551758 -0.0796365737915039
8.356624603271484 5.645555019378662 -0.07942913472652435
8.295577049255371 5.655341148376465 -0.07846573740243912
8.264188766479492 5.659097671508789 -0.07827380299568176
8.227996826171875 5.659985065460205 -0.07789768278598785
8.184586524963379 5.65536642074585 -0.07713941484689713
8.173627853393555 5.672891139984131 -0.07714958488941193
8.111492156982422 5.680531024932861 -0.07618475705385208
8.077183723449707 5.681522846221924 -0.07581579685211182
8.02387523651123 5.6946868896484375 -0.07509051263332367
7.991127014160156 5.696969032287598 -0.07430208474397659
7.931407451629639 5.704375743865967 -0.07322321087121964
7.904603958129883 5.710573196411133 -0.0729319229722023
7.849612236022949 5.720762252807617 -0.07220523059368134
7.822904109954834 5.726739406585693 -0.07191716879606247
7.747767448425293 5.721460342407227 -0.07101044058799744
7.153094291687012 5.811293601989746 -0.06260397285223007
7.066062927246094 5.814708232879639 -0.06160338968038559
6.984645843505859 5.821738243103027 -0.06065642833709717
6.908289909362793 5.832085132598877 -0.059759654104709625
6.840606689453125 5.84899377822876 -0.05880577489733696
6.781836032867432 5.848363876342773 -0.058099910616874695
6.76605224609375 5.859278678894043 -0.05793379247188568
6.7174072265625 5.8668389320373535 -0.0571785531938076
6.681028842926025 5.859734535217285 -0.05657210946083069
6.66239595413208 5.8678975105285645 -0.056377749890089035
6.6379170417785645 5.871382713317871 -0.05559833347797394
6.624900817871094 5.884601593017578 -0.05559006705880165
6.5817975997924805 5.870795726776123 -0.054932959377765656
6.568962097167969 5.8844099044799805 -0.05479341000318527
6.541439533233643 5.884451389312744 -0.054668329656124115
6.508090496063232 5.8794708251953125 -0.053954821079969406
6.491146087646484 5.888672351837158 -0.053918659687042236
6.474106788635254 5.89793586730957 -0.053341347724199295
6.441797256469727 5.893550395965576 -0.053181640803813934
6.42534875869751 5.903043270111084 -0.05314329266548157
6.4119062423706055 5.915460109710693 -0.05260112136602402
6.375325679779053 5.906789302825928 -0.05240242928266525
6.3447747230529785 5.903000354766846 -0.05212252214550972
6.336582183837891 5.920680999755859 -0.05175735428929329
6.292194366455078 5.903712749481201 -0.05137071758508682
6.25452184677124 5.918091297149658 -0.05086973309516907
6.229470252990723 5.918936729431152 -0.050240397453308105
6.196276664733887 5.937251091003418 -0.050038643181324005
6.156045913696289 5.923255920410156 -0.049429189413785934
6.124155044555664 5.942441940307617 -0.048851870000362396
14.88542366027832 -9.584561347961426 -0.149921253323555
14.890396118164062 -9.544111251831055 -0.1497664749622345
14.90838623046875 -9.46729850769043 -0.1506308913230896
14.928346633911133 -9.436559677124023 -0.1514429748058319
14.940078735351562 -9.400322914123535 -0.15163367986679077
14.95797348022461 -9.367355346679688 -0.1516108363866806
14.974530220031738 -9.334518432617188 -0.15265658497810364
14.967399597167969 -9.286683082580566 -0.15238793194293976
14.985143661499023 -9.253731727600098 -0.15344402194023132
14.999727249145508 -9.219794273376465 -0.15340235829353333
15.015953063964844 -9.185627937316895 -0.154168039560318
15.029970169067383 -9.151395797729492 -0.15439006686210632
15.046871185302734 -9.118626594543457 -0.1543644666671753
15.06866455078125 -9.088191032409668 -0.15546616911888123
15.059486389160156 -9.04008960723877 -0.15517976880073547
15.078922271728516 -9.008929252624512 -0.1562579870223999
15.097224235534668 -8.976468086242676 -0.1546417623758316
15.114035606384277 -8.944063186645508 -0.15462034940719604
15.13827133178711 -8.91479778289795 -0.15520478785037994
15.141666412353516 -8.874529838562012 -0.15505549311637878
15.165539741516113 -8.846290588378906 -0.1561783254146576
15.173744201660156 -8.807686805725098 -0.15606895089149475
15.189937591552734 -8.774992942810059 -0.15604539215564728
15.217691421508789 -8.705758094787598 -0.1570255607366562
15.22960376739502 -8.670675277709961 -0.1580343097448349
15.256145477294922 -8.600912094116211 -0.15793505311012268
15.291104316711426 -8.494383811950684 -0.15987570583820343
15.52500057220459 -7.8317365646362305 -0.164205864071846
15.539584159851074 -7.757169723510742 -0.16505783796310425
15.540584564208984 -7.717425346374512 -0.164893239736557
15.54875373840332 -7.640020370483398 -0.16569866240024567
15.534635543823242 -7.593103408813477 -0.1653824895620346
15.51850700378418 -7.504416465759277 -0.16593684256076813
15.499585151672363 -7.455330848693848 -0.16582584381103516
15.496356964111328 -7.334178924560547 -0.16634266078472137
15.503865242004395 -7.2582573890686035 -0.16688808798789978
15.50575065612793 -7.219662189483643 -0.16543300449848175
15.507570266723633 -7.180525302886963 -0.16607056558132172
15.519411087036133 -7.146935939788818 -0.16577742993831635
15.516878128051758 -7.106492519378662 -0.16559350490570068
15.518806457519531 -7.067593097686768 -0.16623345017433167
15.505305290222168 -7.022347450256348 -0.1661982536315918
15.510702133178711 -6.9860382080078125 -0.16609624028205872
15.523649215698242 -6.952301025390625 -0.16607365012168884
15.527435302734375 -6.915064811706543 -0.16699661314487457
15.526334762573242 -6.875999450683594 -0.16683612763881683
15.527867317199707 -6.837319850921631 -0.1677292138338089
15.52277946472168 -6.796375751495361 -0.16752326488494873
15.527692794799805 -6.759315490722656 -0.1674206256866455
15.526727676391602 -6.643102645874023 -0.16798752546310425
15.549680709838867 -6.537583351135254 -0.16880911588668823
15.559225082397461 -5.527594089508057 -0.17155973613262177
15.546146392822266 -5.412859916687012 -0.1705201268196106
15.528766632080078 -5.370703220367432 -0.1697099804878235
15.541013717651367 -5.3017659187316895 -0.17060700058937073
15.546042442321777 -5.267490863800049 -0.17053928971290588
15.551953315734863 -5.2327470779418945 -0.17047110199928284
15.595157623291016 -5.211020469665527 -0.17182621359825134
15.581061363220215 -5.170390605926514 -0.17155714333057404
15.611385345458984 -5.143719673156738 -0.17176592350006104
15.606520652770996 -5.105976581573486 -0.17159885168075562
15.622648239135742 -5.075388431549072 -0.17265644669532776
15.620828628540039 -5.002167224884033 -0.172399640083313
15.603683471679688 -4.960998058319092 -0.17235861718654633
15.627154350280762 -4.896091938018799 -0.17313264310359955
15.634258270263672 -4.862712383270264 -0.17309635877609253
15.624643325805664 -4.787647724151611 -0.1737651377916336
15.64710521697998 -4.687132835388184 -0.17468352615833282
15.649003982543945 -4.580694675445557 -0.17287713289260864
15.678997039794922 -3.7086870670318604 -0.1750115156173706
15.691083908081055 -3.607537269592285 -0.17512033879756927
15.710654258728027 -3.508197784423828 -0.17582878470420837
15.687111854553223 -3.3995485305786133 -0.17629806697368622
15.695503234863281 -3.2982006072998047 -0.17639799416065216
15.674418449401855 -3.2249040603637695 -0.17600736021995544
15.687963485717773 -3.1937718391418457 -0.17681343853473663
15.684697151184082 -3.1243736743927 -0.17686089873313904
15.682458877563477 -3.0901060104370117 -0.17676641047000885
15.655694961547852 -3.0163955688476562 -0.17705842852592468
15.670145034790039 -2.9854674339294434 -0.17714834213256836
15.669126510620117 -2.9169423580169678 -0.17578333616256714
15.720876693725586 -1.6462935209274292 -0.17721913754940033
15.739927291870117 -1.5813028812408447 -0.17808793485164642
15.738192558288574 -1.48125159740448 -0.17819836735725403
15.744460105895996 -1.3820433616638184 -0.17816342413425446
15.750971794128418 -1.2828853130340576 -0.17645180225372314
5.643582820892334 5.954798698425293 -0.04957153648138046
5.576054573059082 5.958125591278076 -0.048818476498126984
5.514239311218262 5.966822624206543 -0.048601213842630386
5.450694561004639 5.97296142578125 -0.04800517484545708
4.8811516761779785 6.024557590484619 -0.04320666566491127
4.831744194030762 6.0146331787109375 -0.04229460656642914
4.819705009460449 6.025774002075195 -0.042300745844841
4.781583309173584 6.029438018798828 -0.041725993156433105
4.753846168518066 6.020641803741455 -0.0415823832154274
4.7218546867370605 6.031620979309082 -0.04151996970176697
4.709832191467285 6.04262113571167 -0.041540782898664474
4.687476634979248 6.039941787719727 -0.04110577702522278
4.668163776397705 6.040896892547607 -0.04103944078087807
4.646846771240234 6.039738655090332 -0.04084642231464386
4.630667209625244 6.044818878173828 -0.0408126637339592
4.608392238616943 6.042239665985107 -0.04073434695601463
4.589570999145508 6.043530464172363 -0.04056759923696518
4.566930770874023 6.039896488189697 -0.04035830497741699
4.558778285980225 6.055765628814697 -0.04040725529193878
4.525062084197998 6.037206649780273 -0.04021570459008217
4.515936851501465 6.051156997680664 -0.0399017408490181
4.493607997894287 6.047953128814697 -0.03982767090201378
4.484742641448975 6.0624566078186035 -0.039852168411016464
4.445343494415283 6.062432289123535 -0.03961532562971115
4.422560691833496 6.057682514190674 -0.03917698562145233
4.384120941162109 6.058443546295166 -0.038727402687072754
4.3711419105529785 6.066977024078369 -0.03872808814048767
4.314310073852539 6.068168640136719 -0.03810394927859306
4.268649101257324 6.084582805633545 -0.037703681737184525
4.204051494598389 6.073358535766602 -0.037354085594415665
4.066662788391113 6.091055393218994 -0.03637866675853729
4.049569129943848 6.093395233154297 -0.03634244576096535
4.009695053100586 6.0882649421691895 -0.03587599843740463
4.001532554626465 6.1040120124816895 -0.03580757603049278
3.9695186614990234 6.110546112060547 -0.03541750833392143
3.9428062438964844 6.097692966461182 -0.035293661057949066
3.9275524616241455 6.102045059204102 -0.03527308255434036
3.9135890007019043 6.108166217803955 -0.034816283732652664
3.892951250076294 6.104414939880371 -0.03475065901875496
3.8771445751190186 6.107759475708008 -0.034719549119472504
3.8646621704101562 6.116725921630859 -0.03472812846302986
3.838078022003174 6.102658748626709 -0.034269873052835464
3.8199310302734375 6.102077484130859 -0.03421889245510101
3.8094444274902344 6.114116191864014 -0.03413396328687668
3.7965216636657715 6.121855735778809 -0.034133024513721466
3.7782111167907715 6.120652198791504 -0.03408452868461609
3.7553598880767822 6.11259651184082 -0.03366831690073013
3.743520736694336 6.121987342834473 -0.03378927707672119
3.723872661590576 6.1189727783203125 -0.033725474029779434
3.708375930786133 6.122295379638672 -0.033593058586120605
3.6908531188964844 6.122000694274902 -0.033223412930965424
3.6760809421539307 6.12684440612793 -0.03320946544408798
3.6552886962890625 6.121163368225098 -0.033133722841739655
3.63563871383667 6.117059707641602 -0.03306924179196358
3.6171181201934814 6.115388870239258 -0.032696839421987534
3.6006317138671875 6.116665840148926 -0.03255040943622589
3.587270975112915 6.122998237609863 -0.0325455479323864
3.581389904022217 6.143009662628174 -0.03261571004986763
3.558727741241455 6.133355140686035 -0.03252343460917473
3.5428004264831543 6.135199546813965 -0.03217664361000061
5.623931884765625 6.267252445220947 0.019401036202907562
5.553877830505371 6.268013954162598 0.019803447648882866
4.745874404907227 6.331002712249756 0.022662322968244553
4.716892719268799 6.320222854614258 0.0230700746178627
4.67697811126709 6.322113513946533 0.023000061511993408
4.670114040374756 6.340311527252197 0.023031312972307205
4.62793493270874 6.338780879974365 0.023307565599679947
4.606454849243164 6.336931228637695 0.023389223963022232
4.594837188720703 6.348817825317383 0.02339712157845497
4.563542366027832 6.333812713623047 0.023308318108320236
4.543575763702393 6.3337721824646 0.023629378527402878
4.528468132019043 6.340661525726318 0.023492762818932533
4.508614540100098 6.341252326965332 0.02345999702811241
4.48499870300293 6.3360466957092285 0.023408152163028717
4.471421241760254 6.344744682312012 0.023762350901961327
4.453591346740723 6.347990989685059 0.02373347245156765
4.435796737670898 6.350829124450684 0.02383008413016796
4.4099931716918945 6.341878890991211 0.02376590669155121
4.397670269012451 6.353068828582764 0.024125393480062485
4.36868953704834 6.3392720222473145 0.024039141833782196
4.334975242614746 6.3473968505859375 0.02434326708316803
4.323838233947754 6.3593854904174805 0.024356789886951447
4.28325080871582 6.357105731964111 0.024744398891925812
4.2605977058410645 6.35189151763916 0.024686221033334732
4.2134294509887695 6.367739677429199 0.02499346062541008
4.149984359741211 6.358574867248535 0.024971704930067062
4.00097131729126 6.36102294921875 0.025398792698979378
3.9518473148345947 6.371448993682861 0.025793617591261864
3.893272876739502 6.36666202545166 0.026016071438789368
3.8788034915924072 6.37267541885376 0.026003513485193253
3.8602428436279297 6.372141361236572 0.02608347311615944
3.852785110473633 6.390370845794678 0.026465121656656265
3.8287787437438965 6.380459785461426 0.026394587010145187
3.8102352619171143 6.379753589630127 0.02635255828499794
3.796745777130127 6.387899875640869 0.026354530826210976
3.7796430587768555 6.3895039558410645 0.02678069844841957
3.7571372985839844 6.3816423416137695 0.02671712264418602
3.7463247776031494 6.394253253936768 0.026737947016954422
3.7246320247650146 6.387810707092285 0.026676936075091362
3.707261323928833 6.388449668884277 0.02698298543691635
3.686629295349121 6.384042263031006 0.026934688910841942
3.6766366958618164 6.397589683532715 0.027070261538028717
3.657951831817627 6.39643669128418 0.0269186869263649
3.644169807434082 6.403367519378662 0.027249883860349655
3.6203060150146484 6.392256736755371 0.027172423899173737
3.6060080528259277 6.398616313934326 0.02716546691954136
3.5814590454101562 6.386237144470215 0.02753109112381935
3.5637400150299072 6.385666370391846 0.027497008442878723
3.5506324768066406 6.394004821777344 0.027500174939632416
3.5400381088256836 6.406449317932129 0.02751971036195755
3.5204129219055176 6.402283191680908 0.027799764648079872
3.5032637119293213 6.403456687927246 0.02788810059428215
3.489226818084717 6.409351825714111 0.027881111949682236
3.4672656059265137 6.400605201721191 0.027815433219075203
3.450606107711792 6.402470588684082 0.027786314487457275
18.632478713989258 0.043809544295072556 -0.08317357301712036
18.60601806640625 0.08319798856973648 -0.0830356702208519
18.622472763061523 0.9046257734298706 -0.08598309755325317
18.5755615234375 1.0194370746612549 -0.08580992370843887
18.49542236328125 1.1320030689239502 -0.08570478111505508
18.49338722229004 1.2097762823104858 -0.08741817623376846
18.47484588623047 1.2473697662353516 -0.0873083546757698
18.427976608276367 1.3218927383422852 -0.08710218966007233
18.42447853088379 1.360374927520752 -0.08713998645544052
18.398880004882812 1.4361212253570557 -0.08703631162643433
18.392261505126953 1.4743072986602783 -0.0870286375284195
18.372596740722656 1.511109471321106 -0.08692951500415802
18.368358612060547 1.5502724647521973 -0.0869240015745163
18.35396957397461 1.5874241590499878 -0.08687155693769455
18.333208084106445 1.663443684577942 -0.08652099221944809
18.329540252685547 1.7014687061309814 -0.0865190252661705
18.300704956054688 1.8157343864440918 -0.08670905232429504
18.25204849243164 1.9268543720245361 -0.08732837438583374
18.22256088256836 2.0396547317504883 -0.08726497739553452
18.024333953857422 2.710231304168701 -0.08835730701684952
17.964214324951172 2.8167903423309326 -0.08809038251638412
17.93553924560547 2.92793607711792 -0.08803966641426086
17.905101776123047 3.038649797439575 -0.08879739791154861
17.869417190551758 3.110072612762451 -0.08897508680820465
17.87979507446289 3.1501212120056152 -0.08903880417346954
17.832496643066406 3.2192771434783936 -0.08886834979057312
17.828956604003906 3.2571539878845215 -0.08887419104576111
17.801984786987305 3.290416955947876 -0.08876170217990875
17.794729232788086 3.328106641769409 -0.08876049518585205
17.784629821777344 3.364727020263672 -0.08875390887260437
17.772336959838867 3.4014453887939453 -0.08870746940374374
17.779346466064453 3.4410488605499268 -0.08793603628873825
17.727094650268555 3.469414234161377 -0.08795727789402008
17.739412307739258 3.5108909606933594 -0.08806613087654114
17.71238899230957 3.543754816055298 -0.08795635402202606
17.70471954345703 3.5815718173980713 -0.08795628696680069
17.69134521484375 3.617097854614258 -0.08794873207807541
17.67851448059082 3.692106008529663 -0.0879506766796112
17.651573181152344 3.724724769592285 -0.08784323185682297
17.618886947631836 3.7954013347625732 -0.0877365916967392
17.592002868652344 3.9054951667785645 -0.08854233473539352
17.532896041870117 4.0081915855407715 -0.08836688846349716
17.516117095947266 4.120396614074707 -0.0886697918176651
17.380250930786133 4.553648948669434 -0.08876970410346985
17.334503173828125 4.658312797546387 -0.08869176357984543
17.283926010131836 4.7614240646362305 -0.08858320862054825
17.182008743286133 4.811287879943848 -0.08841785788536072
17.14908218383789 4.84046745300293 -0.08839219063520432
17.090373992919922 4.862503528594971 -0.08819390833377838
17.038131713867188 4.886713027954102 -0.08804431557655334
16.927207946777344 4.89293909072876 -0.0874832421541214
16.807321548461914 4.896390438079834 -0.08689513057470322
16.703773498535156 4.9046711921691895 -0.08642720431089401
16.61530303955078 4.916169166564941 -0.08602073788642883
16.52964210510254 4.928438663482666 -0.0856434628367424
16.44181251525879 4.940236568450928 -0.0844382494688034
16.357637405395508 4.952260971069336 -0.08407744765281677
16.26905632019043 4.963125705718994 -0.0839141383767128
16.175498962402344 4.971299648284912 -0.08347458392381668
16.108383178710938 4.987560749053955 -0.08322452753782272
15.992666244506836 4.988918304443359 -0.08263537287712097
15.928653717041016 5.005244255065918 -0.08242475241422653
15.828198432922363 5.010854721069336 -0.08190262317657471
15.75399398803711 5.0233564376831055 -0.08160705119371414
15.67418384552002 5.0337653160095215 -0.08122402429580688
15.587458610534668 5.042672157287598 -0.08082275837659836
15.496383666992188 5.048755645751953 -0.0818786472082138
15.333412170410156 5.067188262939453 -0.08112354576587677
15.256346702575684 5.076862335205078 -0.08003847301006317
15.112346649169922 5.099734783172607 -0.08015159517526627
15.032787322998047 5.10766077041626 -0.0797695592045784
13.967098236083984 5.208668231964111 -0.07394562661647797
13.760457038879395 5.230377197265625 -0.07302074134349823
13.550106048583984 5.2481489181518555 -0.07341510057449341
13.506653785705566 5.263578414916992 -0.07323857396841049
13.35609245300293 5.269801616668701 -0.07278483361005783
13.312459945678711 5.284538745880127 -0.07261776179075241
13.22877025604248 5.2840576171875 -0.07218977808952332
13.160066604614258 5.288308143615723 -0.0718865618109703
13.099185943603516 5.295443058013916 -0.07163292914628983
13.041065216064453 5.304386615753174 -0.07136698812246323
12.972699165344238 5.307980537414551 -0.07103538513183594
12.911032676696777 5.314293384552002 -0.07079119235277176
12.854475021362305 5.322915077209473 -0.07012316584587097
12.791136741638184 5.327810287475586 -0.06983079016208649
12.734933853149414 5.336352348327637 -0.06960953027009964
12.677295684814453 5.3431549072265625 -0.06934498995542526
12.615884780883789 5.348130226135254 -0.06905418634414673
12.5574312210083 5.355025291442871 -0.06818190217018127
12.497614860534668 5.360196113586426 -0.06812839210033417
12.441850662231445 5.366875171661377 -0.06785592436790466
12.384675979614258 5.37362003326416 -0.06764579564332962
12.32658576965332 5.378838539123535 -0.06738235056400299
12.271761894226074 5.3861517906188965 -0.06717025488615036
12.219358444213867 5.393420696258545 -0.06816136091947556
12.152032852172852 5.393863677978516 -0.06782804429531097
12.10830307006836 5.405444622039795 -0.0676674097776413
12.048238754272461 5.408644199371338 -0.06738989800214767
11.98544692993164 5.4103684425354 -0.06707846373319626
11.927404403686523 5.414868354797363 -0.06683021783828735
11.870455741882324 5.4187541007995605 -0.06654089689254761
11.82213306427002 5.427014350891113 -0.0663413256406784
11.723812103271484 5.441130638122559 -0.06534067541360855
11.568649291992188 5.457771301269531 -0.06467705965042114
11.024850845336914 5.516293048858643 -0.0621664859354496
10.979698181152344 5.522437572479248 -0.06253247708082199
10.89406967163086 5.536977291107178 -0.06240528076887131
10.853414535522461 5.544685363769531 -0.062239497900009155
10.753641128540039 5.550946235656738 -0.06175994873046875
10.700125694274902 5.551473617553711 -0.06149923428893089
10.651824951171875 5.555109977722168 -0.06131056696176529
10.617591857910156 5.565528392791748 -0.06117913872003555
10.572709083557129 5.570001125335693 -0.06099870428442955
10.523694038391113 5.572718143463135 -0.060787346214056015
10.487417221069336 5.581618309020996 -0.06065285578370094
10.429793357849121 5.5787553787231445 -0.05983756482601166
10.405106544494629 5.594170570373535 -0.05957832932472229
10.346956253051758 5.590616703033447 -0.05930040404200554
