VERSION .7
FIELDS x y z
SIZE 4 4 4
TYPE F F F
COUNT 1 1 1
WIDTH 850
HEIGHT 1
VIEWPOINT 0 0 0 1 0 0 0
POINTS 850
DATA ascii
8.82206916809082 7.257702827453613 0.17465585470199585
8.78470230102539 7.258058547973633 0.1742183268070221
8.739202499389648 7.251458168029785 0.17402294278144836
8.706298828125 7.255191802978516 0.17297974228858948
8.65890884399414 7.246623992919922 0.17201638221740723
8.623114585876465 7.2471489906311035 0.17123982310295105
8.580820083618164 7.242514133453369 0.1703793704509735
8.550317764282227 7.2476301193237305 0.16971491277217865
8.514204025268555 7.2479095458984375 0.16897985339164734
8.481758117675781 7.250698089599609 0.16827392578125
8.429386138916016 7.236680030822754 0.16721682250499725
8.409395217895508 7.250357627868652 0.16676464676856995
8.366823196411133 7.24439811706543 0.16590364277362823
8.34145736694336 7.252778053283691 0.16534197330474854
8.303508758544922 7.250566482543945 0.16457563638687134
8.257436752319336 7.241013050079346 0.16360999643802643
8.19157600402832 7.244091987609863 0.162235826253891
8.149246215820312 7.237270355224609 0.16138377785682678
8.076388359069824 7.23321533203125 0.15987783670425415
8.04930305480957 7.239534854888916 0.15929368138313293
7.983676910400391 7.241562366485596 0.1579398810863495
7.950048446655273 7.2411885261535645 0.1569148153066635
7.878157615661621 7.236645221710205 0.15648075938224792
7.816741943359375 7.24116325378418 0.15490707755088806
7.717066764831543 7.239503860473633 0.1528431475162506
7.675945281982422 7.2314019203186035 0.15202900767326355
7.614409446716309 7.233730316162109 0.15076762437820435
7.5800299644470215 7.2315239906311035 0.15004900097846985
7.550966739654541 7.234203338623047 0.14947280287742615
7.525849342346191 7.240151405334473 0.14863568544387817
7.488199234008789 7.234379768371582 0.14785706996917725
7.4606523513793945 7.238176345825195 0.1473156213760376
7.419730186462402 7.228892803192139 0.14647328853607178
7.4042158126831055 7.243788719177246 0.1461658626794815
7.361546993255615 7.232418060302734 0.14529022574424744
7.331971645355225 7.233791351318359 0.14470955729484558
7.296019554138184 7.228675842285156 0.14396962523460388
7.27189826965332 7.234743118286133 0.14349393546581268
7.240764617919922 7.234196662902832 0.142848938703537
7.208133697509766 7.231962203979492 0.14221380650997162
7.177641868591309 7.231788635253906 0.14158087968826294
7.152748107910156 7.237096786499023 0.1410980522632599
7.117523670196533 7.231410503387451 0.1410270482301712
7.097118854522705 7.241142749786377 0.1406366527080536
7.06856632232666 7.242427825927734 0.13975092768669128
7.025761604309082 7.2289886474609375 0.1392095386981964
6.995879173278809 7.228192329406738 0.13829806447029114
6.976693630218506 7.238783836364746 0.13789869844913483
6.9503068923950195 7.241888999938965 0.13738751411437988
6.924495697021484 7.245447158813477 0.13685253262519836
6.881259918212891 7.230186462402344 0.1360093653202057
6.868175506591797 7.24696159362793 0.1357300728559494
6.831895351409912 7.239124298095703 0.13503053784370422
6.778881072998047 7.243408203125 0.13397535681724548
6.747704982757568 7.240569114685059 0.13333353400230408
6.68519401550293 7.233922004699707 0.13181118667125702
6.657892227172852 7.234858512878418 0.13125628232955933
6.605635166168213 7.239020347595215 0.13022714853286743
6.576584815979004 7.237290859222412 0.12967124581336975
6.524367332458496 7.240862846374512 0.12864553928375244
6.469019889831543 7.240522384643555 0.12756432592868805
6.441620349884033 7.240039825439453 0.12731987237930298
6.388973236083984 7.242053508758545 0.12601058185100555
6.362882614135742 7.24319314956665 0.12579669058322906
6.314080238342285 7.248509407043457 0.12456642836332321
6.273472785949707 7.232612609863281 0.12375892698764801
6.260339736938477 7.248223781585693 0.12321586906909943
6.226819038391113 7.239729881286621 0.12285159528255463
6.201203346252441 7.240760326385498 0.12206904590129852
6.173776626586914 7.239508628845215 0.12182886898517609
6.144904136657715 7.236011505126953 0.12097439169883728
6.119287490844727 7.236702919006348 0.12076391279697418
6.108172416687012 7.254459381103516 0.12027157843112946
6.074827671051025 7.245796203613281 0.11933700740337372
6.0516204833984375 7.249038219451904 0.1191788911819458
6.02029275894165 7.242007255554199 0.1182842031121254
6.000675201416016 7.2494354248046875 0.11819884181022644
5.9709577560424805 7.244508743286133 0.11734023690223694
5.945340633392334 7.244004249572754 0.11713231354951859
5.915726184844971 7.239401817321777 0.1162814199924469
5.891170501708984 7.239963531494141 0.11579258739948273
5.870295524597168 7.245447635650635 0.11541476845741272
5.8388824462890625 7.237754821777344 0.11479436606168747
5.808860778808594 7.23119592666626 0.11453083902597427
5.78533411026001 7.233077049255371 0.1137988269329071
5.756412506103516 7.2280426025390625 0.11297067254781723
5.7356696128845215 7.232745170593262 0.11285223811864853
5.705744743347168 7.226239204406738 0.11200215667486191
5.689916133880615 7.237448692321777 0.111994668841362
5.660871505737305 7.231821060180664 0.11115934699773788
5.626489162445068 7.219137668609619 0.11048787832260132
5.609443187713623 7.228153228759766 0.11018399894237518
5.589039325714111 7.233283996582031 0.10951966047286987
5.567309856414795 7.236579895019531 0.10939376801252365
5.541865348815918 7.234521389007568 0.10863400995731354
5.510322570800781 7.2248334884643555 0.10801897943019867
5.494041919708252 7.235004901885986 0.10773269832134247
5.448028564453125 7.237493515014648 0.10687674582004547
5.424418926239014 7.237338066101074 0.10615508258342743
5.367602348327637 7.224734306335449 0.10509014874696732
5.349782943725586 7.232052326202393 0.10474258661270142
5.316135406494141 7.218769073486328 0.10412752628326416
5.301036834716797 7.229640007019043 0.10383986681699753
5.274783134460449 7.225229263305664 0.1033601462841034
5.254775047302246 7.2302045822143555 0.10272449254989624
5.220634937286377 7.214664459228516 0.10234609246253967
5.183955192565918 7.227873802185059 0.10142619907855988
5.166506290435791 7.235200881958008 0.10083679109811783
5.112082481384277 7.223114967346191 0.09982429444789886
5.088129043579102 7.22149658203125 0.09911712259054184
5.071260452270508 7.229814529418945 0.09880085289478302
5.039414882659912 7.216220378875732 0.09821633994579315
5.016388893127441 7.215596675872803 0.09778527915477753
4.989682197570801 7.209496974945068 0.09730216860771179
4.96446418762207 7.2049665451049805 0.09682197868824005
4.940783977508545 7.203042030334473 0.0961228460073471
4.924160003662109 7.211286544799805 0.09584556519985199
4.898490905761719 7.205758094787598 0.09535183012485504
4.881498336791992 7.213859558105469 0.09506955742835999
4.853671073913574 7.204903602600098 0.09454181045293808
4.837192535400391 7.213202953338623 0.09398331493139267
4.8062944412231445 7.199828624725342 0.09367790073156357
4.789776802062988 7.207429885864258 0.09311821311712265
4.765071868896484 7.203591346740723 0.09269145131111145
4.747042655944824 7.208801746368408 0.09234938025474548
4.723353385925293 7.20533561706543 0.09165310859680176
4.7008256912231445 7.204490661621094 0.09151586145162582
4.682918548583984 7.20969295501709 0.09093526750802994
4.656540870666504 7.202264785766602 0.09046649187803268
4.638561725616455 7.207671165466309 0.09013723582029343
4.616690635681152 7.2065043449401855 0.08975745737552643
4.589605331420898 7.197575569152832 0.08899781852960587
4.568572998046875 7.197954177856445 0.0886133536696434
4.544951438903809 7.193689823150635 0.08819840103387833
4.521190643310547 7.1900506019592285 0.08776699751615524
4.496825218200684 7.184343338012695 0.08733585476875305
4.480257034301758 7.191530227661133 0.0867910385131836
4.455325126647949 7.185149192810059 0.08633080869913101
4.437188148498535 7.1891679763793945 0.08602344989776611
4.412576675415039 7.18311882019043 0.08556793630123138
4.39527702331543 7.188825607299805 0.08500975370407104
4.377072334289551 7.192546844482422 0.0849490612745285
4.349919319152832 7.182431697845459 0.08420358598232269
4.331866264343262 7.186237335205078 0.08390229195356369
4.2906694412231445 7.18617057800293 0.08290909230709076
4.274996280670166 7.193795204162598 0.08289515972137451
4.242461204528809 7.173897743225098 0.08205176889896393
4.2337965965271 7.19327449798584 0.08166295289993286
4.209080696105957 7.185349941253662 0.08147266507148743
4.187719821929932 7.184030055999756 0.08084872364997864
4.158344268798828 7.167782783508301 0.08056923747062683
4.138150215148926 7.167200088500977 0.07972806692123413
5.836909294128418 -11.049565315246582 0.1491115391254425
5.856389999389648 -11.029330253601074 0.14941513538360596
5.880412578582764 -11.019303321838379 0.14980417490005493
5.904439926147461 -11.009262084960938 0.15059486031532288
5.928154945373535 -10.997014999389648 0.15136438608169556
5.958515644073486 -10.99863052368164 0.1523248851299286
6.025053977966309 -11.01048469543457 0.15360642969608307
6.045252799987793 -10.993160247802734 0.15349039435386658
6.120389938354492 -11.01962661743164 0.1557551622390747
6.154775619506836 -11.027563095092773 0.15641146898269653
6.76064395904541 -11.000873565673828 0.1713213324546814
6.788960933685303 -10.994939804077148 0.17141547799110413
6.855314254760742 -10.99930477142334 0.1730981469154358
6.883683204650879 -10.993143081665039 0.17401522397994995
6.913535118103027 -10.989344596862793 0.17456470429897308
6.950124740600586 -10.996025085449219 0.1756984293460846
6.982348442077637 -10.99641227722168 0.17635208368301392
7.001964092254639 -10.976202011108398 0.17663276195526123
7.0465288162231445 -10.994889259338379 0.1779731661081314
7.076328277587891 -10.991111755371094 0.1789473295211792
7.100126266479492 -10.977264404296875 0.1789657473564148
7.135379314422607 -10.980951309204102 0.18006911873817444
7.170995712280273 -10.985797882080078 0.18119379878044128
7.25890588760376 -10.968507766723633 0.18326634168624878
7.519800186157227 -10.959217071533203 0.18964126706123352
8.261773109436035 -10.922552108764648 0.20617306232452393
8.368612289428711 -10.92042350769043 0.20836563408374786
8.442317008972168 -10.921030044555664 0.2098914384841919
8.469724655151367 -10.909622192382812 0.2104039192199707
8.53646469116211 -10.900505065917969 0.2117660641670227
8.585165023803711 -10.9159517288208 0.21326400339603424
8.685530662536621 -10.901817321777344 0.2157483994960785
8.76315689086914 -10.904703140258789 0.21739476919174194
8.871920585632324 -10.899009704589844 0.22010840475559235
8.910270690917969 -10.89984130859375 0.22089077532291412
9.008349418640137 -10.878881454467773 0.22334104776382446
9.091979026794434 -10.886856079101562 0.22514846920967102
9.20633602142334 -10.883979797363281 0.22803103923797607
10.056885719299316 -10.832405090332031 0.24673399329185486
10.136021614074707 -10.825849533081055 0.24889251589775085
10.179030418395996 -10.826663970947266 0.24940145015716553
10.261346817016602 -10.822525024414062 0.25077638030052185
10.295297622680664 -10.813301086425781 0.2510625123977661
10.333993911743164 -10.80831527709961 0.25235307216644287
10.379053115844727 -10.809743881225586 0.2529018223285675
10.415886878967285 -10.803142547607422 0.25417017936706543
10.497477531433105 -10.796399116516113 0.2559873163700104
10.54807186126709 -10.803483963012695 0.25756365060806274
10.629383087158203 -10.795434951782227 0.2593802213668823
10.760295867919922 -10.791841506958008 0.26226574182510376
10.885601043701172 -10.781103134155273 0.2651086151599884
12.021369934082031 -10.716748237609863 0.28995460271835327
12.106569290161133 -10.701537132263184 0.2919027805328369
12.157198905944824 -10.701431274414062 0.2925835847854614
12.252523422241211 -10.694095611572266 0.29478949308395386
12.29408073425293 -10.685501098632812 0.29623544216156006
12.351970672607422 -10.690275192260742 0.29614192247390747
12.404926300048828 -10.690467834472656 0.2968769967556
12.451696395874023 -10.685824394226074 0.2984718680381775
12.553258895874023 -10.681510925292969 0.3008345365524292
12.61044692993164 -10.685134887695312 0.30167442560195923
12.701916694641113 -10.671067237854004 0.3037938177585602
12.749606132507324 -10.665454864501953 0.3054141700267792
12.865830421447754 -10.671527862548828 0.3076067864894867
13.015804290771484 -10.658517837524414 0.3116415739059448
14.315892219543457 -10.564289093017578 0.3399394154548645
14.369888305664062 -10.558145523071289 0.34121599793434143
14.481603622436523 -10.546605110168457 0.34390202164649963
14.541563034057617 -10.544160842895508 0.345394492149353
14.594060897827148 -10.535446166992188 0.3461006283760071
14.655126571655273 -10.532621383666992 0.3475332260131836
14.71337604522705 -10.528249740600586 0.348990797996521
14.782115936279297 -10.529762268066406 0.3506060838699341
14.827106475830078 -10.515497207641602 0.35173630714416504
14.897302627563477 -10.518884658813477 0.3533947467803955
15.013500213623047 -10.506460189819336 0.3551725745201111
15.067678451538086 -10.497215270996094 0.35593193769454956
15.196569442749023 -10.49287223815918 0.3590766489505768
15.38178825378418 -10.478575706481934 0.3630223274230957
16.75873374938965 -10.365540504455566 0.3933477997779846
16.98293685913086 -10.356422424316406 0.3982698917388916
17.115346908569336 -10.339288711547852 0.4015843868255615
17.18450164794922 -10.331698417663574 0.4026923179626465
17.263076782226562 -10.330225944519043 0.40467870235443115
17.33517837524414 -10.32390022277832 0.4064505100250244
17.407609939575195 -10.317401885986328 0.4076260030269623
17.48250389099121 -10.312826156616211 0.40952903032302856
17.556880950927734 -10.306208610534668 0.41133952140808105
17.630590438842773 -10.300342559814453 0.4125722348690033
17.708576202392578 -10.295989990234375 0.41454893350601196
17.772350311279297 -10.283014297485352 0.4161285161972046
17.86337661743164 -10.286260604858398 0.4177513122558594
17.93197250366211 -10.275581359863281 0.4201109707355499
18.084413528442383 -10.26269817352295 0.4226807653903961
18.3138427734375 -10.240533828735352 0.42712342739105225
20.312164306640625 -10.050214767456055 0.4702951908111572
20.493064880371094 -10.033327102661133 0.47414106130599976
20.568180084228516 -10.016424179077148 0.4761362075805664
20.75811767578125 -10.000988006591797 0.48021644353866577
20.935760498046875 -9.978984832763672 0.4841049313545227
21.03484535217285 -9.971868515014648 0.4865741431713104
21.128908157348633 -9.962810516357422 0.48827052116394043
21.235485076904297 -9.95850658416748 0.4902578592300415
21.31688690185547 -9.941930770874023 0.4924134910106659
21.61483383178711 -9.91593074798584 0.4985254406929016
21.708126068115234 -9.903495788574219 0.5016549825668335
21.90070152282715 -9.880892753601074 0.5051367282867432
23.927370071411133 -9.6663818359375 0.5480365753173828
24.613252639770508 -9.584379196166992 0.5632871985435486
24.85732650756836 -9.559061050415039 0.5688203573226929
24.9743709564209 -9.544628143310547 0.5710437297821045
25.341922760009766 -9.502948760986328 0.5764113664627075
25.462894439697266 -9.487252235412598 0.5787276029586792
25.592741012573242 -9.474258422851562 0.5812095403671265
25.71999740600586 -9.460726737976074 0.5844559669494629
26.099424362182617 -9.413592338562012 0.5926032066345215
26.359203338623047 -9.38288402557373 0.598414421081543
26.75720977783203 -9.334587097167969 0.6069982051849365
27.151962280273438 -9.281250953674316 0.6154557466506958
29.706621170043945 -8.916423797607422 0.6680221557617188
29.790925979614258 -8.873339653015137 0.6695841550827026
29.955341339111328 -8.78514575958252 0.6736307144165039
30.012598037719727 -8.73434066772461 0.6745383739471436
30.081130981445312 -8.481161117553711 0.6754134893417358
30.103179931640625 -8.4189453125 0.6765021681785583
30.131887435913086 -8.359593391418457 0.6767669916152954
30.131479263305664 -8.29019832611084 0.6763491630554199
30.159835815429688 -8.230713844299316 0.6766256093978882
30.170955657958984 -8.165569305419922 0.6773998737335205
30.20144271850586 -8.038410186767578 0.6734879016876221
23.007740020751953 -5.0492095947265625 0.5108828544616699
30.76715660095215 -6.549621105194092 0.6800159215927124
22.182653427124023 -4.575841903686523 0.4891916513442993
22.12860870361328 -4.468358993530273 0.4881938099861145
22.22919464111328 -4.439934730529785 0.4901897609233856
22.47856903076172 -4.392133712768555 0.49601873755455017
22.581588745117188 -4.362875461578369 0.4980444312095642
22.660083770751953 -4.328603744506836 0.4995223879814148
22.90287971496582 -4.324976921081543 0.5047231912612915
22.983081817626953 -4.290752410888672 0.5064244270324707
23.188827514648438 -4.278689384460449 0.5106686353683472
23.205196380615234 -4.2311601638793945 0.5108180642127991
23.126665115356445 -4.166582107543945 0.5088062286376953
23.263620376586914 -4.090885162353516 0.511809229850769
22.401912689208984 -3.8907697200775146 0.4924134314060211
22.37566566467285 -3.7414565086364746 0.49194106459617615
25.34957504272461 -3.422071933746338 0.550990104675293
25.33667755126953 -3.258281707763672 0.5509892106056213
25.773252487182617 -3.2041473388671875 0.5602007508277893
26.00848388671875 -3.1777548789978027 0.5653232336044312
30.873828887939453 -3.6413278579711914 0.6711467504501343
30.874034881591797 -3.575413227081299 0.6709944009780884
30.861082077026367 -3.4432568550109863 0.6713647246360779
30.86349105834961 -3.3777036666870117 0.6685518622398376
30.853836059570312 -3.310953140258789 0.668187141418457
30.84554672241211 -3.244339942932129 0.6678637266159058
30.835142135620117 -3.178562879562378 0.6674935817718506
30.832916259765625 -3.1127705574035645 0.6672871708869934
30.839601516723633 -3.0478196144104004 0.6673021912574768
30.804832458496094 -2.978936195373535 0.6664072275161743
30.817031860351562 -2.850080728530884 0.6664121150970459
30.81816864013672 -2.784787893295288 0.6663023233413696
30.813270568847656 -2.6544747352600098 0.6659406423568726
30.794647216796875 -2.5875961780548096 0.6654353141784668
30.787967681884766 -2.456503391265869 0.6650550365447998
30.747535705566406 -1.2871766090393066 0.6599405407905579
30.760337829589844 -1.0940426588058472 0.6600261330604553
30.737974166870117 -1.0284061431884766 0.6595227718353271
30.73560905456543 -0.899736762046814 0.6593775749206543
30.71091651916504 -0.8342545628547668 0.6588099002838135
30.698719024658203 -0.7692761421203613 0.6585208177566528
30.692508697509766 -0.6397933959960938 0.658338189125061
30.645307540893555 -0.5751895904541016 0.657299816608429
30.64221954345703 -0.5105492472648621 0.6562391519546509
30.639116287231445 -0.44600313901901245 0.6552559733390808
30.648330688476562 -0.31794148683547974 0.6564789414405823
30.647823333740234 -0.25343337655067444 0.6564594507217407
30.61117935180664 -0.12420769035816193 0.655630886554718
30.61263656616211 -0.060685500502586365 0.6556490063667297
37.15534210205078 0.002360881771892309 1.1008825302124023
37.145233154296875 0.08053041994571686 1.1006064414978027
37.10999298095703 0.15864181518554688 1.0973355770111084
37.08344268798828 0.2365722358226776 1.0965793132781982
37.025428771972656 0.3130413293838501 1.0948834419250488
37.06746292114258 0.3915005922317505 1.0961644649505615
37.09297561645508 0.46984320878982544 1.0969688892364502
36.941043853759766 1.0882556438446045 1.0917339324951172
36.62334442138672 2.234772205352783 1.080505132675171
36.60242462158203 2.4645495414733887 1.0815863609313965
36.56214904785156 2.6165590286254883 1.078566074371338
36.54500198364258 2.6915695667266846 1.0770649909973145
36.5280647277832 2.845041513442993 1.0768992900848389
36.51515197753906 2.921450614929199 1.0767017602920532
36.463958740234375 3.0707898139953613 1.075561761856079
36.45008850097656 3.146979331970215 1.0753426551818848
36.44829559326172 3.2241148948669434 1.0732524394989014
36.41587448120117 3.2974226474761963 1.0724825859069824
36.41056442260742 3.374302387237549 1.0725255012512207
36.392372131347656 3.4498748779296875 1.0721986293792725
36.35871887207031 3.523995876312256 1.0714287757873535
36.34427261352539 3.5998144149780273 1.0712225437164307
36.34742736816406 3.6763107776641846 1.0704686641693115
36.35198211669922 3.754164934158325 1.0708296298980713
36.31108093261719 3.8271875381469727 1.0686919689178467
36.31810760498047 3.904148817062378 1.069145917892456
36.32579040527344 3.983490467071533 1.0696091651916504
36.25958251953125 4.052397727966309 1.0679097175598145
36.199520111083984 4.200113773345947 1.0656027793884277
35.58891296386719 5.269742965698242 1.048734188079834
35.46865463256836 5.480018138885498 1.0440077781677246
35.44657516479492 5.551944732666016 1.0437004566192627
35.37083435058594 5.6927995681762695 1.0421624183654785
35.31922912597656 5.760865211486816 1.0399370193481445
35.28684997558594 5.831845283508301 1.038213849067688
35.24289321899414 5.899739742279053 1.0372755527496338
35.211151123046875 5.970721244812012 1.0378345251083374
35.1793212890625 6.041513919830322 1.0362317562103271
35.126319885253906 6.107481479644775 1.0350499153137207
35.07769012451172 6.175195693969727 1.0339903831481934
35.05491638183594 6.247272491455078 1.0325655937194824
35.014713287353516 6.316253662109375 1.030750036239624
34.982391357421875 6.386466979980469 1.030184030532837
34.924720764160156 6.450858116149902 1.0288774967193604
34.898284912109375 6.522042751312256 1.0285099744796753
34.85010528564453 6.588971138000488 1.0263595581054688
34.84101867675781 6.662169456481934 1.0254600048065186
34.773460388183594 6.726283073425293 1.0238885879516602
34.73667526245117 6.793980598449707 1.0232155323028564
34.660011291503906 6.9306640625 1.0206818580627441
34.636016845703125 7.00064754486084 1.019369125366211
34.56497573852539 7.137933731079102 1.0181469917297363
34.45745086669922 7.341883659362793 1.0141706466674805
33.72639083862305 7.85600471496582 0.991626501083374
32.857444763183594 7.871692180633545 0.9654289484024048
31.996723175048828 7.878506660461426 0.9405205249786377
31.46377944946289 7.887969970703125 0.9248591065406799
31.211158752441406 7.8935136795043945 0.917912483215332
30.685514450073242 7.898219108581543 0.9014635682106018
30.44159698486328 7.902830600738525 0.8947817087173462
30.20162010192871 7.908496856689453 0.8882120847702026
29.952848434448242 7.910741806030273 0.8813890218734741
29.71994400024414 7.915243148803711 0.8731310367584229
29.474781036376953 7.917418479919434 0.8664182424545288
29.251035690307617 7.922436237335205 0.8603233098983765
29.005250930786133 7.921505451202393 0.8527193069458008
28.801334381103516 7.9309797286987305 0.8462508916854858
28.561397552490234 7.928709506988525 0.8362356424331665
28.34450912475586 7.933755874633789 0.8303853273391724
28.124067306518555 7.935025215148926 0.8234715461730957
27.91897964477539 7.939745903015137 0.8179537057876587
27.703048706054688 7.94234561920166 0.8112676739692688
27.48777198791504 7.942395210266113 0.8054479360580444
27.07958221435547 7.948166847229004 0.7927374243736267
26.855785369873047 7.943049430847168 0.7866634130477905
26.46786117553711 7.949684143066406 0.7753846645355225
25.890043258666992 7.953917503356934 0.759109616279602
25.33722686767578 7.958741188049316 0.7427307367324829
24.80715560913086 7.965590476989746 0.7270787954330444
24.287506103515625 7.967503547668457 0.7117318511009216
23.790693283081055 7.970527648925781 0.6963639259338379
23.463314056396484 7.970907688140869 0.6869666576385498
23.285900115966797 7.96457576751709 0.682248592376709
22.968353271484375 7.964164733886719 0.6724432110786438
22.81079864501953 7.9626007080078125 0.6683074235916138
22.506126403808594 7.962738037109375 0.6589024066925049
22.351762771606445 7.960352897644043 0.6548610925674438
22.199615478515625 7.9596452713012695 0.65020751953125
22.053150177001953 7.958817958831787 0.6464012861251831
21.90597152709961 7.9571213722229 0.641822099685669
21.76431655883789 7.958334445953369 0.6374999284744263
21.630733489990234 7.960418701171875 0.6340582370758057
21.472606658935547 7.954349040985107 0.6291855573654175
21.34817886352539 7.958675861358643 0.6253625154495239
21.206308364868164 7.9559478759765625 0.6216922998428345
21.076082229614258 7.958492279052734 0.6176523566246033
20.930580139160156 7.953217506408691 0.6138704419136047
20.81295394897461 7.9579877853393555 0.6102486848831177
20.66510772705078 7.952099323272705 0.6057069301605225
20.55181121826172 7.957505226135254 0.6021558046340942
20.288040161132812 7.953787326812744 0.5934387445449829
20.15325927734375 7.949236869812012 0.5899773836135864
19.899471282958984 7.946137428283691 0.5822173357009888
19.54295539855957 7.946585178375244 0.5726287364959717
19.1788330078125 7.939393043518066 0.5621358752250671
18.820030212402344 7.930455207824707 0.55182945728302
18.257841110229492 7.920275688171387 0.5353192090988159
18.148956298828125 7.918525695800781 0.53261399269104
17.939714431762695 7.916644096374512 0.5262453556060791
17.832305908203125 7.914181232452393 0.5235797762870789
17.604671478271484 7.902066707611084 0.5143959522247314
17.520648956298828 7.908076763153076 0.5124144554138184
17.305713653564453 7.898961067199707 0.5059316158294678
17.197620391845703 7.892787933349609 0.5032508373260498
17.100666046142578 7.8925604820251465 0.5003593564033508
17.00600814819336 7.891722679138184 0.4974631369113922
16.921772003173828 7.895947456359863 0.49548423290252686
16.812347412109375 7.888072967529297 0.49222972989082336
16.71490478515625 7.884716987609863 0.48926272988319397
16.621410369873047 7.883414268493652 0.4864763617515564
16.533069610595703 7.884234428405762 0.48378878831863403
16.426258087158203 7.875179767608643 0.48113757371902466
16.349363327026367 7.881312370300293 0.4788512587547302
16.255956649780273 7.877901077270508 0.4760061800479889
16.16253662109375 7.874665260314941 0.4737577736377716
16.058429718017578 7.865858554840088 0.4706740379333496
15.973371505737305 7.86533784866333 0.4680859446525574
15.89779281616211 7.86972713470459 0.46583569049835205
15.80537223815918 7.865488529205322 0.4636191129684448
15.720590591430664 7.86404275894165 0.46104246377944946
15.544967651367188 7.858211517333984 0.4557933807373047
15.454867362976074 7.853536605834961 0.4541941285133362
15.304729461669922 7.8579559326171875 0.4481983184814453
15.052896499633789 7.849177360534668 0.441230446100235
14.80875015258789 7.840670585632324 0.43399685621261597
14.437614440917969 7.839315891265869 0.4234984219074249
14.206324577331543 7.829768180847168 0.4166417121887207
14.140264511108398 7.8322553634643555 0.4151861369609833
13.97590446472168 7.818312168121338 0.4103544354438782
13.874218940734863 7.799273490905762 0.4078439772129059
13.740224838256836 7.8002824783325195 0.40390777587890625
13.650303840637207 7.7867350578308105 0.401278555393219
13.588712692260742 7.790122985839844 0.39995771646499634
13.521852493286133 7.789119243621826 0.3980180621147156
13.448530197143555 7.784616470336914 0.3953905701637268
13.371695518493652 7.777806282043457 0.39361247420310974
13.321344375610352 7.785560607910156 0.3921568989753723
13.224737167358398 7.766477584838867 0.38930046558380127
13.162551879882812 7.767307281494141 0.38795286417007446
13.100425720214844 7.767343521118164 0.3856660723686218
13.02725601196289 7.7610554695129395 0.38398709893226624
12.946535110473633 7.749978065490723 0.38164734840393066
12.886962890625 7.751195430755615 0.37988126277923584
12.805635452270508 7.73907470703125 0.37753504514694214
12.741534233093262 7.736478805541992 0.3756353557109833
12.67643928527832 7.733506202697754 0.374195396900177
12.618032455444336 7.734409332275391 0.37252339720726013
12.56085205078125 7.735265731811523 0.37082958221435547
12.489288330078125 7.727485656738281 0.3687712252140045
12.424787521362305 7.723833084106445 0.3668749928474426
12.371393203735352 7.726776123046875 0.3653549551963806
12.312238693237305 7.725945472717285 0.3636205196380615
12.255529403686523 7.72585391998291 0.3624145984649658
12.196393013000488 7.724481582641602 0.3607288599014282
12.083094596862793 7.724215030670166 0.3574635982513428
11.918770790100098 7.72514533996582 0.35362011194229126
11.75772476196289 7.726162433624268 0.3494151830673218
11.646505355834961 7.723502159118652 0.34622037410736084
11.485088348388672 7.720848560333252 0.3420148491859436
11.33318042755127 7.722614288330078 0.337255597114563
11.284982681274414 7.724647045135498 0.33630645275115967
11.172767639160156 7.717136383056641 0.33309656381607056
11.133811950683594 7.724405288696289 0.3319774568080902
11.079564094543457 7.721351146697998 0.33045220375061035
11.027243614196777 7.719465732574463 0.32937633991241455
10.98607063293457 7.725135803222656 0.32781094312667847
10.920914649963379 7.713767051696777 0.3263503313064575
10.878524780273438 7.717713356018066 0.32474932074546814
10.828227996826172 7.716329574584961 0.3237307071685791
10.779296875 7.715764999389648 0.3232271671295166
10.72850227355957 7.713127613067627 0.3221386969089508
10.686667442321777 7.7172088623046875 0.3209892213344574
10.632328033447266 7.7121124267578125 0.31941911578178406
10.583833694458008 7.710506439208984 0.31806623935699463
10.527647018432617 7.703531265258789 0.3164415955543518
10.499588966369629 7.717029571533203 0.3157098889350891
10.45423698425293 7.717625617980957 0.3144141435623169
10.411994934082031 7.720396041870117 0.31326013803482056
10.357318878173828 7.713216781616211 0.31167900562286377
10.318947792053223 7.718445301055908 0.31064125895500183
10.264961242675781 7.711853981018066 0.30908989906311035
10.226264953613281 7.716033935546875 0.30803799629211426
10.173773765563965 7.710071086883545 0.30694541335105896
10.135562896728516 7.714796543121338 0.3055030107498169
10.087425231933594 7.711728096008301 0.30454009771347046
10.045003890991211 7.712894916534424 0.30297768115997314
9.993783950805664 7.706585884094238 0.30191242694854736
9.960411071777344 7.714322090148926 0.30062443017959595
9.868426322937012 7.7097883224487305 0.29806119203567505
9.741121292114258 7.709433555603027 0.2949167490005493
9.616701126098633 7.709781646728516 0.29230043292045593
9.529321670532227 7.705879211425781 0.28988009691238403
9.40223503112793 7.701371192932129 0.28599652647972107
9.283881187438965 7.702455520629883 0.28312748670578003
9.245311737060547 7.7034101486206055 0.28171077370643616
9.20102310180664 7.699364185333252 0.2808545231819153
9.151266098022461 7.69057559967041 0.2791002690792084
9.111053466796875 7.6890974044799805 0.278359591960907
9.074422836303711 7.6909332275390625 0.27700772881507874
9.032957077026367 7.6885576248168945 0.2762361466884613
8.987895965576172 7.682872772216797 0.27462995052337646
8.946342468261719 7.679540634155273 0.2738463282585144
8.904058456420898 7.675894737243652 0.2723287343978882
8.878057479858398 7.686101913452148 0.2720274329185486
8.83395767211914 7.680552005767822 0.2704567313194275
8.801369667053223 7.684348106384277 0.26994672417640686
8.757684707641602 7.678739547729492 0.2683907747268677
8.7185640335083 7.676998138427734 0.26843661069869995
8.685304641723633 7.6802144050598145 0.26686781644821167
8.655828475952148 7.686216354370117 0.26645171642303467
8.599627494812012 7.6687846183776855 0.2645148038864136
8.569357872009277 7.674220085144043 0.26407912373542786
8.518771171569824 7.661329746246338 0.2623181641101837
8.49432373046875 7.67128849029541 0.2620548605918884
8.4510498046875 7.664550304412842 0.26052024960517883
8.418127059936523 7.667087554931641 0.2600032091140747
8.370551109313965 7.656039237976074 0.2583390474319458
8.34860610961914 7.667845249176025 0.25815171003341675
8.302720069885254 7.658022403717041 0.25654157996177673
8.266414642333984 7.6567864418029785 0.25591588020324707
8.230116844177246 7.655455589294434 0.2546059489250183
8.186422348022461 7.647000789642334 0.25342851877212524
8.154764175415039 7.649178504943848 0.2525784373283386
8.087743759155273 7.650597095489502 0.25081729888916016
7.986789703369141 7.650809288024902 0.24818113446235657
7.877438068389893 7.641600608825684 0.24524635076522827
7.809758186340332 7.640049457550049 0.24386388063430786
7.784064769744873 7.646590709686279 0.24324330687522888
7.716292381286621 7.644136428833008 0.2414674460887909
7.608467102050781 7.632687568664551 0.23858509957790375
7.535430908203125 7.623361110687256 0.2366439700126648
7.515073776245117 7.634389400482178 0.2358458936214447
7.478642463684082 7.629477024078369 0.23490211367607117
7.450145244598389 7.632460594177246 0.2341640591621399
7.411067008972168 7.624507427215576 0.23313800990581512
7.3808183670043945 7.625420570373535 0.23234519362449646
7.340057373046875 7.614867210388184 0.23125484585762024
7.329975128173828 7.636552810668945 0.23110195994377136
7.275688171386719 7.611987113952637 0.22959205508232117
7.2535881996154785 7.620956897735596 0.2290620505809784
7.2148590087890625 7.611834526062012 0.22769565880298615
7.1854567527771 7.612829208374023 0.22727183997631073
7.159551620483398 7.617481231689453 0.2263207733631134
7.142746925354004 7.631712913513184 0.22629791498184204
7.091012954711914 7.6080217361450195 0.22452375292778015
7.067544937133789 7.614956855773926 0.2246621549129486
7.033919334411621 7.610776901245117 0.22376489639282227
7.0155439376831055 7.623064041137695 0.22339320182800293
6.970799446105957 7.606060981750488 0.2221367061138153
6.945638656616211 7.610692024230957 0.22155113518238068
6.911956787109375 7.605916976928711 0.22065284848213196
6.8833537101745605 7.606095790863037 0.21961885690689087
6.852463245391846 7.604056358337402 0.2191404402256012
6.824376583099365 7.605057239532471 0.21813367307186127
6.797220230102539 7.606930255889893 0.21748390793800354
6.770831108093262 7.609119415283203 0.21681354939937592
6.734127521514893 7.600065231323242 0.21585947275161743
6.719449520111084 7.615719318389893 0.215572327375412
6.657468318939209 7.609831809997559 0.21399295330047607
6.621655464172363 7.600666522979736 0.21273300051689148
6.561566352844238 7.596047878265381 0.2112158238887787
6.48149299621582 7.599404335021973 0.208951935172081
6.417391777038574 7.5887451171875 0.2073100209236145
6.402219772338867 7.602746486663818 0.20732934772968292
6.340091705322266 7.593647003173828 0.2057807296514511
6.269947052001953 7.6063232421875 0.20413382351398468
6.207889080047607 7.595991134643555 0.20227506756782532
6.184035301208496 7.59893274307251 0.2020101398229599
6.1535444259643555 7.594101905822754 0.20094069838523865
6.121364593505859 7.586965084075928 0.20009247958660126
6.100715637207031 7.593564033508301 0.19965457916259766
6.059421539306641 7.575252056121826 0.1985161006450653
6.048399448394775 7.593724250793457 0.19839346408843994
6.017108917236328 7.587197303771973 0.19730083644390106
5.9966349601745605 7.594141960144043 0.19683703780174255
5.965407848358154 7.586915016174316 0.19605395197868347
5.944203853607178 7.592827320098877 0.19556903839111328
5.912051200866699 7.584578037261963 0.19476088881492615
5.890468120574951 7.589824676513672 0.19426271319389343
5.852450370788574 7.573233604431152 0.193253755569458
5.8376970291137695 7.587080001831055 0.1927081048488617
5.808704853057861 7.582411766052246 0.19196896255016327
5.781904220581055 7.580410003662109 0.19133731722831726
5.754091262817383 7.576498985290527 0.19062793254852295
5.733071327209473 7.581944465637207 0.19018688797950745
5.706049919128418 7.579302787780762 0.1895463913679123
5.6737284660339355 7.569007873535156 0.18868769705295563
5.646867275238037 7.566348552703857 0.18805506825447083
5.627554893493652 7.573661804199219 0.18763703107833862
5.600214004516602 7.5701398849487305 0.1866791993379593
5.568120002746582 7.559971809387207 0.18586739897727966
5.545416831970215 7.561960697174072 0.18533286452293396
5.533888339996338 7.579687118530273 0.1852118968963623
5.502852439880371 7.570570945739746 0.18439936637878418
5.47601318359375 7.566612243652344 0.1834629476070404
5.445581436157227 7.558507442474365 0.18271049857139587
5.434686660766602 7.576486110687256 0.18257147073745728
5.399446487426758 7.5604352951049805 0.1816488355398178
5.376855850219727 7.562912464141846 0.18112878501415253
5.356247425079346 7.5671281814575195 0.18040090799331665
5.298919200897217 7.553393363952637 0.17897316813468933
5.279627799987793 7.559211730957031 0.17858439683914185
5.2260284423828125 7.550004005432129 0.17698757350444794
5.187984466552734 7.5629048347473145 0.17621812224388123
5.153240203857422 7.545778274536133 0.17556679248809814
5.108763694763184 7.548718452453613 0.17405495047569275
5.091314315795898 7.556671142578125 0.1737051010131836
5.043302536010742 7.553867816925049 0.17259088158607483
5.005346298217773 7.531339645385742 0.1712825894355774
4.991894721984863 7.545488357543945 0.17110486328601837
4.964225769042969 7.53761100769043 0.170403391122818
4.933847427368164 7.525967597961426 0.1693556308746338
4.912481307983398 7.52786922454834 0.1691649705171585
4.8959856033325195 7.536718368530273 0.16858504712581635
4.864484786987305 7.523359298706055 0.1680532693862915
4.850764751434326 7.5363945960998535 0.16757643222808838
4.821986198425293 7.525953769683838 0.1665734350681305
4.802094459533691 7.530272960662842 0.16643962264060974
4.77318811416626 7.519318580627441 0.16543447971343994
4.75281286239624 7.522211074829102 0.16527587175369263
4.735838890075684 7.530385971069336 0.16469532251358032
4.7065019607543945 7.518312454223633 0.1636740118265152
4.679840087890625 7.510872840881348 0.16329866647720337
4.664900779724121 7.52210807800293 0.16278782486915588
4.635588645935059 7.510136127471924 0.1620323359966278
4.615436553955078 7.512804985046387 0.16162684559822083
4.593769073486328 7.512445449829102 0.16112932562828064
4.582292556762695 7.529284954071045 0.16103044152259827
4.544740676879883 7.50308084487915 0.1597340852022171
4.534327507019043 7.5210676193237305 0.15966171026229858
4.501911640167236 7.503014087677002 0.15878641605377197
4.486075401306152 7.512401580810547 0.15825560688972473
4.460643291473389 7.505151748657227 0.15791107714176178
4.441588401794434 7.509571075439453 0.15726636350154877
4.420350074768066 7.509181976318359 0.1565362811088562
4.3972086906433105 7.506011009216309 0.15627440810203552
4.370964527130127 7.4973344802856445 0.1553761065006256
4.3441009521484375 7.486920356750488 0.1549708992242813
4.332523345947266 7.503849983215332 0.15460063517093658
4.307720184326172 7.4967756271362305 0.1539926379919052
4.275141716003418 7.475949287414551 0.15313217043876648
4.268592834472656 7.501641273498535 0.15294508635997772
4.24507999420166 7.496466636657715 0.15237975120544434
4.227377891540527 7.501469135284424 0.15205904841423035
4.1945295333862305 7.480496406555176 0.15117090940475464
4.185366153717041 7.500598907470703 0.15115463733673096
4.137655258178711 7.489044666290283 0.14977231621742249
4.112712860107422 7.480531692504883 0.1491876244544983
4.102904319763184 7.5005998611450195 0.14913499355316162
4.075224876403809 7.486858367919922 0.14817017316818237
4.02986478805542 7.47835636138916 0.14690518379211426
6.229928016662598 -10.999155044555664 0.2619708180427551
6.264568328857422 -11.00698471069336 0.26323848962783813
6.296864032745361 -11.010515213012695 0.26400232315063477
6.328132629394531 -11.01054573059082 0.2651023268699646
6.345841407775879 -10.988510131835938 0.26566043496131897
6.38623046875 -11.005648612976074 0.2663954496383667
6.418557167053223 -11.007124900817871 0.2675407826900482
6.450940132141113 -11.010089874267578 0.2687244415283203
6.50260066986084 -10.991866111755371 0.2692647874355316
6.537478446960449 -10.998676300048828 0.27054479718208313
6.595644950866699 -10.990884780883789 0.27223026752471924
6.690956115722656 -10.992486000061035 0.2752525508403778
7.066251754760742 -10.976238250732422 0.2859710454940796
7.157711029052734 -10.966217041015625 0.2880507707595825
7.254830360412598 -10.9638032913208 0.2907441258430481
7.3466596603393555 -10.952337265014648 0.29326578974723816
7.388507843017578 -10.964705467224121 0.2943934500217438
7.415304183959961 -10.954666137695312 0.29535555839538574
7.445253372192383 -10.94913101196289 0.29604625701904297
7.477405071258545 -10.947487831115723 0.29680749773979187
7.520020484924316 -10.960294723510742 0.29839473962783813
7.542797088623047 -10.943981170654297 0.29877567291259766
7.584770202636719 -10.956151962280273 0.2999562621116638
7.608541488647461 -10.941228866577148 0.3007996082305908
7.641386985778809 -10.939205169677734 0.30157554149627686
7.680862903594971 -10.947256088256836 0.30266255140304565
7.746908187866211 -10.943077087402344 0.3046515882015228
7.775829792022705 -10.935070991516113 0.3057032823562622
7.852402687072754 -10.945531845092773 0.3077383041381836
7.9484686851501465 -10.932992935180664 0.3104420304298401
8.047755241394043 -10.924497604370117 0.312408983707428
8.77896785736084 -10.878786087036133 0.3337683081626892
8.898780822753906 -10.885786056518555 0.33564141392707825
8.925220489501953 -10.87200927734375 0.3366524577140808
9.000333786010742 -10.869839668273926 0.33861786127090454
9.048973083496094 -10.882528305053711 0.34045565128326416
9.123929977416992 -10.879148483276367 0.3424282670021057
9.150167465209961 -10.864562034606934 0.3429689407348633
9.199286460876465 -10.87635612487793 0.34481537342071533
9.229988098144531 -10.866128921508789 0.34556734561920166
9.277416229248047 -10.876142501831055 0.346915066242218
9.350017547607422 -10.868217468261719 0.3487863838672638
9.379988670349121 -10.857400894165039 0.34995007514953613
9.45510482788086 -10.851629257202148 0.3519214391708374
9.57301139831543 -10.848491668701172 0.35552698373794556
9.690896987915039 -10.843277931213379 0.35867929458618164
10.67158031463623 -10.79339599609375 0.38584041595458984
10.715789794921875 -10.793220520019531 0.38713890314102173
10.804244041442871 -10.791037559509277 0.3882412314414978
10.842297554016113 -10.784192085266113 0.38923612236976624
10.883049011230469 -10.77927017211914 0.39083021879196167
10.926633834838867 -10.77691650390625 0.39157265424728394
10.972879409790039 -10.777698516845703 0.39336496591567993
11.0111083984375 -10.76913070678711 0.39392098784446716
11.057686805725098 -10.769878387451172 0.39571791887283325
11.097013473510742 -10.763399124145508 0.39678579568862915
11.188838005065918 -10.761382102966309 0.3993854522705078
11.240686416625977 -10.766435623168945 0.40094637870788574
11.32904052734375 -10.759946823120117 0.403433620929718
11.456109046936035 -10.74445629119873 0.4069563150405884
11.591461181640625 -10.734611511230469 0.4112730622291565
12.597333908081055 -10.674722671508789 0.43843406438827515
12.74770736694336 -10.66448974609375 0.4428284168243408
12.790067672729492 -10.654887199401855 0.4440516233444214
12.909733772277832 -10.662799835205078 0.4471226930618286
12.954763412475586 -10.654848098754883 0.4489593803882599
12.99930191040039 -10.645702362060547 0.4497188627719879
13.05374526977539 -10.6444091796875 0.4503779411315918
13.105888366699219 -10.6417236328125 0.4519186019897461
13.15652084350586 -10.636280059814453 0.45286694169044495
13.20507526397705 -10.63029670715332 0.45482778549194336
13.266532897949219 -10.634475708007812 0.4561881422996521
13.361711502075195 -10.618650436401367 0.45894449949264526
13.528444290161133 -10.613080978393555 0.4639154076576233
13.696210861206055 -10.6056489944458 0.4689904451370239
14.710929870605469 -10.527215957641602 0.49749088287353516
14.890857696533203 -10.515052795410156 0.5024305582046509
15.076065063476562 -10.503703117370605 0.5081533789634705
15.198690414428711 -10.495061874389648 0.5113523006439209
15.256208419799805 -10.487366676330566 0.5136646032333374
15.392641067504883 -10.486696243286133 0.5167813301086426
15.453174591064453 -10.48032283782959 0.5192111134529114
15.508078575134277 -10.4706392288208 0.5203217267990112
15.58404541015625 -10.473533630371094 0.5232585668563843
15.636762619018555 -10.461921691894531 0.5243014097213745
15.704631805419922 -10.460216522216797 0.5263873338699341
15.836902618408203 -10.452301025390625 0.5294040441513062
15.961063385009766 -10.43801498413086 0.533241868019104
16.032014846801758 -10.436323165893555 0.5348765850067139
16.232120513916016 -10.421887397766113 0.5405363440513611
17.69873046875 -10.291709899902344 0.5824726223945618
17.934524536132812 -10.277732849121094 0.5893471240997314
18.088947296142578 -10.266040802001953 0.5942670106887817
18.153457641601562 -10.2521333694458 0.5956826210021973
18.312366485595703 -10.241175651550293 0.6007627248764038
18.402103424072266 -10.240509986877441 0.6030054092407227
18.5570011138916 -10.224594116210938 0.6079597473144531
18.638797760009766 -10.21929931640625 0.609937310218811
18.71725082397461 -10.211153030395508 0.6124194264411926
18.79802703857422 -10.203871726989746 0.6143575310707092
18.882095336914062 -10.198833465576172 0.6171102523803711
19.049816131591797 -10.186028480529785 0.6218166351318359
19.119874954223633 -10.171815872192383 0.6240870356559753
19.29674530029297 -10.162586212158203 0.6284089684486389
21.251506805419922 -9.966768264770508 0.6849356889724731
21.434619903564453 -9.94357681274414 0.6894131898880005
21.534488677978516 -9.934810638427734 0.6920233368873596
21.71646499633789 -9.90890121459961 0.6972329616546631
21.823223114013672 -9.902100563049316 0.6999648809432983
22.02718734741211 -9.88299560546875 0.7066516876220703
22.127357482910156 -9.87282943725586 0.7092081308364868
22.222610473632812 -9.859315872192383 0.7115811109542847
22.431533813476562 -9.839923858642578 0.7184411287307739
22.633785247802734 -9.815191268920898 0.7242879867553711
22.73826789855957 -9.803714752197266 0.7269787788391113
22.944725036621094 -9.779123306274414 0.7330597639083862
23.043691635131836 -9.764063835144043 0.7362998723983765
23.252059936523438 -9.737839698791504 0.7424589395523071
23.581058502197266 -9.70103931427002 0.751744270324707
25.699800491333008 -9.45423698425293 0.8114588260650635
26.606037139892578 -9.346512794494629 0.8390747308731079
26.741870880126953 -9.33106803894043 0.8427404761314392
26.864707946777344 -9.310467720031738 0.8441603183746338
27.01308822631836 -9.2982759475708 0.8474805951118469
27.133769989013672 -9.275906562805176 0.8506672382354736
27.266399383544922 -9.258094787597656 0.855040967464447
27.418386459350586 -9.245407104492188 0.8591826558113098
27.679065704345703 -9.204554557800293 0.8661385774612427
27.828792572021484 -9.189363479614258 0.8711544871330261
28.551280975341797 -9.096658706665039 0.891618013381958
29.006183624267578 -9.041131973266602 0.9058719873428345
31.362762451171875 -8.702144622802734 0.9712480306625366
31.879056930541992 -8.629932403564453 0.9866091012954712
32.39041519165039 -8.549065589904785 1.0017356872558594
32.76315689086914 -8.501144409179688 1.0121500492095947
32.94001007080078 -8.472980499267578 1.0170371532440186
33.11894989013672 -8.444755554199219 1.022010326385498
33.30035400390625 -8.416309356689453 1.027059555053711
33.47513961791992 -8.386618614196777 1.0330414772033691
33.673484802246094 -8.361053466796875 1.0386154651641846
33.871883392333984 -8.334571838378906 1.0451948642730713
34.06747055053711 -8.307760238647461 1.0507144927978516
34.24525451660156 -8.27481460571289 1.0556223392486572
34.44266891479492 -8.245732307434082 1.0611600875854492
22.630722045898438 -5.367580413818359 0.6954058408737183
22.77560806274414 -4.352116107940674 0.6948071718215942
22.62166976928711 -4.175455093383789 0.6878561973571777
23.20757293701172 -4.182624816894531 0.7051568031311035
23.301456451416016 -4.148863792419434 0.7077491879463196
23.489299774169922 -4.081104278564453 0.7128833532333374
22.462312698364258 -3.805288791656494 0.6812275052070618
22.463821411132812 -3.7568626403808594 0.6810365319252014
22.455598831176758 -3.7076005935668945 0.6805544495582581
22.453277587890625 -3.6587047576904297 0.6802569627761841
22.466556549072266 -3.612281322479248 0.6804165244102478
22.455495834350586 -3.5627150535583496 0.6798666715621948
22.6833553314209 -3.5009961128234863 0.6869479417800903
23.564579010009766 -3.5862746238708496 0.7139768004417419
