VERSION .7
FIELDS x y z
SIZE 4 4 4
TYPE F F F
COUNT 1 1 1
WIDTH 833
HEIGHT 1
VIEWPOINT 0 0 0 1 0 0 0
POINTS 833
DATA ascii
13.184794425964355 -1.187279224395752 -0.3025324046611786
13.173720359802246 -1.1582388877868652 -0.30271226167678833
13.16400146484375 -1.1295396089553833 -0.30371788144111633
13.162578582763672 -1.1019058227539062 -0.30411243438720703
13.160137176513672 -1.0733965635299683 -0.3043241500854492
13.166168212890625 -1.0463886260986328 -0.3044103682041168
13.162717819213867 -1.018143892288208 -0.3042830526828766
13.166239738464355 -0.9906141757965088 -0.30431607365608215
13.155515670776367 -0.9623560905456543 -0.30401289463043213
13.147917747497559 -0.9335675835609436 -0.3037937879562378
13.146198272705078 -0.9060312509536743 -0.30371421575546265
13.149555206298828 -0.8788489699363708 -0.30374813079833984
13.145889282226562 -0.8230087757110596 -0.3043810725212097
13.14747428894043 -0.7957210540771484 -0.30437958240509033
13.122945785522461 -0.7387818098068237 -0.30374014377593994
13.115898132324219 -0.6556969285011292 -0.3034712076187134
13.124771118164062 -0.5734487771987915 -0.3043903708457947
13.105295181274414 -0.4900740385055542 -0.30337685346603394
13.09887409210205 -0.40658897161483765 -0.3045940101146698
13.092020034790039 -0.3240070044994354 -0.3043753504753113
13.10915756225586 -0.2691943347454071 -0.3050585687160492
13.108152389526367 -0.24196171760559082 -0.30502885580062866
13.125420570373535 -0.18698841333389282 -0.30540159344673157
13.11866283416748 -0.15966370701789856 -0.3052380084991455
13.114773750305176 -0.10437874495983124 -0.3051337003707886
13.120036125183105 -0.07719279825687408 -0.3057382106781006
13.11377239227295 -0.049625106155872345 -0.30558860301971436
13.117111206054688 -0.02193283662199974 -0.3056629002094269
15.098118782043457 0.0060863010585308075 -0.22773882746696472
15.069025039672852 0.10080935806035995 -0.2273043990135193
15.088373184204102 0.13225236535072327 -0.22815071046352386
15.069000244140625 0.19555191695690155 -0.22787180542945862
15.070873260498047 0.22685781121253967 -0.22789940237998962
15.03437328338623 0.4157902002334595 -0.227410227060318
15.051040649414062 0.4480670690536499 -0.22767868638038635
15.022912979125977 0.4784345030784607 -0.22763504087924957
15.002527236938477 0.5098696947097778 -0.2273288071155548
14.993816375732422 0.540726363658905 -0.2272225320339203
15.00595474243164 0.5723476409912109 -0.22741824388504028
14.988784790039062 0.6037616729736328 -0.22717449069023132
14.979696273803711 0.6345338225364685 -0.22651222348213196
14.979032516479492 0.6660106182098389 -0.22651538252830505
14.975666999816895 0.6975569725036621 -0.22649234533309937
14.950397491455078 0.7274758815765381 -0.22612208127975464
14.959456443786621 0.7593981027603149 -0.22629237174987793
14.946182250976562 0.7903777360916138 -0.22610780596733093
14.950227737426758 0.821707010269165 -0.22618615627288818
14.937295913696289 0.8530056476593018 -0.22602206468582153
14.939844131469727 0.8842588663101196 -0.2260911464691162
14.93345832824707 0.9153441190719604 -0.22601991891860962
14.919944763183594 0.9461517333984375 -0.22584497928619385
14.91399097442627 0.9768524169921875 -0.2257820963859558
14.920455932617188 1.008736252784729 -0.2259177267551422
14.902402877807617 1.070581316947937 -0.2257010042667389
14.903764724731445 1.101771593093872 -0.22575899958610535
14.89791488647461 1.1644436120986938 -0.22574125230312347
14.883275032043457 1.2574841976165771 -0.2256298065185547
14.8846435546875 1.3207554817199707 -0.22572949528694153
14.858977317810059 1.4126802682876587 -0.22384563088417053
14.824738502502441 1.503522276878357 -0.22346711158752441
14.831612586975098 1.5358760356903076 -0.22361519932746887
14.83254623413086 1.5991365909576416 -0.22373101115226746
14.823991775512695 1.6293418407440186 -0.22365029156208038
14.804388046264648 1.6586474180221558 -0.22340771555900574
14.81126594543457 1.6911022663116455 -0.22321271896362305
14.794303894042969 1.7202749252319336 -0.22300270199775696
14.802148818969727 1.752687692642212 -0.2231757789850235
14.780367851257324 1.7817738056182861 -0.22289997339248657
14.781429290771484 1.813389778137207 -0.222970649600029
14.767166137695312 1.8427538871765137 -0.22281187772750854
14.769949913024902 1.8747925758361816 -0.22237634658813477
14.736452102661133 1.9019825458526611 -0.2219221591949463
14.735036849975586 1.9334514141082764 -0.221955806016922
14.738540649414062 1.965031385421753 -0.22206884622573853
14.704811096191406 1.9919599294662476 -0.22163134813308716
14.691747665405273 2.021801471710205 -0.22149363160133362
14.668512344360352 2.049988269805908 -0.22121767699718475
14.646453857421875 2.078455924987793 -0.22093872725963593
14.638429641723633 2.1083152294158936 -0.21979328989982605
14.625005722045898 2.1377291679382324 -0.2182386815547943
14.594475746154785 2.164761781692505 -0.2178507149219513
14.573522567749023 2.1925718784332275 -0.21760231256484985
14.53883171081543 2.2185728549957275 -0.21715565025806427
14.53662109375 2.2496657371520996 -0.21719291806221008
14.527628898620605 2.279510736465454 -0.2171211540699005
14.525245666503906 2.31058406829834 -0.21680572628974915
14.52434253692627 2.3413546085357666 -0.2168588638305664
14.493471145629883 2.367602825164795 -0.2164798527956009
14.475820541381836 2.427353858947754 -0.215813547372818
14.475565910339355 2.4582059383392334 -0.21588537096977234
14.470958709716797 2.520169734954834 -0.21597421169281006
14.439399719238281 2.545558452606201 -0.21558213233947754
14.40972900390625 2.6029458045959473 -0.21530312299728394
14.394679069519043 2.693781614303589 -0.2149779349565506
14.381181716918945 2.7539920806884766 -0.21494561433792114
14.324037551879883 2.836514711380005 -0.2115243673324585
14.307622909545898 2.9268555641174316 -0.21154628694057465
14.280269622802734 2.952700138092041 -0.21123242378234863
14.308712005615234 2.989914894104004 -0.21120613813400269
14.284910202026367 3.016446590423584 -0.21059495210647583
14.287144660949707 3.047903060913086 -0.21071746945381165
14.267793655395508 3.075101613998413 -0.21052858233451843
14.24561595916748 3.101824998855591 -0.2102968990802765
14.245353698730469 3.1331028938293457 -0.2103949338197708
14.242656707763672 3.1635096073150635 -0.21044759452342987
14.205896377563477 3.1868467330932617 -0.2100052684545517
14.198638916015625 3.216538429260254 -0.20999565720558167
14.185608863830566 3.2445497512817383 -0.20936152338981628
14.185860633850098 3.2761545181274414 -0.20947477221488953
14.181751251220703 3.3065781593322754 -0.20915836095809937
14.165359497070312 3.3343207836151123 -0.20901817083358765
14.161483764648438 3.3647968769073486 -0.20906740427017212
14.145357131958008 3.3919920921325684 -0.2089400589466095
14.143081665039062 3.4230546951293945 -0.20901095867156982
14.126985549926758 3.4505667686462402 -0.20887798070907593
14.09957504272461 3.4754459857940674 -0.20804962515830994
14.117081642150879 3.5108537673950195 -0.20806097984313965
14.076889038085938 3.5322515964508057 -0.2065352201461792
14.112098693847656 3.572789192199707 -0.206809401512146
14.06406307220459 3.5917000770568848 -0.2062181532382965
14.056900978088379 3.6213202476501465 -0.20568327605724335
14.044130325317383 3.64968204498291 -0.205605149269104
14.043277740478516 3.6809468269348145 -0.2057095766067505
14.020559310913086 3.737806797027588 -0.20559798181056976
13.998982429504395 3.7635459899902344 -0.20505189895629883
13.991958618164062 3.82491397857666 -0.20464380085468292
13.985809326171875 3.8544435501098633 -0.20466864109039307
13.955787658691406 3.9094808101654053 -0.20447519421577454
13.935632705688477 3.935041904449463 -0.20394885540008545
13.927604675292969 3.996182918548584 -0.20354081690311432
13.908975601196289 4.054313659667969 -0.20351243019104004
13.904132843017578 4.084226131439209 -0.20356953144073486
13.90223503112793 4.147347927093506 -0.20344199240207672
13.839273452758789 4.223488807678223 -0.20133523643016815
13.84666633605957 4.25773811340332 -0.20157402753829956
13.833346366882324 4.316929340362549 -0.2016412317752838
13.827680587768555 4.347235679626465 -0.20168828964233398
13.827316284179688 4.379035472869873 -0.20181620121002197
13.812448501586914 4.4064507484436035 -0.2008514255285263
13.813055038452148 4.438247203826904 -0.20099511742591858
13.799636840820312 4.465915679931641 -0.20093375444412231
13.789375305175781 4.4947943687438965 -0.2009248435497284
13.788297653198242 4.526483535766602 -0.20104648172855377
13.785691261291504 4.557340621948242 -0.2007981240749359
13.751509666442871 4.578286170959473 -0.19990113377571106
13.760221481323242 4.6132941246032715 -0.20016953349113464
13.727357864379883 4.633988380432129 -0.1998315453529358
13.724397659301758 4.665305137634277 -0.19992944598197937
13.714564323425293 4.6940999031066895 -0.19958411157131195
13.714529037475586 4.726474761962891 -0.19918911159038544
13.701126098632812 4.754055500030518 -0.19913947582244873
13.693220138549805 4.783172607421875 -0.19916576147079468
13.6588134765625 4.803549289703369 -0.19881552457809448
13.667055130004883 4.838708877563477 -0.19873490929603577
13.658269882202148 4.868089199066162 -0.19822059571743011
13.650651931762695 4.8973236083984375 -0.19933238625526428
13.63316822052002 4.923377513885498 -0.19868922233581543
13.635488510131836 4.956798076629639 -0.1988774538040161
13.622444152832031 4.984455585479736 -0.1988370418548584
13.626001358032227 5.017843723297119 -0.19869452714920044
13.624892234802246 5.050144195556641 -0.198292076587677
13.588033676147461 5.068948745727539 -0.19791169464588165
13.597579956054688 5.13747501373291 -0.19801445305347443
13.582758903503418 5.16448450088501 -0.19795650243759155
13.555961608886719 5.219743728637695 -0.1973455846309662
13.533666610717773 5.243433475494385 -0.19717857241630554
13.52047061920166 5.3039164543151855 -0.19642317295074463
13.483698844909668 5.321805000305176 -0.19604969024658203
13.476724624633789 5.384758949279785 -0.19592827558517456
13.429208755493164 5.4314703941345215 -0.195035919547081
13.42289924621582 5.461357593536377 -0.19510939717292786
13.395707130432129 5.51616096496582 -0.19470062851905823
13.380653381347656 5.543045997619629 -0.19411349296569824
13.363754272460938 5.601517677307129 -0.19597411155700684
13.355077743530273 5.631074905395508 -0.19567428529262543
13.362539291381836 5.667288780212402 -0.19595688581466675
13.335138320922852 5.6883463859558105 -0.19519144296646118
13.308520317077637 5.710247993469238 -0.1949785053730011
13.295969009399414 5.737941741943359 -0.1946244239807129
13.275287628173828 5.762308597564697 -0.19450032711029053
13.235658645629883 5.778158187866211 -0.19356657564640045
13.17926025390625 5.786128044128418 -0.19292014837265015
13.144966125488281 5.804215431213379 -0.19224980473518372
13.092023849487305 5.813714027404785 -0.19165600836277008
13.058372497558594 5.831242561340332 -0.19081513583660126
12.98791217803955 5.832709312438965 -0.1896192580461502
12.9484224319458 5.847673416137695 -0.18922220170497894
12.88909912109375 5.853115558624268 -0.18800988793373108
12.83463191986084 5.86110782623291 -0.18739692866802216
12.768742561340332 5.863448143005371 -0.186272531747818
12.739057540893555 5.8824262619018555 -0.18602097034454346
12.673164367675781 5.884310245513916 -0.1847236454486847
12.608306884765625 5.886033058166504 -0.1839575469493866
12.557011604309082 5.8944172859191895 -0.18305359780788422
12.50294303894043 5.901102066040039 -0.18193811178207397
12.455549240112305 5.910930633544922 -0.1814289093017578
12.400167465209961 5.916207790374756 -0.1814766675233841
12.357135772705078 5.927558422088623 -0.1823604851961136
12.305303573608398 5.934696197509766 -0.1814470887184143
12.239328384399414 5.934582710266113 -0.1801586151123047
12.197508811950684 5.945599555969238 -0.17972517013549805
12.146427154541016 5.952479839324951 -0.17882800102233887
12.105965614318848 5.964204788208008 -0.17841653525829315
12.048816680908203 5.967153549194336 -0.1772628128528595
11.998119354248047 5.973997116088867 -0.1763790100812912
11.937475204467773 5.974747180938721 -0.17566817998886108
11.84189510345459 5.989405632019043 -0.1741437315940857
11.804561614990234 6.00131893157959 -0.17345646023750305
11.70633602142334 6.013558387756348 -0.17189852893352509
11.661195755004883 6.020987510681152 -0.17110168933868408
11.616637229919434 6.029446601867676 -0.17015588283538818
11.56550407409668 6.0334062576293945 -0.16958796977996826
11.474799156188965 6.04770040512085 -0.16783937811851501
11.440519332885742 6.060002326965332 -0.16752126812934875
11.32504940032959 6.060052871704102 -0.16542068123817444
11.27838134765625 6.06575345993042 -0.16492535173892975
11.194206237792969 6.080868721008301 -0.1659296452999115
11.160733222961426 6.093246936798096 -0.16515731811523438
11.103523254394531 6.092307090759277 -0.1644989252090454
11.073158264160156 6.1055779457092285 -0.16392874717712402
11.021148681640625 6.107288360595703 -0.16288453340530396
10.981457710266113 6.115464210510254 -0.16249027848243713
10.93311595916748 6.118302345275879 -0.16165655851364136
10.887889862060547 6.123573303222656 -0.16072136163711548
10.849624633789062 6.131722927093506 -0.16004164516925812
10.807409286499023 6.1380157470703125 -0.1596108078956604
10.762859344482422 6.142634391784668 -0.15868665277957916
10.728515625 6.152584552764893 -0.15806956589221954
10.689048767089844 6.15998649597168 -0.1576785296201706
10.645332336425781 6.1646013259887695 -0.15677186846733093
10.596034049987793 6.165452003479004 -0.1559372842311859
10.558420181274414 6.173794746398926 -0.1551264226436615
10.52076244354248 6.181108474731445 -0.15476274490356445
10.466378211975098 6.178927421569824 -0.1538563221693039
10.426078796386719 6.1846923828125 -0.15301229059696198
10.400763511657715 6.19888973236084 -0.1525338739156723
10.357012748718262 6.202493667602539 -0.1520863175392151
10.313037872314453 6.205613136291504 -0.15118804574012756
10.25910472869873 6.202195167541504 -0.15029342472553253
10.224212646484375 6.210622787475586 -0.14997510612010956
10.183891296386719 6.2154388427734375 -0.15044724941253662
10.151528358459473 6.225149154663086 -0.14972752332687378
10.104124069213867 6.225308418273926 -0.1489284336566925
10.076332092285156 6.2370710372924805 -0.14871090650558472
10.021926879882812 6.2327070236206055 -0.1476682424545288
9.991912841796875 6.243172645568848 -0.14712980389595032
9.95728874206543 6.250306129455566 -0.14681360125541687
9.910768508911133 6.25065803527832 -0.14589619636535645
9.868341445922852 6.252562046051025 -0.14517319202423096
9.795611381530762 6.264449119567871 -0.1437855064868927
9.765807151794434 6.27398157119751 -0.14353545010089874
9.687888145446777 6.281719207763672 -0.14207223057746887
9.647981643676758 6.284321308135986 -0.14125944674015045
9.613683700561523 6.2912726402282715 -0.14067085087299347
9.573559761047363 6.293427467346191 -0.14027467370033264
9.554098129272461 6.309067726135254 -0.13948340713977814
9.489938735961914 6.295854091644287 -0.13874153792858124
9.472187995910645 6.312425136566162 -0.13825616240501404
9.392748832702637 6.316771030426025 -0.13721038401126862
9.35244369506836 6.317890167236328 -0.13612444698810577
9.282647132873535 6.3278374671936035 -0.135353684425354
9.255083084106445 6.337717056274414 -0.13514676690101624
9.22287368774414 6.34414529800415 -0.13445599377155304
9.182273864746094 6.344328880310059 -0.1337873488664627
9.152874946594238 6.3526153564453125 -0.1331491619348526
9.12508773803711 6.361759185791016 -0.13266532123088837
9.076966285705566 6.356243133544922 -0.1321597397327423
9.055500984191895 6.370084762573242 -0.13136814534664154
9.011184692382812 6.366905689239502 -0.1309211254119873
8.982759475708008 6.374808311462402 -0.13029128313064575
8.94081974029541 6.373807907104492 -0.12961304187774658
8.918170928955078 6.385615348815918 -0.12907449901103973
8.87015438079834 6.37961483001709 -0.12830990552902222
8.851184844970703 6.394209861755371 -0.1282266527414322
8.812920570373535 6.394443035125732 -0.12719856202602386
8.795531272888184 6.410551071166992 -0.12714485824108124
8.750213623046875 6.405367851257324 -0.12601761519908905
8.722123146057129 6.412646293640137 -0.12580646574497223
8.678080558776855 6.408869743347168 -0.12470798194408417
8.660465240478516 6.423677921295166 -0.1246492862701416
8.627298355102539 6.426873207092285 -0.12436268478631973
8.589204788208008 6.427072048187256 -0.12335692346096039
8.54934310913086 6.424962997436523 -0.12258204072713852
8.536182403564453 6.443325042724609 -0.12193372845649719
8.48580265045166 6.433309555053711 -0.12140921503305435
8.46540355682373 6.445552349090576 -0.12065798044204712
8.420568466186523 6.439878463745117 -0.120218425989151
8.410150527954102 6.4596147537231445 -0.119998499751091
8.366911888122559 6.4545440673828125 -0.11918653547763824
8.343611717224121 6.464558124542236 -0.1187966987490654
8.296736717224121 6.455836296081543 -0.1179347038269043
8.284714698791504 6.474942684173584 -0.11795611679553986
8.237895965576172 6.465934753417969 -0.11684242635965347
8.2164888381958 6.4767327308654785 -0.11673007160425186
8.176695823669434 6.473733901977539 -0.11572624742984772
8.161585807800293 6.489369869232178 -0.11569978296756744
8.128801345825195 6.49088191986084 -0.11479079723358154
8.100427627563477 6.49661111831665 -0.11458258330821991
8.056720733642578 6.489075660705566 -0.11352623254060745
8.004119873046875 6.502475738525391 -0.11253930628299713
7.968257904052734 6.500837802886963 -0.11222629249095917
7.946887969970703 6.511727809906006 -0.11186533421278
7.923680305480957 6.520241737365723 -0.1113538146018982
7.888726234436035 6.51898193359375 -0.11080479621887207
7.866555213928223 6.52899169921875 -0.11031370609998703
7.8305559158325195 6.526603698730469 -0.10899931192398071
7.8070173263549805 6.534487724304199 -0.10886429250240326
7.771309852600098 6.532883644104004 -0.10744859278202057
7.746251106262207 6.539299964904785 -0.1072833463549614
7.695167541503906 6.551878452301025 -0.10634320974349976
7.667076110839844 6.555453300476074 -0.1055319756269455
7.638031482696533 6.5589165687561035 -0.10532085597515106
7.604219913482666 6.557347297668457 -0.1044289618730545
7.579176902770996 6.563225269317627 -0.1042763739824295
7.540280342102051 6.557781219482422 -0.10331752896308899
7.527381896972656 6.574049472808838 -0.10308870673179626
7.491115093231201 6.570636749267578 -0.10241842269897461
7.462366104125977 6.572870254516602 -0.10196831822395325
7.439971446990967 6.580612659454346 -0.10148447751998901
7.414189338684082 6.5860915184021 -0.10107766091823578
7.378196716308594 6.5815629959106445 -0.10041451454162598
7.360706329345703 6.593441009521484 -0.10012161731719971
7.330084800720215 6.594289779663086 -0.09953394532203674
7.302557468414307 6.5969953536987305 -0.09910798072814941
7.278169631958008 6.602444648742676 -0.09860609471797943
7.251334190368652 6.606393814086914 -0.09819198399782181
7.221997261047363 6.607145309448242 -0.09761834144592285
7.1975908279418945 6.613116264343262 -0.09724196791648865
7.164656639099121 6.610328674316406 -0.09627464413642883
7.150643348693848 6.624922275543213 -0.09602630138397217
7.109991550445557 6.615541934967041 -0.09460315853357315
7.088170528411865 6.622735023498535 -0.09426186233758926
7.061516761779785 6.625331878662109 -0.09373418986797333
7.044978141784668 6.638169288635254 -0.09346269071102142
7.007627487182617 6.6304826736450195 -0.09279920160770416
6.98811149597168 6.639555931091309 -0.0921328216791153
6.95389986038208 6.635374069213867 -0.09187127649784088
6.941808700561523 6.6514129638671875 -0.09130632877349854
6.908535957336426 6.647572040557861 -0.090818852186203
6.886944770812988 6.654701232910156 -0.09036730974912643
6.85732364654541 6.653651714324951 -0.08992733806371689
6.837154388427734 6.662496566772461 -0.08949978649616241
6.80067253112793 6.654516220092773 -0.0889715626835823
6.7809247970581055 6.6627936363220215 -0.08854472637176514
6.756579875946045 6.667301654815674 -0.08817826211452484
6.733209609985352 6.671875 -0.08770869672298431
6.703434944152832 6.670812606811523 -0.08727499097585678
6.684305191040039 6.679440498352051 -0.08685581386089325
6.656533718109131 6.679354190826416 -0.08644941449165344
6.638632297515869 6.689913749694824 -0.08582545071840286
6.600262641906738 6.678911209106445 -0.08516331017017365
6.584875583648682 6.691056251525879 -0.0849139541387558
6.558320999145508 6.692610740661621 -0.08441519737243652
6.540271759033203 6.701956748962402 -0.0837918370962143
6.50452995300293 6.693063735961914 -0.08282697200775146
6.493529319763184 6.7103657722473145 -0.08229708671569824
6.457823753356934 6.701240062713623 -0.08145428448915482
6.412725448608398 6.710775375366211 -0.08067575097084045
6.397116661071777 6.722314834594727 -0.0806524008512497
6.360309600830078 6.712292671203613 -0.07980441302061081
6.346993446350098 6.726141452789307 -0.07981507480144501
6.325649738311768 6.7314534187316895 -0.0791560634970665
6.304528713226318 6.737761497497559 -0.07884781062602997
6.271576881408691 6.730487823486328 -0.07827483117580414
6.2552924156188965 6.741004467010498 -0.07768280804157257
6.227954387664795 6.740365028381348 -0.07752182334661484
6.195904731750488 6.733659744262695 -0.0767381563782692
6.17828893661499 6.743038654327393 -0.07647451758384705
6.164200782775879 6.756086826324463 -0.07613852620124817
6.134538650512695 6.7516632080078125 -0.07572261244058609
6.111040115356445 6.75473690032959 -0.07527779042720795
6.086616516113281 6.755868434906006 -0.07459399849176407
6.0782389640808105 6.775287628173828 -0.07466669380664825
6.0386505126953125 6.759657859802246 -0.07379984855651855
6.0249223709106445 6.772525787353516 -0.07358461618423462
5.997378349304199 6.770634174346924 -0.07309132814407349
5.980544090270996 6.779923439025879 -0.07250610738992691
5.94382381439209 6.766549110412598 -0.07179289311170578
5.9229936599731445 6.771956443786621 -0.07116673141717911
5.909682750701904 6.785100936889648 -0.07095527648925781
5.886204242706299 6.786529541015625 -0.07051445543766022
5.855508327484131 6.780346870422363 -0.06977258622646332
5.844179153442383 6.795684814453125 -0.06980673968791962
5.823821067810059 6.800508499145508 -0.06918378174304962
5.80715274810791 6.810439109802246 -0.06893988698720932
5.776116371154785 6.802582740783691 -0.06841285526752472
5.756556510925293 6.8089752197265625 -0.06780868768692017
5.732663154602051 6.809323310852051 -0.06769324094057083
5.713496208190918 6.815212249755859 -0.06709027290344238
5.6899003982543945 6.816591262817383 -0.06676879525184631
5.674554347991943 6.826955795288086 -0.06642936915159225
5.642406463623047 6.817007064819336 -0.06567767262458801
5.625962257385254 6.826777935028076 -0.06565544009208679
5.600946426391602 6.82523250579834 -0.06498987227678299
5.583217144012451 6.832491874694824 -0.0647333636879921
5.55647611618042 6.829492092132568 -0.06427008658647537
5.545529365539551 6.845004081726074 -0.06377056241035461
5.522515296936035 6.846105575561523 -0.06367003172636032
5.492371559143066 6.838067054748535 -0.06295397877693176
5.475207805633545 6.845746994018555 -0.0627058669924736
5.452932357788086 6.847834587097168 -0.06261784583330154
5.431854248046875 6.850489616394043 -0.06179210916161537
5.40330171585083 6.84360408782959 -0.061309896409511566
5.394317150115967 6.8623151779174805 -0.0611613392829895
5.3767313957214355 6.869235992431641 -0.06058992072939873
5.350369453430176 6.865723609924316 -0.06045796722173691
5.33046293258667 6.869534015655518 -0.05986359715461731
5.306666851043701 6.868247985839844 -0.05922744423151016
5.294196128845215 6.8824462890625 -0.05925139784812927
5.264724254608154 6.873601913452148 -0.05855220556259155
5.252555847167969 6.887274265289307 -0.05825808644294739
5.220636367797852 6.875833988189697 -0.057857416570186615
5.202693939208984 6.881808280944824 -0.05728954076766968
5.1870646476745605 6.89081335067749 -0.05727536231279373
5.162965297698975 6.889379501342773 -0.05664617195725441
5.138611793518066 6.88661527633667 -0.05601105839014053
5.106541633605957 6.904109477996826 -0.0554535835981369
5.093283653259277 6.916159152984619 -0.054941412061452866
5.070679664611816 6.916359901428223 -0.054855793714523315
5.046088218688965 6.912856101989746 -0.05422326922416687
5.024884223937988 6.913890838623047 -0.05362826585769653
5.012292861938477 6.927637100219727 -0.053651113063097
4.982287883758545 6.916341781616211 -0.05327540636062622
4.97432804107666 6.9355950355529785 -0.05334409326314926
4.941478252410889 6.920963764190674 -0.05283937603235245
4.926298141479492 6.930068016052246 -0.05231095850467682
4.901846885681152 6.926600456237793 -0.051999885588884354
4.8916168212890625 6.943014144897461 -0.05173436552286148
4.864022254943848 6.934365272521973 -0.05107759311795235
4.845966339111328 6.940112590789795 -0.050837453454732895
4.8191022872924805 6.932242393493652 -0.05039744824171066
4.809728145599365 6.949484825134277 -0.04993385821580887
4.787561893463135 6.949133396148682 -0.049651890993118286
4.77412223815918 6.9604997634887695 -0.04935288801789284
4.740278244018555 6.942543029785156 -0.04864132031798363
4.726308345794678 6.953387260437012 -0.04844284430146217
4.710599422454834 6.961305618286133 -0.04812159389257431
4.6926422119140625 6.966787338256836 -0.0475776307284832
4.674716472625732 6.971352577209473 -0.04733739793300629
4.646727561950684 6.96079683303833 -0.04689421504735947
4.625916957855225 6.961783409118652 -0.04632333666086197
4.615304470062256 6.977180480957031 -0.04615764319896698
4.590782165527344 6.971506595611572 -0.045751407742500305
4.5789794921875 6.986027240753174 -0.04527226835489273
4.552632808685303 6.977370262145996 -0.04495184123516083
4.5388102531433105 6.987827777862549 -0.044651955366134644
4.511728286743164 6.978723526000977 -0.044634923338890076
4.499761581420898 6.991994857788086 -0.04415247589349747
4.476796627044678 6.98907470703125 -0.04407354071736336
4.458981990814209 6.993171691894531 -0.0437372624874115
4.426430702209473 6.974003791809082 -0.04305557906627655
4.419099807739258 6.995438575744629 -0.04292753338813782
4.399641036987305 6.9967498779296875 -0.042576588690280914
4.387547016143799 7.009756565093994 -0.042095452547073364
4.367680072784424 7.011275768280029 -0.041544169187545776
4.34368371963501 7.005105018615723 -0.04145488888025284
4.320224761962891 6.99966287612915 -0.04086710512638092
4.305510520935059 7.009280204772949 -0.04036715626716614
4.290821075439453 7.017980098724365 -0.04016517847776413
4.273014068603516 7.022520065307617 -0.03983776271343231
4.249134063720703 7.016019821166992 -0.03925037011504173
4.2429962158203125 7.038808822631836 -0.039127644151449203
4.209366321563721 7.016878128051758 -0.03865592181682587
4.195343971252441 7.026515960693359 -0.03816136345267296
4.174434661865234 7.024574279785156 -0.03760534152388573
4.160580635070801 7.035440444946289 -0.037615690380334854
4.1396965980529785 7.033397674560547 -0.03706035763025284
4.125761032104492 7.044100761413574 -0.036572277545928955
4.097613334655762 7.029452323913574 -0.03625323250889778
4.081457138061523 7.035252571105957 -0.03594128042459488
4.061423301696777 7.035301208496094 -0.03599654138088226
4.050418853759766 7.049986839294434 -0.03592940792441368
4.028308868408203 7.0453104972839355 -0.03536735475063324
4.015744209289551 7.058284759521484 -0.03489385545253754
3.9848031997680664 7.037840843200684 -0.03455432131886482
3.9726476669311523 7.050457000732422 -0.034279778599739075
3.955904960632324 7.055944442749023 -0.03377087041735649
3.9340548515319824 7.051235675811768 -0.03351230546832085
3.9211554527282715 7.0631303787231445 -0.03323378041386604
3.895019054412842 7.050896167755127 -0.03264627605676651
3.885707139968872 7.068656921386719 -0.0321984589099884
3.868157386779785 7.072479724884033 -0.03198116645216942
3.8426222801208496 7.060554504394531 -0.03159686550498009
3.8290600776672363 7.070542335510254 -0.031114652752876282
3.8059511184692383 7.063864707946777 -0.030560122802853584
15.424358367919922 -7.990017890930176 -0.20143219828605652
15.500467300415039 -7.581144332885742 -0.20304164290428162
15.668907165527344 -6.208373069763184 -0.21023494005203247
15.631322860717773 -6.080068588256836 -0.210246741771698
15.627171516418457 -5.965620994567871 -0.21069669723510742
15.609904289245605 -5.883831977844238 -0.2105417549610138
15.583282470703125 -5.836892127990723 -0.2100142538547516
15.568679809570312 -5.720078468322754 -0.20873408019542694
15.522077560424805 -4.510944366455078 -0.21250611543655396
15.5281343460083 -4.477778434753418 -0.2124585211277008
15.525028228759766 -4.406151294708252 -0.21315142512321472
15.498740196228027 -4.363957405090332 -0.21266482770442963
15.499153137207031 -4.293708324432373 -0.2128116488456726
15.489019393920898 -4.256311893463135 -0.21314293146133423
15.494563102722168 -4.222254276275635 -0.21308839321136475
15.490909576416016 -4.186746120452881 -0.21292316913604736
15.506033897399902 -4.156323432922363 -0.21339859068393707
15.48505973815918 -4.080880641937256 -0.2140507698059082
15.494485855102539 -4.048594951629639 -0.21445158123970032
15.487210273742676 -3.9774935245513916 -0.21411670744419098
15.463167190551758 -3.867861270904541 -0.21441759169101715
15.463277816772461 -3.7643589973449707 -0.21505892276763916
15.449819564819336 -3.658356189727783 -0.21454806625843048
15.410886764526367 -2.9388926029205322 -0.21812516450881958
15.373832702636719 -2.898190975189209 -0.21751825511455536
15.384773254394531 -2.8337960243225098 -0.21807828545570374
15.365913391113281 -2.7967827320098877 -0.2177286148071289
15.375338554382324 -2.7322349548339844 -0.21807825565338135
15.360843658447266 -2.6962051391601562 -0.21836256980895996
15.374044418334961 -2.6652631759643555 -0.218471959233284
15.369150161743164 -2.6309924125671387 -0.21832308173179626
15.383131980895996 -2.600538969039917 -0.21882274746894836
15.364670753479004 -2.5642499923706055 -0.2184828370809555
15.363174438476562 -2.5306625366210938 -0.2183862179517746
15.352627754211426 -2.4958291053771973 -0.21873196959495544
15.366281509399414 -2.4653289318084717 -0.219424307346344
15.368978500366211 -2.432478189468384 -0.22089985013008118
15.373008728027344 -2.4000444412231445 -0.22145992517471313
15.370063781738281 -2.3669214248657227 -0.22134342789649963
15.379793167114258 -2.3351783752441406 -0.22141067683696747
15.377140045166016 -2.301758289337158 -0.22130346298217773
15.353425979614258 -2.232520818710327 -0.22119969129562378
15.36501693725586 -2.201277017593384 -0.2218746542930603
15.356560707092285 -2.134103775024414 -0.2216167449951172
15.323469161987305 -2.0313963890075684 -0.2213279902935028
15.229633331298828 -1.4360992908477783 -0.224068745970726
15.215547561645508 -1.3383221626281738 -0.22410361468791962
15.201984405517578 -1.3053436279296875 -0.22386185824871063
15.20266342163086 -1.2409276962280273 -0.2237910032272339
15.207588195800781 -1.2095658779144287 -0.22382575273513794
15.195868492126465 -1.1759722232818604 -0.224177286028862
15.20556640625 -1.1449840068817139 -0.22428321838378906
15.182605743408203 -1.1110129356384277 -0.22391270101070404
15.190681457519531 -1.0795462131500244 -0.2243649959564209
15.183048248291016 -1.0473414659500122 -0.224219411611557
15.177667617797852 -1.0143978595733643 -0.22410966455936432
15.18185806274414 -0.9830360412597656 -0.22413727641105652
15.176131248474121 -0.9510440230369568 -0.2240249663591385
15.174022674560547 -0.9183734059333801 -0.22396250069141388
15.182432174682617 -0.8872646689414978 -0.22462111711502075
15.17395305633545 -0.8546160459518433 -0.2268693596124649
15.183185577392578 -0.8231624364852905 -0.22697439789772034
15.18179702758789 -0.7914929389953613 -0.22692988812923431
15.1771879196167 -0.759114146232605 -0.22683557868003845
15.162407875061035 -0.7264667749404907 -0.22659052908420563
15.174882888793945 -0.6955040693283081 -0.22675083577632904
15.161316871643066 -0.6624294519424438 -0.22652745246887207
15.154718399047852 -0.6306350827217102 -0.2264108508825302
15.136445999145508 -0.598412036895752 -0.22612133622169495
15.142152786254883 -0.5662423372268677 -0.22618332505226135
15.129085540771484 -0.5343164205551147 -0.22689580917358398
15.139253616333008 -0.4394017159938812 -0.22699905931949615
12.597404479980469 2.633279323577881 -0.25590381026268005
12.205387115478516 3.725827932357788 -0.2504715919494629
12.190168380737305 3.8051209449768066 -0.2498665153980255
12.166271209716797 3.853966474533081 -0.2497156262397766
12.145929336547852 3.8752737045288086 -0.24945099651813507
12.144583702087402 3.931273937225342 -0.24930131435394287
11.837852478027344 4.904422760009766 -0.24648436903953552
11.815254211425781 4.953463554382324 -0.24599038064479828
11.822693824768066 4.985454559326172 -0.24604028463363647
11.790102005004883 5.030297756195068 -0.24579966068267822
11.78805160522461 5.0583648681640625 -0.24551498889923096
11.781320571899414 5.085305213928223 -0.24528005719184875
11.765985488891602 5.107677936553955 -0.2451835423707962
11.744645118713379 5.186403274536133 -0.24494394659996033
11.713447570800781 5.260871887207031 -0.24419906735420227
11.670562744140625 5.330029487609863 -0.24368152022361755
10.890314102172852 5.76957893371582 -0.22867679595947266
10.759937286376953 5.787426948547363 -0.22580711543560028
10.667144775390625 5.79556941986084 -0.2236289083957672
10.637617111206055 5.808150291442871 -0.22326111793518066
10.553064346313477 5.819809913635254 -0.22126087546348572
10.513971328735352 5.826738357543945 -0.22069546580314636
10.471527099609375 5.832489967346191 -0.22006362676620483
10.429093360900879 5.837244033813477 -0.21869371831417084
10.385027885437012 5.840916633605957 -0.21802636981010437
10.3092041015625 5.855557441711426 -0.21652299165725708
10.268156051635742 5.860457420349121 -0.21561850607395172
10.188232421875 5.87186336517334 -0.21402880549430847
10.143068313598633 5.873907089233398 -0.21304967999458313
10.083686828613281 5.896366596221924 -0.2123211771249771
9.957374572753906 5.906820297241211 -0.2097320258617401
9.850711822509766 5.927581787109375 -0.2063066065311432
9.069103240966797 6.044281005859375 -0.19065316021442413
8.9735689163208 6.062424659729004 -0.1870613694190979
8.874324798583984 6.07745361328125 -0.18513277173042297
8.817289352416992 6.092625617980957 -0.18382149934768677
8.784602165222168 6.097485542297363 -0.18340648710727692
8.712823867797852 6.101722240447998 -0.18179276585578918
8.679503440856934 6.105745315551758 -0.1809750497341156
8.654650688171387 6.1154680252075195 -0.18072576820850372
8.619173049926758 6.117255210876465 -0.17999032139778137
8.5805025100708 6.117098331451416 -0.17906977236270905
8.554521560668945 6.125707626342773 -0.17879262566566467
8.519454002380371 6.127852916717529 -0.17807254195213318
8.489996910095215 6.133437633514404 -0.17733819782733917
8.464445114135742 6.142068862915039 -0.17707479000091553
8.431859970092773 6.145646572113037 -0.17602671682834625
8.395477294921875 6.145847320556641 -0.17553505301475525
8.366793632507324 6.151872634887695 -0.17494915425777435
8.345538139343262 6.163438320159912 -0.17439796030521393
8.3050537109375 6.160530090332031 -0.17382171750068665
8.218379020690918 6.1767072677612305 -0.17030727863311768
8.13923454284668 6.197677135467529 -0.168473020195961
8.03508472442627 6.198558330535889 -0.16649793088436127
7.950937271118164 6.2137651443481445 -0.1649472415447235
7.525394439697266 6.272724151611328 -0.1553555428981781
7.461154937744141 6.2990922927856445 -0.15388739109039307
7.383645057678223 6.3135833740234375 -0.15227769315242767
7.30434513092041 6.325700759887695 -0.1508667767047882
7.2528533935546875 6.334756851196289 -0.14976638555526733
7.218903064727783 6.331560134887695 -0.14933320879936218
7.189427375793457 6.332620620727539 -0.14865557849407196
7.173092365264893 6.345027446746826 -0.14835743606090546
7.134263515472412 6.337118148803711 -0.14747126400470734
7.117669105529785 6.3496317863464355 -0.14717675745487213
7.0929670333862305 6.35407829284668 -0.14694097638130188
7.062666893005371 6.353401184082031 -0.1462351381778717
7.0365777015686035 6.357180595397949 -0.14574378728866577
7.017487525939941 6.366432189941406 -0.145274817943573
6.989065170288086 6.367605686187744 -0.14473573863506317
6.963251113891602 6.3708953857421875 -0.1441335380077362
6.942267417907715 6.378212928771973 -0.1430518925189972
6.914008140563965 6.379226207733154 -0.14228534698486328
6.893793106079102 6.387424468994141 -0.14191517233848572
6.848207473754883 6.371649742126465 -0.14090773463249207
6.840434551239014 6.391735076904297 -0.14102792739868164
6.820207118988037 6.399396896362305 -0.14031516015529633
6.793422698974609 6.400825500488281 -0.1400352269411087
6.761890411376953 6.398439407348633 -0.13910004496574402
6.736001968383789 6.400489807128906 -0.13883978128433228
6.708076477050781 6.400495529174805 -0.13796819746494293
6.680330276489258 6.401340484619141 -0.1376824527978897
6.668303489685059 6.416413307189941 -0.13770803809165955
6.609630584716797 6.413784027099609 -0.1364896297454834
6.592894554138184 6.424161434173584 -0.13585586845874786
6.517934799194336 6.431494235992432 -0.13458408415317535
6.193037986755371 6.480877876281738 -0.127375990152359
6.131780624389648 6.49854850769043 -0.12619289755821228
6.109953880310059 6.502396583557129 -0.12569588422775269
6.068368911743164 6.512887954711914 -0.12486111372709274
6.0465192794799805 6.516498565673828 -0.1246873214840889
5.995909690856934 6.516785621643066 -0.12366955727338791
5.971993446350098 6.517884254455566 -0.12291461229324341
5.952371597290039 6.523917198181152 -0.12279241532087326
5.92641544342041 6.523083209991455 -0.12200643122196198
5.905912399291992 6.527681350708008 -0.12185932695865631
5.875001430511475 6.520984649658203 -0.12096905708312988
5.868227005004883 6.541191101074219 -0.12111372500658035
5.834083557128906 6.530344009399414 -0.12015463411808014
5.81791877746582 6.540317535400391 -0.12010831385850906
5.797744274139404 6.544937610626221 -0.11922284960746765
5.779154300689697 6.551615238189697 -0.11912727355957031
5.749401092529297 6.545698165893555 -0.11826543509960175
5.733652114868164 6.555152893066406 -0.11822091042995453
5.713771343231201 6.560652732849121 -0.11778131127357483
5.696285247802734 6.568046569824219 -0.11748713999986649
5.6687541007995605 6.563772201538086 -0.11688441038131714
5.640830039978027 6.559713363647461 -0.11638223379850388
5.624268531799316 6.567975997924805 -0.11600837111473083
5.607610702514648 6.57609748840332 -0.11573594808578491
5.585277557373047 6.578317642211914 -0.11524834483861923
5.564497470855713 6.581477165222168 -0.11488939821720123
5.540816307067871 6.581445693969727 -0.11437259614467621
5.521842002868652 6.587090969085693 -0.11405490338802338
5.497934341430664 6.5862860679626465 -0.11353407800197601
5.478382110595703 6.590944290161133 -0.11320126056671143
5.464831352233887 6.602957248687744 -0.11289507150650024
5.439505577087402 6.600194931030273 -0.11244510114192963
5.392433166503906 6.599512100219727 -0.11152857542037964
5.374995708465576 6.606101989746094 -0.11113521456718445
5.337642669677734 6.6169233322143555 -0.11042176187038422
5.317975044250488 6.620942115783691 -0.1100975051522255
5.280557632446289 6.6310319900512695 -0.10937580466270447
5.257898330688477 6.631102561950684 -0.10899168252944946
5.218603134155273 6.6387834548950195 -0.10824275016784668
5.200687408447266 6.644324779510498 -0.10784327238798141
5.168978691101074 6.66142463684082 -0.10725244134664536
5.094305992126465 6.651104927062988 -0.10554265975952148
5.039449691772461 6.665878772735596 -0.10476626455783844
5.004064559936523 6.67734432220459 -0.10410130023956299
4.985193252563477 6.681519031524658 -0.10349375754594803
4.943024158477783 6.683032035827637 -0.10269097983837128
4.919137477874756 6.680197238922119 -0.10228012502193451
4.890933036804199 6.7003021240234375 -0.1017720177769661
4.868445873260498 6.699158668518066 -0.10129604488611221
4.822710037231445 6.694818019866943 -0.10042297840118408
4.810284614562988 6.707391262054443 -0.10025401413440704
4.787135124206543 6.704792499542236 -0.09976500272750854
4.767411231994629 6.7065534591674805 -0.09944306313991547
4.746682167053223 6.707343578338623 -0.09900802373886108
4.728089332580566 6.710907936096191 -0.0987076610326767
4.7106475830078125 6.716230869293213 -0.0983412116765976
4.690162658691406 6.716630458831787 -0.09800347685813904
4.669644355773926 6.717248916625977 -0.09756937623023987
4.653701305389404 6.724569320678711 -0.09703366458415985
4.630674362182617 6.721412658691406 -0.09664954245090485
4.604743957519531 6.713551998138428 -0.09609853476285934
4.595293998718262 6.730199813842773 -0.09599810838699341
4.577585220336914 6.734584808349609 -0.0956258475780487
4.557774543762207 6.735461235046387 -0.09530442953109741
4.543091773986816 6.744405269622803 -0.09500059485435486
4.519315719604492 6.739604949951172 -0.09429998695850372
4.503026008605957 6.745532035827637 -0.09424986690282822
4.483266353607178 6.746743202209473 -0.09364445507526398
4.459249973297119 6.741265773773193 -0.09343433380126953
4.43955659866333 6.74239444732666 -0.09283286333084106
4.4256157875061035 6.752044677734375 -0.09263798594474792
4.409669876098633 6.758265018463135 -0.09230343997478485
4.386781215667725 6.754309177398682 -0.09192401170730591
4.364297866821289 6.750679969787598 -0.09145477414131165
4.355676651000977 6.7681074142456055 -0.09107619524002075
4.336906433105469 6.770317077636719 -0.09098608791828156
4.314742088317871 6.766956329345703 -0.09032663702964783
4.293564796447754 6.764668941497803 -0.0901789516210556
4.277423858642578 6.770798683166504 -0.08965061604976654
4.25477409362793 6.7663679122924805 -0.08917678147554398
4.218818664550781 6.772313117980957 -0.08853615820407867
4.20218563079834 6.776908874511719 -0.08828651905059814
4.170546531677246 6.789562225341797 -0.08744378387928009
4.1476545333862305 6.783819198608398 -0.08706600219011307
4.135974884033203 6.797301292419434 -0.08683371543884277
4.122256755828857 6.806524276733398 -0.08664964139461517
4.102625846862793 6.80594539642334 -0.08624337613582611
4.087462425231934 6.8136677742004395 -0.08603385090827942
4.071157455444336 6.818524360656738 -0.0855049341917038
4.046807289123535 6.809807777404785 -0.08499844372272491
4.02634859085083 6.808457374572754 -0.08468353748321533
4.0087361335754395 6.810894012451172 -0.08431750535964966
3.978437900543213 6.82500696182251 -0.0838034600019455
3.953124523162842 6.814043045043945 -0.08308634161949158
14.03281021118164 4.5094075202941895 -0.1667446792125702
14.037936210632324 4.608619213104248 -0.166250079870224
13.979535102844238 4.687004089355469 -0.1664368212223053
13.968267440795898 4.846932411193848 -0.16599783301353455
13.927947998046875 4.93126106262207 -0.1655300259590149
13.895271301269531 5.018214702606201 -0.16496238112449646
13.388126373291016 5.844908714294434 -0.1583191305398941
13.227938652038574 5.874257564544678 -0.15650784969329834
13.050016403198242 5.893741607666016 -0.15483415126800537
12.902776718139648 5.92518424987793 -0.15301518142223358
12.793370246887207 5.940309047698975 -0.15166178345680237
12.726393699645996 5.941344261169434 -0.15049901604652405
12.611654281616211 5.952595233917236 -0.1494409441947937
12.566133499145508 5.963027000427246 -0.14869919419288635
12.461078643798828 5.977601051330566 -0.14725413918495178
10.983599662780762 6.17757511138916 -0.1276567578315735
10.864261627197266 6.200680732727051 -0.1262672245502472
10.726125717163086 6.211560249328613 -0.1239033117890358
10.686368942260742 6.218186378479004 -0.12359344959259033
10.617538452148438 6.238137245178223 -0.1223473846912384
10.558561325073242 6.232996940612793 -0.12181849032640457
10.520034790039062 6.240596771240234 -0.12108002603054047
10.475221633911133 6.243436813354492 -0.12041585147380829
10.446550369262695 6.255764007568359 -0.12023197114467621
10.397972106933594 6.256891250610352 -0.11938554793596268
10.353271484375 6.259293556213379 -0.11872102320194244
10.326311111450195 6.272292137145996 -0.11856304109096527
10.232504844665527 6.2744574546813965 -0.11705565452575684
10.208105087280273 6.289027214050293 -0.11692313849925995
10.123291969299316 6.2953996658325195 -0.11552874743938446
9.992079734802246 6.301255226135254 -0.1137607991695404
9.021167755126953 6.430752754211426 -0.0993848368525505
9.003774642944336 6.4465765953063965 -0.09786055982112885
8.924779891967773 6.447043418884277 -0.09635455906391144
8.89394474029541 6.45339298248291 -0.0958947017788887
8.826292037963867 6.460726737976074 -0.09505829215049744
8.801258087158203 6.470990180969238 -0.0942700058221817
8.73923110961914 6.482263088226318 -0.09389574825763702
8.70225715637207 6.482874870300293 -0.0929826945066452
8.666824340820312 6.48482084274292 -0.09274725615978241
8.636846542358398 6.490883827209473 -0.09230614453554153
8.604081153869629 6.494243621826172 -0.09171062707901001
8.572660446166992 6.498827934265137 -0.0915185734629631
8.535869598388672 6.499367713928223 -0.09061962366104126
8.52612590789795 6.519943714141846 -0.09065975248813629
8.470993041992188 6.506016254425049 -0.08995526283979416
8.44162368774414 6.511847019195557 -0.08939937502145767
8.418069839477539 6.521587371826172 -0.08929683268070221
8.385082244873047 6.52424955368042 -0.08843959122896194
8.350494384765625 6.525693893432617 -0.08822249621152878
8.320881843566895 6.530740737915039 -0.08805277943611145
8.265962600708008 6.543750762939453 -0.08712013065814972
8.234366416931152 6.546908855438232 -0.08513667434453964
8.165716171264648 6.548644065856934 -0.08394007384777069
8.144771575927734 6.559665679931641 -0.08348280191421509
8.045234680175781 6.563309669494629 -0.08224882930517197
7.967704772949219 6.583918571472168 -0.08124932646751404
7.538909912109375 6.639963150024414 -0.07419133931398392
7.462860107421875 6.656757354736328 -0.07250670343637466
7.394693374633789 6.6520843505859375 -0.07150803506374359
7.385615825653076 6.671700477600098 -0.07155447453260422
7.314789772033691 6.663877964019775 -0.07053601741790771
7.295371055603027 6.673943042755127 -0.07011987268924713
7.244542121887207 6.6837053298950195 -0.06930156797170639
7.20274019241333 6.672861099243164 -0.0687907338142395
7.165069103240967 6.6942548751831055 -0.06834359467029572
7.130039691925049 6.689292907714844 -0.06789819896221161
7.108212471008301 6.697422981262207 -0.06747309118509293
7.09188175201416 6.709873199462891 -0.06721189618110657
7.04793643951416 6.6960673332214355 -0.06657032668590546
7.030374050140381 6.708015441894531 -0.0663004219532013
6.997138977050781 6.704098701477051 -0.06576186418533325
6.98293924331665 6.71883487701416 -0.06552757322788239
6.946142673492432 6.711573600769043 -0.0649605393409729
6.924106121063232 6.71812105178833 -0.06488452106714249
6.897448539733887 6.7205915451049805 -0.06382910162210464
6.879611492156982 6.7314300537109375 -0.06332499533891678
6.840125560760498 6.720633506774902 -0.06250099837779999
6.824764251708984 6.734254837036133 -0.06249420344829559
6.803590297698975 6.7412848472595215 -0.06184471398591995
6.74012565612793 6.734890937805176 -0.06094256788492203
6.7313737869262695 6.754119873046875 -0.06099014729261398
6.665973663330078 6.745075225830078 -0.060076020658016205
6.6461405754089355 6.752978801727295 -0.05967709794640541
6.5978240966796875 6.760601043701172 -0.05892273783683777
6.573244094848633 6.763437271118164 -0.05859581381082535
6.527860164642334 6.773584365844727 -0.05787157267332077
6.495581150054932 6.768143177032471 -0.057707563042640686
6.449349403381348 6.776871204376221 -0.05697900429368019
6.170997142791748 6.820172309875488 -0.052091363817453384
6.1047539710998535 6.833316802978516 -0.050777338445186615
6.0337724685668945 6.839929580688477 -0.049986377358436584
6.014690399169922 6.84688663482666 -0.04939143359661102
5.987514019012451 6.844882965087891 -0.04928486794233322
5.967601776123047 6.851260185241699 -0.04868451505899429
5.944728851318359 6.853666305541992 -0.04861441254615784
