VERSION .7
FIELDS x y z
SIZE 4 4 4
TYPE F F F
COUNT 1 1 1
WIDTH 856
HEIGHT 1
VIEWPOINT 0 0 0 1 0 0 0
POINTS 856
DATA ascii
56.41502380371094 14.028701782226562 2.2995028495788574
55.70545959472656 13.975828170776367 2.2717535495758057
55.052677154541016 13.93637752532959 2.2463321685791016
53.773014068603516 13.853666305541992 2.193089008331299
53.21418380737305 13.827516555786133 2.1714649200439453
43.79035186767578 13.064257621765137 1.7918360233306885
42.28809356689453 12.906136512756348 1.730945110321045
41.80649948120117 12.85405445098877 1.7123197317123413
40.90502166748047 12.765682220458984 1.6749590635299683
40.462608337402344 12.720394134521484 1.6579298973083496
40.0033073425293 12.669397354125977 1.6381855010986328
39.62845993041992 12.641223907470703 1.6233701705932617
39.21184158325195 12.598597526550293 1.6073764562606812
38.82074737548828 12.563940048217773 1.5899412631988525
38.40815353393555 12.51852035522461 1.5741000175476074
38.011268615722656 12.479053497314453 1.5569953918457031
37.61655807495117 12.436002731323242 1.5413689613342285
37.23643112182617 12.396645545959473 1.5292487144470215
36.87619400024414 12.36375617980957 1.5150233507156372
36.482643127441406 12.316086769104004 1.4998997449874878
36.1468505859375 12.288806915283203 1.4848392009735107
35.79871368408203 12.253385543823242 1.4715766906738281
35.45392990112305 12.217622756958008 1.4566397666931152
35.116641998291016 12.185379981994629 1.4433653354644775
34.75330352783203 12.14016342163086 1.4276889562606812
34.13374328613281 12.0852689743042 1.403846025466919
33.812164306640625 12.050432205200195 1.3899190425872803
33.196083068847656 11.988662719726562 1.3644988536834717
32.27549362182617 11.886086463928223 1.3276007175445557
29.830848693847656 11.63135051727295 1.2284610271453857
29.069364547729492 11.545491218566895 1.1977468729019165
28.342374801635742 11.463556289672852 1.1688681840896606
27.887042999267578 11.416280746459961 1.1502233743667603
27.672317504882812 11.395484924316406 1.1405093669891357
27.422237396240234 11.359532356262207 1.131173849105835
27.21816062927246 11.34276008605957 1.1219457387924194
26.98928451538086 11.313173294067383 1.113476276397705
26.789920806884766 11.296951293945312 1.1044672727584839
26.56131362915039 11.265528678894043 1.0960038900375366
26.36728858947754 11.247852325439453 1.0875780582427979
26.173721313476562 11.231428146362305 1.0802130699157715
25.982311248779297 11.213194847106934 1.0719095468521118
25.78485870361328 11.193384170532227 1.0643811225891113
25.570615768432617 11.16349983215332 1.0551466941833496
25.370630264282227 11.138931274414062 1.0474854707717896
25.187381744384766 11.122714042663574 1.0409001111984253
24.996807098388672 11.100603103637695 1.0323013067245483
24.816816329956055 11.082385063171387 1.0261688232421875
24.647228240966797 11.069866180419922 1.0175302028656006
24.45626449584961 11.04514217376709 1.0089499950408936
24.102893829345703 11.007997512817383 0.9946538209915161
23.92353630065918 10.986141204833984 0.9881901144981384
23.60065460205078 10.958454132080078 0.9751620292663574
23.116052627563477 10.910613059997559 0.9548296928405762
22.63637351989746 10.85873794555664 0.936281681060791
22.180267333984375 10.813664436340332 0.9172214269638062
21.730621337890625 10.76405143737793 0.8999244570732117
21.300113677978516 10.718088150024414 0.8819559812545776
21.015274047851562 10.685909271240234 0.8708810210227966
20.879077911376953 10.671242713928223 0.8638958930969238
20.620689392089844 10.648946762084961 0.853634238243103
20.476015090942383 10.628114700317383 0.8471463918685913
20.350046157836914 10.617977142333984 0.8417665958404541
20.213645935058594 10.600234031677246 0.8367351293563843
20.09206199645996 10.589693069458008 0.8315181732177734
19.96752166748047 10.578619003295898 0.8270037770271301
19.827611923217773 10.557249069213867 0.821033239364624
19.696191787719727 10.539793014526367 0.8162044286727905
19.59572410583496 10.539939880371094 0.8116134405136108
19.46663475036621 10.522649765014648 0.806104302406311
19.344310760498047 10.509662628173828 0.801674485206604
19.219921112060547 10.494123458862305 0.796372652053833
19.112567901611328 10.487052917480469 0.7925418615341187
18.981197357177734 10.46778678894043 0.7869763374328613
18.86449432373047 10.454540252685547 0.7827543020248413
18.74786949157715 10.44081974029541 0.7775017023086548
18.646934509277344 10.436860084533691 0.7732102274894714
18.516759872436523 10.414523124694824 0.7684304714202881
18.414335250854492 10.407276153564453 0.7640570402145386
18.30228614807129 10.395597457885742 0.7600536942481995
18.205732345581055 10.390783309936523 0.7556573748588562
17.969064712524414 10.356277465820312 0.7449139356613159
17.862411499023438 10.344246864318848 0.7401191592216492
17.64743423461914 10.319241523742676 0.731756329536438
17.347972869873047 10.291025161743164 0.7195422649383545
17.041282653808594 10.25446891784668 0.7080073356628418
16.741226196289062 10.219215393066406 0.6960797905921936
16.442852020263672 10.17951774597168 0.6839575171470642
16.158281326293945 10.144408226013184 0.6724281907081604
15.978041648864746 10.125022888183594 0.6655341386795044
15.889360427856445 10.115392684936523 0.6615678668022156
15.709835052490234 10.094327926635742 0.654958188533783
15.628439903259277 10.087911605834961 0.6504034996032715
15.525849342346191 10.068455696105957 0.6458921432495117
15.444393157958984 10.061506271362305 0.643376350402832
15.34997272491455 10.045430183410645 0.6391892433166504
15.264684677124023 10.0362548828125 0.635412871837616
15.16901683807373 10.018503189086914 0.6322951912879944
15.085372924804688 10.008281707763672 0.6285662651062012
15.011425018310547 10.005470275878906 0.6261402368545532
14.935505867004395 9.999692916870117 0.6229725480079651
14.834040641784668 9.97744083404541 0.6185299158096313
14.760124206542969 9.972551345825195 0.6160836815834045
14.656170845031738 9.946677207946777 0.6117528676986694
14.597637176513672 9.952567100524902 0.6091158390045166
14.50517749786377 9.933683395385742 0.6058887243270874
14.424148559570312 9.922225952148438 0.6025204658508301
14.35147476196289 9.917466163635254 0.5993021130561829
14.278670310974121 9.91099739074707 0.5968935489654541
14.195704460144043 9.897127151489258 0.5934508442878723
14.107606887817383 9.880558013916016 0.5895953178405762
14.042333602905273 9.878340721130371 0.5874999761581421
13.965028762817383 9.868350982666016 0.5843183398246765
13.891793251037598 9.860156059265137 0.5810735821723938
13.821027755737305 9.85312271118164 0.5787471532821655
13.662931442260742 9.827463150024414 0.5720175504684448
13.587461471557617 9.817020416259766 0.5687038898468018
13.438233375549316 9.7946138381958 0.5631445646286011
13.239460945129395 9.77777099609375 0.5553687810897827
13.017398834228516 9.74181079864502 0.546643853187561
12.834847450256348 9.731667518615723 0.5395662784576416
12.62585163116455 9.69906997680664 0.531393826007843
12.424958229064941 9.669554710388184 0.5226008296012878
12.304158210754395 9.658761978149414 0.5182654857635498
12.24288558959961 9.652050971984863 0.5155801773071289
12.116312026977539 9.635024070739746 0.5108008980751038
12.044705390930176 9.619206428527832 0.5084275603294373
11.968246459960938 9.599833488464355 0.5053219795227051
11.927947044372559 9.608510971069336 0.5035303831100464
11.860193252563477 9.594585418701172 0.5013115406036377
11.812204360961914 9.597328186035156 0.49941086769104004
11.740954399108887 9.580208778381348 0.4963173270225525
11.679086685180664 9.570168495178223 0.49434444308280945
11.614201545715332 9.558542251586914 0.49154189229011536
11.562357902526855 9.556190490722656 0.4894649386405945
11.507597923278809 9.55212688446045 0.48709017038345337
11.45819091796875 9.55159854888916 0.485647976398468
11.379669189453125 9.526237487792969 0.4822500944137573
11.327030181884766 9.523148536682129 0.4801633358001709
11.268841743469238 9.5144624710083 0.4776371419429779
11.220468521118164 9.513572692871094 0.47623106837272644
11.155637741088867 9.499391555786133 0.47343921661376953
11.111804962158203 9.502167701721191 0.47171664237976074
11.0526123046875 9.491329193115234 0.46914929151535034
10.990754127502441 9.479077339172363 0.4671931266784668
10.941734313964844 9.47646713256836 0.4652482271194458
10.898426055908203 9.479528427124023 0.4633791744709015
10.834009170532227 9.463311195373535 0.4606006145477295
10.781895637512207 9.457308769226074 0.459031879901886
10.724320411682129 9.447171211242676 0.4563741683959961
10.67593765258789 9.444215774536133 0.45583850145339966
10.623281478881836 9.43791675567627 0.45357653498649597
10.580138206481934 9.438946723937988 0.4517037272453308
10.529254913330078 9.433112144470215 0.4495079517364502
10.47266674041748 9.422574996948242 0.4472677409648895
10.366090774536133 9.405075073242188 0.44334718585014343
10.307737350463867 9.392110824584961 0.4408513307571411
10.209076881408691 9.381205558776855 0.43747007846832275
10.082304000854492 9.382298469543457 0.43203267455101013
9.927895545959473 9.355758666992188 0.42626121640205383
9.790034294128418 9.34273910522461 0.421202152967453
9.706254959106445 9.341207504272461 0.4176403880119324
9.643539428710938 9.319474220275879 0.4149536192417145
9.552236557006836 9.309358596801758 0.41171950101852417
9.512336730957031 9.309281349182129 0.410663366317749
9.461799621582031 9.299236297607422 0.4085225760936737
9.429954528808594 9.306488037109375 0.40780818462371826
9.372114181518555 9.288116455078125 0.4053385853767395
9.334311485290527 9.290019989013672 0.4039229154586792
9.283628463745117 9.278005599975586 0.40175971388816833
9.243471145629883 9.276534080505371 0.40005990862846375
9.192058563232422 9.26419448852539 0.3985147178173065
9.166092872619629 9.276447296142578 0.39742743968963623
9.111627578735352 9.25992488861084 0.3952779769897461
9.074250221252441 9.261189460754395 0.39371636509895325
9.017171859741211 9.241459846496582 0.3912872076034546
8.980371475219727 9.242923736572266 0.3897548317909241
8.937406539916992 9.236978530883789 0.38855278491973877
8.891641616821289 9.228164672851562 0.3866163492202759
8.856098175048828 9.23041820526123 0.3853088617324829
8.812110900878906 9.222806930541992 0.3834472894668579
8.774717330932617 9.222149848937988 0.38187986612319946
8.727764129638672 9.211889266967773 0.3805212676525116
8.682900428771973 9.20295238494873 0.37862998247146606
8.651467323303223 9.207842826843262 0.37748396396636963
8.607381820678711 9.199987411499023 0.3756416440010071
8.55636978149414 9.183829307556152 0.37348443269729614
8.525331497192383 9.189558029174805 0.37341997027397156
8.476357460021973 9.174880981445312 0.3713436722755432
8.444979667663574 9.179300308227539 0.3700466752052307
8.41545295715332 9.186274528503418 0.3688473105430603
8.358370780944824 9.162064552307129 0.36641925573349
8.32090950012207 9.160226821899414 0.36487770080566406
8.285886764526367 9.159790992736816 0.3641752600669861
8.202642440795898 9.144887924194336 0.3607049286365509
8.169425964355469 9.14596939086914 0.3593282401561737
8.091407775878906 9.135775566101074 0.356095552444458
8.052231788635254 9.129642486572266 0.3546193242073059
7.982091426849365 9.12731647491455 0.3523220419883728
7.942598342895508 9.120281219482422 0.35067522525787354
7.895956039428711 9.105927467346191 0.3487362265586853
7.86217737197876 9.105079650878906 0.3473435044288635
7.7975077629089355 9.107443809509277 0.34487026929855347
7.753747940063477 9.094467163085938 0.34361299872398376
7.68502140045166 9.091129302978516 0.340806782245636
7.644094944000244 9.080869674682617 0.3391003906726837
7.606911659240723 9.075979232788086 0.33872586488723755
7.583706378936768 9.086528778076172 0.33780941367149353
7.539445877075195 9.071939468383789 0.33611324429512024
7.512923240661621 9.07917308807373 0.3350709080696106
7.45379638671875 9.045873641967773 0.33255231380462646
7.433055877685547 9.059181213378906 0.33175668120384216
7.396954536437988 9.05431842803955 0.3302881121635437
7.372727870941162 9.06298542022705 0.3293318748474121
7.322194576263428 9.040247917175293 0.3277835249900818
7.299513816833496 9.050580978393555 0.3268989622592926
7.256013870239258 9.034951210021973 0.3252323865890503
7.217963218688965 9.027002334594727 0.32368403673171997
7.192386150360107 9.03338623046875 0.322672575712204
7.152660369873047 9.021849632263184 0.3210245966911316
7.120919704437256 9.021333694458008 0.31976330280303955
7.083333492279053 9.012107849121094 0.3182133138179779
7.057956695556641 9.018521308898926 0.3172220289707184
7.014183044433594 9.00190258026123 0.31610944867134094
6.977343559265137 8.993054389953613 0.3145957291126251
6.94424295425415 8.989977836608887 0.31327491998672485
6.915050983428955 8.990690231323242 0.3121064007282257
6.885071277618408 8.990256309509277 0.310901403427124
6.847174644470215 8.980449676513672 0.30936792492866516
6.81510591506958 8.97696590423584 0.30807140469551086
6.780939102172852 8.970553398132324 0.3072217106819153
6.745994567871094 8.964068412780762 0.30596375465393066
6.716339111328125 8.963316917419434 0.3047800064086914
6.6910223960876465 8.968253135681152 0.30379098653793335
6.657900333404541 8.963746070861816 0.3024739921092987
6.6284637451171875 8.962912559509277 0.30129867792129517
6.593624114990234 8.955757141113281 0.2999066114425659
6.567337989807129 8.958934783935547 0.2994112968444824
6.526966094970703 8.94272232055664 0.2977391481399536
6.498708248138428 8.944066047668457 0.2966459393501282
6.460912704467773 8.930962562561035 0.2952353358268738
6.439410209655762 8.940250396728516 0.2944280207157135
6.4054460525512695 8.933273315429688 0.2930752635002136
6.383683204650879 8.942049026489258 0.2922588586807251
6.34368371963501 8.926280975341797 0.29062920808792114
6.3136372566223145 8.923160552978516 0.28943413496017456
6.277939796447754 8.911874771118164 0.2879767417907715
6.246776580810547 8.907994270324707 0.2867559492588043
6.210864067077637 8.895997047424316 0.28528979420661926
6.197336196899414 8.915983200073242 0.28537634015083313
6.1575446128845215 8.899240493774414 0.2837596833705902
6.138062477111816 8.91054630279541 0.28319334983825684
6.102245330810547 8.898018836975098 0.28173351287841797
6.0692853927612305 8.890618324279785 0.2804286479949951
6.042020797729492 8.890243530273438 0.27950653433799744
6.01162576675415 8.8862943649292 0.2783212959766388
5.9829277992248535 8.883540153503418 0.27719107270240784
5.9530720710754395 8.878921508789062 0.2760081887245178
5.928177833557129 8.882757186889648 0.27508223056793213
5.899023056030273 8.878923416137695 0.2739323675632477
5.868447303771973 8.872794151306152 0.2727174460887909
5.840478420257568 8.871637344360352 0.27164971828460693
5.805600166320801 8.85862922668457 0.2702341079711914
5.78513765335083 8.8674898147583 0.26949089765548706
5.749764919281006 8.854546546936035 0.26807901263237
5.7221784591674805 8.852229118347168 0.26764845848083496
5.694692611694336 8.849937438964844 0.26657816767692566
5.67081880569458 8.854344367980957 0.2657034993171692
5.638167381286621 8.843719482421875 0.2643924355506897
5.615949630737305 8.85026741027832 0.2635901868343353
5.573855400085449 8.824610710144043 0.26184162497520447
5.549646854400635 8.826799392700195 0.260928213596344
5.525903224945068 8.83084487915039 0.2600623369216919
5.5032148361206055 8.835308074951172 0.2592206299304962
5.4629669189453125 8.811384201049805 0.25755375623703003
5.431818962097168 8.803080558776855 0.256336510181427
5.404952049255371 8.800352096557617 0.25529995560646057
5.391153335571289 8.819823265075684 0.25490328669548035
5.352469444274902 8.797769546508789 0.25357937812805176
5.333134174346924 8.807095527648926 0.25290024280548096
5.302627086639404 8.799084663391113 0.25171706080436707
5.275019645690918 8.79450511932373 0.2506464719772339
5.252556800842285 8.798395156860352 0.24982017278671265
5.229705810546875 8.802789688110352 0.24900200963020325
5.19312047958374 8.782663345336914 0.24750369787216187
5.176146507263184 8.795567512512207 0.24694138765335083
5.143856048583984 8.783570289611816 0.24567349255084991
5.122281074523926 8.788500785827637 0.24489229917526245
5.0921950340271 8.778705596923828 0.2437056005001068
5.0685834884643555 8.781167030334473 0.24285265803337097
5.03989315032959 8.773463249206543 0.24173206090927124
5.013301849365234 8.770232200622559 0.24073225259780884
4.978967666625977 8.752540588378906 0.23934519290924072
4.957863807678223 8.757678985595703 0.23858913779258728
4.927394866943359 8.747390747070312 0.2374092936515808
4.903791427612305 8.747893333435059 0.2365332543849945
4.88536262512207 8.757575035095215 0.23590809106826782
4.862081050872803 8.759772300720215 0.23507551848888397
4.833885669708252 8.751726150512695 0.2339794635772705
4.810488700866699 8.752232551574707 0.2331160604953766
4.783003807067871 8.746438026428223 0.23220983147621155
4.755041599273682 8.738333702087402 0.23112428188323975
4.726526737213135 8.729028701782227 0.23014147579669952
4.701234817504883 8.726792335510254 0.22921213507652283
6.0625152587890625 -10.691882133483887 0.30421018600463867
6.092309951782227 -10.692651748657227 0.30534201860427856
6.126104831695557 -10.69876480102539 0.306643009185791
6.151735305786133 -10.692010879516602 0.30756819248199463
6.180234909057617 -10.690164566040039 0.3086373805999756
6.214975357055664 -10.697449684143066 0.30998557806015015
6.246152400970459 -10.699931144714355 0.31118953227996826
6.272867202758789 -10.694658279418945 0.3121708035469055
6.305276870727539 -10.697482109069824 0.31340450048446655
6.3263959884643555 -10.682575225830078 0.31470558047294617
6.3623809814453125 -10.691499710083008 0.3161255121231079
6.383422374725342 -10.676063537597656 0.3168221712112427
6.417466640472412 -10.682607650756836 0.31817197799682617
6.475107192993164 -10.676441192626953 0.32032305002212524
6.50252628326416 -10.671642303466797 0.3213464021682739
6.560827255249023 -10.665972709655762 0.3235345184803009
6.590662479400635 -10.663676261901855 0.32448992133140564
6.6570329666137695 -10.671459197998047 0.32710370421409607
6.74245548248291 -10.658592224121094 0.3303130269050598
6.845398902893066 -10.67222785949707 0.3337774872779846
6.921285152435303 -10.642714500427246 0.33653512597084045
7.099974632263184 -10.621715545654297 0.3439728617668152
7.199048042297363 -10.624448776245117 0.34787485003471375
7.290501594543457 -10.615095138549805 0.35080423951148987
7.384072303771973 -10.607816696166992 0.35445934534072876
7.483304500579834 -10.607525825500488 0.35839325189590454
7.518635272979736 -10.610791206359863 0.35965394973754883
7.544014930725098 -10.598834037780762 0.36058539152145386
7.584843635559082 -10.609230041503906 0.36227381229400635
7.605366230010986 -10.591409683227539 0.36299991607666016
7.6444315910339355 -10.597953796386719 0.36458122730255127
7.678524017333984 -10.598791122436523 0.3659568428993225
7.714027404785156 -10.601421356201172 0.36677148938179016
7.731100082397461 -10.577315330505371 0.36730846762657166
7.777632236480713 -10.594759941101074 0.3692764341831207
7.80238151550293 -10.582365036010742 0.3708420395851135
7.838764190673828 -10.584300994873047 0.372300386428833
7.878238677978516 -10.591573715209961 0.3739367723464966
7.902731895446777 -10.57724380493164 0.37483251094818115
7.936944007873535 -10.577184677124023 0.37622109055519104
7.968694686889648 -10.573718070983887 0.37685883045196533
8.003705978393555 -10.573108673095703 0.37825557589530945
8.04126262664795 -10.57703685760498 0.3798040747642517
8.068268775939941 -10.566972732543945 0.3808550536632538
8.109343528747559 -10.573862075805664 0.3823661804199219
8.134202003479004 -10.560818672180176 0.38331833481788635
8.170238494873047 -10.562192916870117 0.3847985565662384
8.206650733947754 -10.5625638961792 0.38626694679260254
8.241480827331543 -10.562079429626465 0.3876921832561493
8.276150703430176 -10.561248779296875 0.3891109228134155
8.31037712097168 -10.558389663696289 0.38983505964279175
8.343485832214355 -10.55531120300293 0.39118143916130066
8.37891960144043 -10.553716659545898 0.3926078975200653
8.409274101257324 -10.546932220458984 0.3938279449939728
8.445611000061035 -10.547527313232422 0.39515218138694763
8.523384094238281 -10.553256034851074 0.39836540818214417
8.544285774230957 -10.53433609008789 0.39914825558662415
8.622174263000488 -10.539328575134277 0.40237343311309814
8.664447784423828 -10.546271324157715 0.4041578471660614
8.741365432739258 -10.549003601074219 0.40668633580207825
8.77055835723877 -10.53963851928711 0.40786367654800415
8.84520435333252 -10.538753509521484 0.4109489917755127
8.999436378479004 -10.586637496948242 0.41737791895866394
9.20527458190918 -10.6918306350708 0.4257134795188904
9.92788314819336 -11.240743637084961 0.4571022093296051
10.051441192626953 -11.23746109008789 0.46209466457366943
10.163846015930176 -11.220369338989258 0.4660587012767792
10.298563957214355 -11.226432800292969 0.47178247570991516
10.378059387207031 -11.217883110046387 0.4741894602775574
10.41403579711914 -11.210017204284668 0.47570401430130005
10.451751708984375 -11.203897476196289 0.47730010747909546
10.494363784790039 -11.201505661010742 0.47908973693847656
10.536726951599121 -11.20004940032959 0.48016345500946045
10.574915885925293 -11.194005966186523 0.48158296942710876
10.6215181350708 -11.195330619812012 0.48355767130851746
10.665830612182617 -11.195417404174805 0.48546093702316284
10.71094799041748 -11.196158409118652 0.4874024987220764
10.7410888671875 -11.179755210876465 0.4886336624622345
10.792071342468262 -11.186262130737305 0.4900991916656494
10.825252532958984 -11.17386245727539 0.4912921190261841
10.881309509277344 -11.184112548828125 0.49371084570884705
10.91446304321289 -11.171709060668945 0.4951164722442627
10.96048641204834 -11.170975685119629 0.4970766007900238
11.00861930847168 -11.173556327819824 0.49841248989105225
11.042627334594727 -11.161355018615723 0.4996494650840759
11.084619522094727 -11.156325340270996 0.5014376044273376
11.135262489318848 -11.160876274108887 0.5036426782608032
11.168697357177734 -11.146662712097168 0.5042838454246521
11.226619720458984 -11.158063888549805 0.5068198442459106
11.260952949523926 -11.145830154418945 0.5082921385765076
11.310397148132324 -11.1470365524292 0.5094478726387024
11.356494903564453 -11.146106719970703 0.5114532709121704
11.399784088134766 -11.142242431640625 0.5133348107337952
11.446571350097656 -11.1402587890625 0.515344500541687
11.493825912475586 -11.139899253845215 0.5171982645988464
11.535989761352539 -11.134429931640625 0.5182650685310364
11.583438873291016 -11.132529258728027 0.5203091502189636
11.639647483825684 -11.140176773071289 0.5227782130241394
11.765317916870117 -11.119583129882812 0.5272512435913086
11.900703430175781 -11.106730461120605 0.5321676731109619
39.882240295410156 -35.383296966552734 1.7697371244430542
40.375274658203125 -35.36960983276367 1.7908475399017334
13.048713684082031 -11.334185600280762 0.5779380202293396
40.85698699951172 -35.340118408203125 1.8096336126327515
41.20197677612305 -35.33628845214844 1.8216221332550049
41.35978698730469 -35.32292938232422 1.8286802768707275
41.885005950927734 -35.31854248046875 1.848743200302124
36.06956481933594 -30.156312942504883 1.5908108949661255
42.38967514038086 -35.290523529052734 1.8679287433624268
42.56633377075195 -35.28390884399414 1.8757652044296265
36.523414611816406 -30.147686004638672 1.608224630355835
42.92191696166992 -35.279144287109375 1.8883640766143799
43.09821701049805 -35.27005386352539 1.8954741954803467
43.44580078125 -35.253501892089844 1.9050201177597046
43.615692138671875 -35.238040924072266 1.9126131534576416
43.778717041015625 -35.2198600769043 1.9172865152359009
43.08488082885742 -34.51029968261719 1.8863635063171387
43.1710319519043 -34.43247985839844 1.8903820514678955
45.00038146972656 -34.974998474121094 1.964907169342041
46.177032470703125 -35.11814880371094 2.0107595920562744
40.9503173828125 -29.941781997680664 1.7699177265167236
49.759239196777344 -34.95674514770508 2.145660161972046
50.35947036743164 -34.90765380859375 2.169527530670166
50.7698974609375 -34.876522064208984 2.1854329109191895
51.44072341918945 -34.86338806152344 2.21161150932312
51.64971923828125 -34.848838806152344 2.2182962894439697
51.8663330078125 -34.83759307861328 2.2282888889312744
52.29418182373047 -34.80726623535156 2.2442116737365723
52.76883316040039 -34.803401947021484 2.258272171020508
53.4570426940918 -34.777042388916016 2.286118268966675
45.796775817871094 -29.65871810913086 1.95364511013031
53.896324157714844 -34.74065399169922 2.3025450706481934
17.334625244140625 -10.917736053466797 0.7393884658813477
17.425060272216797 -10.924257278442383 0.7422754764556885
17.56431007385254 -10.908782958984375 0.7487711906433105
17.62954330444336 -10.898664474487305 0.750586986541748
17.76845932006836 -10.881382942199707 0.7558161020278931
17.843564987182617 -10.87652587890625 0.7593276500701904
17.999675750732422 -10.867979049682617 0.765302300453186
60.757164001464844 -34.121238708496094 2.5694284439086914
28.68817901611328 -15.716869354248047 1.2130906581878662
62.337196350097656 -33.98477554321289 2.6309902667999268
62.62281036376953 -33.971038818359375 2.6409730911254883
62.87398147583008 -33.93471908569336 2.651952028274536
63.6484260559082 -33.83774948120117 2.680943250656128
63.89967346191406 -33.80142593383789 2.692037582397461
64.22332000732422 -33.80117416381836 2.702690601348877
65.0116958618164 -33.69194412231445 2.734825372695923
30.34380340576172 -15.564416885375977 1.277345895767212
20.82244873046875 -10.625592231750488 0.8748403787612915
20.98304557800293 -10.597665786743164 0.8811640739440918
21.2996826171875 -10.58878231048584 0.8942203521728516
68.28206634521484 -33.41160583496094 2.8624420166015625
69.15161895751953 -33.29991912841797 2.8994433879852295
64.8237533569336 -28.251924514770508 2.707827091217041
76.60829162597656 -32.43458938598633 3.1964757442474365
25.160005569458008 -10.281210899353027 1.0479979515075684
25.279226303100586 -10.207308769226074 1.0551162958145142
80.16439819335938 -31.97699737548828 3.3455657958984375
69.35552215576172 -27.1625919342041 2.8924672603607178
26.42281723022461 -10.092351913452148 1.1016018390655518
84.7659912109375 -31.36121368408203 3.531137704849243
86.00263214111328 -31.205488204956055 3.580002784729004
29.7109375 -9.733123779296875 1.235954999923706
30.600305557250977 -9.669963836669922 1.2706198692321777
30.752178192138672 -9.647812843322754 1.2780628204345703
30.91469955444336 -9.627935409545898 1.2839787006378174
95.88206481933594 -29.637908935546875 3.979646921157837
96.87279510498047 -29.50285530090332 4.0218281745910645
97.7481918334961 -29.320188522338867 4.0543413162231445
98.70993041992188 -29.1561222076416 4.094045639038086
99.20228576660156 -29.077861785888672 4.111955642700195
47.10797882080078 -13.698854446411133 1.9539036750793457
33.73442459106445 -9.352027893066406 1.4005441665649414
35.25321960449219 -9.138779640197754 1.4614853858947754
119.49380493164062 -25.676254272460938 4.936275005340576
41.0622444152832 -8.46412181854248 1.695845603942871
41.227108001708984 -8.408957481384277 1.7019363641738892
41.7490119934082 -8.332422256469727 1.7225699424743652
42.02171325683594 -8.29411792755127 1.735147476196289
42.5914192199707 -8.222479820251465 1.7572461366653442
43.385520935058594 -8.093208312988281 1.7884515523910522
152.2462615966797 -19.55337905883789 6.24503231048584
53.61764144897461 -6.656851291656494 2.198179244995117
55.323307037353516 -6.515736103057861 2.2663767337799072
55.503780364990234 -6.419494152069092 2.273959159851074
56.14390563964844 -6.372768402099609 2.299621343612671
164.6617431640625 -17.996414184570312 6.7492194175720215
163.6346893310547 -17.187061309814453 6.7041215896606445
166.07464599609375 -16.388444900512695 6.799737930297852
166.59909057617188 -16.083087921142578 6.819800853729248
170.55606079101562 -15.748702049255371 6.979013919830322
170.40301513671875 -15.369717597961426 6.971414089202881
74.134521484375 -3.404078245162964 3.0177149772644043
199.5155029296875 -8.319446563720703 8.12241268157959
78.88397216796875 -2.6277358531951904 3.2104685306549072
83.28811645507812 -2.4233267307281494 3.380207061767578
85.04891967773438 -1.5823231935501099 3.4507434368133545
85.58609008789062 -1.413521647453308 3.4724671840667725
91.50105285644531 -0.36061832308769226 3.711956262588501
92.79547119140625 -0.16870494186878204 3.7644124031066895
95.7164535522461 0.42522698640823364 3.3914904594421387
96.71725463867188 0.630379319190979 3.427032947540283
98.59359741210938 1.0578629970550537 3.4936275482177734
101.2564697265625 1.5129400491714478 3.591715097427368
116.27464294433594 4.912473201751709 4.120305061340332
142.080810546875 10.49284553527832 5.047379970550537
150.19747924804688 12.042112350463867 5.338304042816162
153.0646514892578 12.591724395751953 5.441125869750977
159.39744567871094 13.788761138916016 5.668254852294922
162.56307983398438 14.410405158996582 5.78190279006958
166.1543426513672 15.078514099121094 5.900544166564941
84.88465118408203 12.76649284362793 3.0273423194885254
82.00792694091797 12.68725299835205 2.9266345500946045
81.62501525878906 12.801517486572266 2.9099137783050537
79.07535552978516 12.743083000183105 2.8198959827423096
77.45967102050781 12.651535034179688 2.7632253170013428
76.38336944580078 12.63952922821045 2.7257704734802246
75.17047882080078 12.599138259887695 2.6907811164855957
74.38102722167969 12.629262924194336 2.6634678840637207
73.36111450195312 12.613740921020508 2.6279165744781494
71.30952453613281 12.570405006408691 2.5527708530426025
69.81976318359375 12.457239151000977 2.499472141265869
67.9044189453125 12.41080093383789 2.432734489440918
66.9066390991211 12.371980667114258 2.394624710083008
65.60536193847656 12.276349067687988 2.348120927810669
65.23969268798828 12.348104476928711 2.335951566696167
63.27322006225586 12.252140998840332 2.26424241065979
62.392852783203125 12.216052055358887 2.2336337566375732
60.82135009765625 12.17455005645752 2.178401470184326
52.92545700073242 11.98894214630127 1.9017982482910156
51.791324615478516 11.96156120300293 1.860270619392395
51.163780212402344 11.928515434265137 1.8379364013671875
50.098960876464844 11.902935028076172 1.7989819049835205
49.59329605102539 11.89157485961914 1.7817054986953735
49.101741790771484 11.884024620056152 1.7643033266067505
48.60590362548828 11.871505737304688 1.744956135749817
48.13490676879883 11.862369537353516 1.7289245128631592
47.66930389404297 11.855701446533203 1.7124773263931274
47.271366119384766 11.86095142364502 1.6967138051986694
46.7415771484375 11.833576202392578 1.6785926818847656
46.294429779052734 11.823286056518555 1.6634154319763184
45.87858200073242 11.818552017211914 1.646456241607666
45.44240188598633 11.809762001037598 1.6317017078399658
45.02322006225586 11.800621032714844 1.617527723312378
44.22010040283203 11.78936767578125 1.5876470804214478
43.82949447631836 11.782702445983887 1.5744950771331787
43.04541015625 11.766522407531738 1.5486695766448975
41.995269775390625 11.763691902160645 1.510854959487915
40.92002487182617 11.740423202514648 1.4721958637237549
38.095985412597656 11.628194808959961 1.3701413869857788
37.68611526489258 11.588632583618164 1.3557536602020264
36.952552795410156 11.53361988067627 1.3292326927185059
36.614898681640625 11.51167106628418 1.315596580505371
36.251712799072266 11.482640266418457 1.303426742553711
35.865943908691406 11.442398071289062 1.2904047966003418
35.550174713134766 11.422996520996094 1.2776154279708862
35.22106170654297 11.400310516357422 1.2666590213775635
34.891239166259766 11.3735990524292 1.2551708221435547
34.53458786010742 11.338519096374512 1.2401680946350098
34.22486877441406 11.316051483154297 1.229891300201416
33.87694549560547 11.279054641723633 1.2160450220108032
33.586551666259766 11.262129783630371 1.2064824104309082
33.26742935180664 11.231976509094238 1.1958534717559814
32.97350311279297 11.209492683410645 1.1839988231658936
32.639732360839844 11.173396110534668 1.1728626489639282
32.34102249145508 11.146172523498535 1.161309003829956
32.07638168334961 11.131684303283691 1.152219295501709
31.763307571411133 11.096941947937012 1.1417975425720215
31.48722267150879 11.073859214782715 1.130657434463501
31.205595016479492 11.049776077270508 1.121389389038086
30.94277572631836 11.029029846191406 1.1107577085494995
30.406583786010742 10.982454299926758 1.0931603908538818
30.15381622314453 10.961950302124023 1.0829285383224487
29.64133644104004 10.917192459106445 1.0642348527908325
28.17667579650879 10.78238296508789 1.0127531290054321
27.49683380126953 10.72240924835205 0.9846697449684143
27.059757232666016 10.681971549987793 0.9688244462013245
26.843238830566406 10.662433624267578 0.9618808627128601
26.449689865112305 10.635293960571289 0.9476335644721985
26.233928680419922 10.611832618713379 0.9393266439437866
25.843820571899414 10.580896377563477 0.9252385497093201
25.645414352416992 10.561859130859375 0.9185607433319092
25.45305061340332 10.544853210449219 0.911129891872406
25.2547607421875 10.525585174560547 0.9044762849807739
25.062641143798828 10.506612777709961 0.8983749151229858
24.872867584228516 10.489583969116211 0.8907246589660645
24.704036712646484 10.478819847106934 0.8854554891586304
24.50871467590332 10.45640754699707 0.8776077628135681
24.33623695373535 10.44395637512207 0.8722234964370728
24.159387588500977 10.427482604980469 0.8650514483451843
23.976268768310547 10.409263610839844 0.8592888712882996
23.815921783447266 10.39844036102295 0.8527253270149231
23.641305923461914 10.381031036376953 0.8472479581832886
23.489444732666016 10.373894691467285 0.8410239219665527
23.337236404418945 10.364601135253906 0.8314218521118164
22.99549102783203 10.328989028930664 0.8192515969276428
22.830455780029297 10.311848640441895 0.8138090968132019
22.534238815307617 10.292535781860352 0.8032745122909546
22.375408172607422 10.276515007019043 0.7971907258033752
22.078601837158203 10.253012657165527 0.7866582870483398
21.641189575195312 10.215760231018066 0.7715744376182556
21.20566177368164 10.173674583435059 0.7554389238357544
20.95261573791504 10.161043167114258 0.7465184926986694
20.804780960083008 10.14397144317627 0.7420164346694946
20.519371032714844 10.110763549804688 0.7308348417282104
20.40540313720703 10.10851001739502 0.7272433042526245
20.140300750732422 10.083038330078125 0.7179270386695862
20.006179809570312 10.067869186401367 0.712520956993103
19.866790771484375 10.049768447875977 0.7047971487045288
19.736528396606445 10.03656005859375 0.6998659372329712
19.635700225830078 10.036947250366211 0.6956857442855835
19.515560150146484 10.026670455932617 0.6921620965003967
19.38534927368164 10.011853218078613 0.6869651079177856
19.284774780273438 10.010976791381836 0.6841362714767456
19.172760009765625 10.00456428527832 0.679594099521637
19.03158187866211 9.98119831085205 0.6750452518463135
18.92758560180664 9.977107048034668 0.671062707901001
18.806190490722656 9.964201927185059 0.6662079095840454
18.693572998046875 9.954580307006836 0.6629531383514404
18.577970504760742 9.942560195922852 0.6582990884780884
18.469003677368164 9.934749603271484 0.6549096703529358
18.350147247314453 9.920273780822754 0.6504254341125488
18.214338302612305 9.896888732910156 0.6460889577865601
18.120189666748047 9.894492149353027 0.6424816846847534
18.010604858398438 9.884658813476562 0.6380889415740967
17.89448356628418 9.869303703308105 0.6344325542449951
17.803295135498047 9.86755084991455 0.6309486627578735
17.683317184448242 9.850192070007324 0.627174973487854
17.580368041992188 9.840703964233398 0.6232757568359375
17.481225967407227 9.833205223083496 0.6192630529403687
17.292102813720703 9.822917938232422 0.6122908592224121
17.19394874572754 9.814411163330078 0.6066760420799255
16.976722717285156 9.78543758392334 0.5990111231803894
16.77555274963379 9.763833999633789 0.5912381410598755
16.673583984375 9.750862121582031 0.5883549451828003
16.477521896362305 9.729560852050781 0.58054119348526
16.39349365234375 9.725881576538086 0.5782886147499084
16.198612213134766 9.702726364135742 0.5714527368545532
16.003971099853516 9.677952766418457 0.5639751553535461
15.914318084716797 9.669944763183594 0.5612969994544983
15.827558517456055 9.662256240844727 0.5580510497093201
15.731389999389648 9.648696899414062 0.5542433857917786
15.651325225830078 9.64538288116455 0.5519043207168579
15.537702560424805 9.620185852050781 0.5477269887924194
15.472249984741211 9.624134063720703 0.5450066924095154
15.374597549438477 9.608728408813477 0.5420500636100769
15.2910737991333 9.60098648071289 0.538942277431488
15.215168952941895 9.598430633544922 0.536749541759491
15.121432304382324 9.583223342895508 0.533283531665802
15.041509628295898 9.576653480529785 0.5296168327331543
14.95496654510498 9.566240310668945 0.5253444314002991
14.870002746582031 9.555705070495605 0.5222097039222717
14.780348777770996 9.541488647460938 0.5195271372795105
14.698221206665039 9.532745361328125 0.5162784457206726
14.636987686157227 9.536511421203613 0.5139836668968201
14.547077178955078 9.520992279052734 0.5112974643707275
14.468828201293945 9.513721466064453 0.5081967711448669
14.378036499023438 9.497085571289062 0.5046504735946655
14.310403823852539 9.496116638183594 0.5029841065406799
14.219964027404785 9.47892951965332 0.4994576573371887
14.175142288208008 9.491598129272461 0.4975300431251526
14.061394691467285 9.458736419677734 0.4942425489425659
13.999014854431152 9.459295272827148 0.4917105436325073
13.923426628112793 9.451342582702637 0.48873138427734375
13.8468599319458 9.441665649414062 0.4867362678050995
13.762430191040039 9.425993919372559 0.4834347665309906
13.705818176269531 9.430034637451172 0.4811337888240814
13.621428489685059 9.413941383361816 0.47806376218795776
13.55106258392334 9.406923294067383 0.4760623276233673
13.402652740478516 9.387788772583008 0.4702363610267639
13.257083892822266 9.369296073913574 0.46552038192749023
13.181805610656738 9.357172012329102 0.4623599648475647
13.057476997375488 9.351865768432617 0.45818468928337097
12.99310302734375 9.346614837646484 0.4558359384536743
12.845379829406738 9.322690963745117 0.4500880837440491
12.72027587890625 9.313934326171875 0.44611144065856934
12.660834312438965 9.310832977294922 0.44374221563339233
12.517226219177246 9.286700248718262 0.43892285227775574
12.462371826171875 9.287093162536621 0.4369415044784546
12.391071319580078 9.274266242980957 0.43417394161224365
12.334112167358398 9.27163028717041 0.4326516091823578
12.267934799194336 9.262717247009277 0.43027830123901367
12.209403991699219 9.258617401123047 0.42796722054481506
12.136988639831543 9.243435859680176 0.42516884207725525
12.081438064575195 9.24172592163086 0.42371323704719543
12.012656211853027 9.228936195373535 0.4212466776371002
11.948410034179688 9.219986915588379 0.4187592566013336
11.890266418457031 9.214797973632812 0.4164736568927765
11.828685760498047 9.206426620483398 0.4147915840148926
11.767045974731445 9.198638916015625 0.41259509325027466
11.72006607055664 9.201407432556152 0.4107111394405365
11.64880084991455 9.184593200683594 0.4084959924221039
11.589974403381348 9.17818546295166 0.4069240391254425
11.531824111938477 9.171381950378418 0.404653400182724
11.47433090209961 9.165497779846191 0.40242162346839905
11.411274909973145 9.154227256774902 0.40017610788345337
11.36128044128418 9.152935028076172 0.398898720741272
11.299964904785156 9.143171310424805 0.39653921127319336
11.253524780273438 9.144543647766113 0.39469295740127563
11.183480262756348 9.127119064331055 0.3922208547592163
11.13346004486084 9.125096321105957 0.39094752073287964
11.067489624023438 9.109488487243652 0.38841891288757324
11.012550354003906 9.103560447692871 0.38629549741744995
10.96959114074707 9.106675148010254 0.38458266854286194
10.921696662902832 9.105263710021973 0.382881224155426
10.85826301574707 9.091527938842773 0.3811500668525696
10.813655853271484 9.092657089233398 0.37938612699508667
10.7501220703125 9.077383041381836 0.3769589960575104
10.705192565917969 9.078689575195312 0.37538641691207886
10.641806602478027 9.062969207763672 0.3736424446105957
10.545763969421387 9.058076858520508 0.3699083626270294
10.499874114990234 9.056591987609863 0.36810967326164246
10.40432357788086 9.050871849060059 0.3652504086494446
10.336058616638184 9.02923583984375 0.3624943494796753
10.29500961303711 9.032224655151367 0.3622114062309265
10.244053840637207 9.025208473205566 0.3604203164577484
10.146303176879883 9.01526927947998 0.3566560745239258
10.11188793182373 9.022310256958008 0.3552754521369934
10.05576229095459 9.010890007019043 0.3538038432598114
10.005318641662598 9.003192901611328 0.35203859210014343
9.952386856079102 8.993877410888672 0.35002779960632324
9.915979385375977 8.998662948608398 0.34859001636505127
9.858400344848633 8.983787536621094 0.3464062511920929
9.821660995483398 8.988553047180176 0.34497135877609253
9.757050514221191 8.966934204101562 0.3431869447231293
9.723379135131836 8.973280906677246 0.34202033281326294
9.668379783630371 8.960610389709473 0.33994901180267334
9.61948299407959 8.952706336975098 0.3380841016769409
9.579643249511719 8.953661918640137 0.33655041456222534
9.535772323608398 8.950039863586426 0.3348665237426758
9.486404418945312 8.940803527832031 0.3336139917373657
9.445849418640137 8.94052791595459 0.33222898840904236
9.397493362426758 8.932036399841309 0.33039212226867676
9.352595329284668 8.926376342773438 0.3286747336387634
9.315008163452148 8.928374290466309 0.32723066210746765
9.268588066101074 8.921091079711914 0.32546836137771606
9.221700668334961 8.912900924682617 0.3244708180427551
9.187257766723633 8.917649269104004 0.3243773281574249
9.133654594421387 8.902504920959473 0.32235732674598694
9.09170913696289 8.899344444274902 0.3207661509513855
9.053627014160156 8.899162292480469 0.31930214166641235
9.009780883789062 8.892900466918945 0.3176328241825104
8.969443321228027 8.890995025634766 0.3161082863807678
8.9249267578125 8.883662223815918 0.3145829439163208
8.880020141601562 8.876577377319336 0.3135005831718445
8.84540843963623 8.878984451293945 0.31216713786125183
8.8017578125 8.871914863586426 0.3105124831199646
8.7625150680542 8.86994743347168 0.3090302348136902
8.709962844848633 8.853652954101562 0.3070697784423828
8.670233726501465 8.849929809570312 0.3055592477321625
8.631016731262207 8.84762954711914 0.30408766865730286
8.594644546508789 8.846999168395996 0.3028593063354492
8.514799118041992 8.8389892578125 0.3004458546638489
8.471107482910156 8.83023452758789 0.29880279302597046
8.400116920471191 8.830376625061035 0.29611921310424805
8.355133056640625 8.81966781616211 0.29443612694740295
8.277570724487305 8.811826705932617 0.29168859124183655
8.23349380493164 8.801435470581055 0.29004237055778503
8.206741333007812 8.810486793518066 0.2901844382286072
8.15549087524414 8.79197883605957 0.28828442096710205
8.08757495880127 8.792742729187012 0.2858862280845642
8.047553062438965 8.785752296447754 0.2849603593349457
7.999489784240723 8.770824432373047 0.28319624066352844
7.967404842376709 8.772138595581055 0.28198057413101196
7.925092697143555 8.76286506652832 0.28041931986808777
7.9037322998046875 8.776015281677246 0.2795902192592621
7.858777046203613 8.76259708404541 0.2779238522052765
7.817730903625488 8.754154205322266 0.27641206979751587
7.783653259277344 8.752716064453125 0.2751375436782837
7.751509666442871 8.753082275390625 0.27392882108688354
7.705328941345215 8.738473892211914 0.2722442150115967
7.6738080978393555 8.739217758178711 0.27121198177337646
7.636249542236328 8.732931137084961 0.2698160409927368
7.6095194816589355 8.739969253540039 0.26938000321388245
7.562128067016602 8.722020149230957 0.2676374614238739
7.526867866516113 8.718683242797852 0.26634058356285095
7.489811420440674 8.712474822998047 0.2649710774421692
7.4494147300720215 8.701948165893555 0.26348060369491577
7.421385288238525 8.706558227539062 0.26244401931762695
7.382473945617676 8.697632789611816 0.2610130310058594
7.3581037521362305 8.705472946166992 0.26024162769317627
7.31717586517334 8.694656372070312 0.25930255651474
7.293751239776611 8.703420639038086 0.2584187686443329
7.2543158531188965 8.692943572998047 0.25696861743927
7.2247314453125 8.695183753967285 0.25588756799697876
7.187265396118164 8.6867036819458 0.25451019406318665
7.1522626876831055 8.682093620300293 0.2532398998737335
7.128257751464844 8.68963623046875 0.25234150886535645
7.078356742858887 8.665416717529297 0.25052762031555176
7.05271053314209 8.67176342010498 0.24959254264831543
7.010120391845703 8.656030654907227 0.24804018437862396
6.986571788787842 8.664502143859863 0.24785733222961426
6.944644451141357 8.649407386779785 0.24633294343948364
6.915562629699707 8.649894714355469 0.2452613115310669
6.851238250732422 8.643824577331543 0.242921844124794
6.814673900604248 8.634441375732422 0.2415885180234909
6.793712615966797 8.645796775817871 0.24082830548286438
6.744598865509033 8.620055198669434 0.23905238509178162
6.715883255004883 8.620153427124023 0.23800073564052582
6.684789180755615 8.618154525756836 0.23688463866710663
6.6644792556762695 8.628885269165039 0.23613353073596954
6.615459442138672 8.60225772857666 0.23436535894870758
6.586963653564453 8.603175163269043 0.2333451807498932
6.5530686378479 8.59580135345459 0.2322564274072647
6.4894866943359375 8.587167739868164 0.2299681156873703
6.467142105102539 8.594622611999512 0.22915104031562805
6.42981481552124 8.583118438720703 0.22782272100448608
6.412049293518066 8.59652328491211 0.2271699756383896
6.373404502868652 8.581812858581543 0.22577854990959167
6.349021911621094 8.587246894836426 0.22491204738616943
6.324260711669922 8.590994834899902 0.22401456534862518
6.2822394371032715 8.571344375610352 0.2225106954574585
6.2493391036987305 8.564533233642578 0.2213415503501892
6.219498634338379 8.560893058776855 0.22026729583740234
6.194910049438477 8.565467834472656 0.21939854323863983
6.160930633544922 8.55582046508789 0.21817967295646667
6.126072883605957 8.544750213623047 0.21693074703216553
6.095993995666504 8.541268348693848 0.2158704698085785
6.075980186462402 8.550698280334473 0.2151491641998291
6.045079708099365 8.544710159301758 0.2140432894229889
6.013798713684082 8.5391263961792 0.2129434049129486
5.983842372894287 8.534153938293457 0.211872860789299
5.953082084655762 8.528986930847168 0.21079325675964355
5.92730712890625 8.529719352722168 0.20987267792224884
5.898164749145508 8.525481224060059 0.20883376896381378
5.8782243728637695 8.53557300567627 0.20814009010791779
5.845574378967285 8.525983810424805 0.20661644637584686
5.808089256286621 8.509119987487793 0.20528686046600342
5.7823896408081055 8.510456085205078 0.2043919861316681
5.756547927856445 8.510360717773438 0.2034752070903778
5.724119663238525 8.500375747680664 0.20219290256500244
5.69670295715332 8.49879264831543 0.20124047994613647
5.673853874206543 8.502803802490234 0.20043183863162994
5.644657611846924 8.49831485748291 0.19941848516464233
5.614418983459473 8.490968704223633 0.1983509063720703
5.588817596435547 8.490494728088379 0.19744768738746643
5.563755512237549 8.491865158081055 0.19658276438713074
5.526344299316406 8.473071098327637 0.1952643245458603
5.509600639343262 8.485832214355469 0.19467654824256897
5.4796953201293945 8.479375839233398 0.1936432272195816
5.450283527374268 8.472381591796875 0.1926097273826599
5.422064304351807 8.467323303222656 0.19162288308143616
5.388759136199951 8.454787254333496 0.19046759605407715
5.3690595626831055 8.462574005126953 0.18977947533130646
5.343161582946777 8.460761070251465 0.18887756764888763
5.317166328430176 8.459327697753906 0.18798281252384186
5.29279899597168 8.459474563598633 0.18713223934173584
5.259487152099609 8.446306228637695 0.18598487973213196
5.239363670349121 8.453032493591309 0.185285747051239
5.21397066116333 8.451179504394531 0.1844012290239334
5.177155017852783 8.431760787963867 0.18218186497688293
