VERSION .7
FIELDS x y z
SIZE 4 4 4
TYPE F F F
COUNT 1 1 1
WIDTH 850
HEIGHT 1
VIEWPOINT 0 0 0 1 0 0 0
POINTS 850
DATA ascii
6.787252426147461 6.836979389190674 0.1095430925488472
6.76438045501709 6.8424787521362305 0.10895644873380661
6.737015247344971 6.843142032623291 0.1086060181260109
6.679451942443848 6.842072010040283 0.10741820931434631
6.662693977355957 6.853300094604492 0.10737865418195724
6.629301071166992 6.848161697387695 0.10707379877567291
6.613587379455566 6.860360145568848 0.10705038905143738
6.5826029777526855 6.856640338897705 0.10677946358919144
6.554997444152832 6.857146263122559 0.10643085837364197
6.5340423583984375 6.863684177398682 0.10588015615940094
6.478274345397949 6.862746715545654 0.10544370859861374
6.465913772583008 6.878190040588379 0.10547469556331635
6.404233932495117 6.870328426361084 0.10493779927492142
6.3779296875 6.870640754699707 0.10416936874389648
6.354516983032227 6.874814987182617 0.10402532666921616
6.327410697937012 6.874053478240967 0.10381504893302917
6.302639961242676 6.875722408294678 0.10364358127117157
6.2817535400390625 6.8823957443237305 0.10354181379079819
6.262604713439941 6.890077590942383 0.1034611165523529
6.231989860534668 6.885891914367676 0.10263192653656006
6.212738990783691 6.893320083618164 0.10254978388547897
6.186277389526367 6.8926682472229 0.1023486778140068
6.162257194519043 6.895481109619141 0.10219515860080719
6.138575553894043 6.897737503051758 0.10203965753316879
6.122325897216797 6.908940315246582 0.10201380401849747
6.0850629806518555 6.895867824554443 0.1013663113117218
6.074904441833496 6.913219451904297 0.10143666714429855
6.0480451583862305 6.912378311157227 0.10123365372419357
6.025739669799805 6.915792465209961 0.10067351162433624
5.998091697692871 6.912972450256348 0.10045041888952255
5.975527763366699 6.9167609214782715 0.1003197580575943
5.946102142333984 6.911643028259277 0.09993506968021393
5.924337387084961 6.915318012237549 0.09980934113264084
5.8990678787231445 6.9156694412231445 0.09963347017765045
5.881918907165527 6.924616813659668 0.09916422516107559
5.854843616485596 6.922455787658691 0.09895463287830353
5.842105388641357 6.936741828918457 0.09898333251476288
5.813220500946045 6.931588172912598 0.09860881417989731
5.799942970275879 6.945838928222656 0.09863486886024475
5.7678542137146 6.936618328094482 0.0983324721455574
5.7467451095581055 6.940478324890137 0.09779700636863708
5.728227615356445 6.948278903961182 0.09773668646812439
5.715546131134033 6.962283134460449 0.09776610136032104
5.693745136260986 6.966015815734863 0.09764925390481949
5.666776657104492 6.962458610534668 0.09730406850576401
5.643332481384277 6.963118076324463 0.09715020656585693
5.627979278564453 6.974581241607666 0.09672452509403229
5.602959632873535 6.973134517669678 0.09654431790113449
5.581159591674805 6.9756011962890625 0.09641706198453903
5.548255443572998 6.9649248123168945 0.09610486030578613
5.53906774520874 6.983077049255371 0.09619743376970291
5.509764671325684 6.9766950607299805 0.0958188995718956
5.483932971954346 6.973690032958984 0.09561986476182938
5.463493824005127 6.977450370788574 0.0955156609416008
5.448519706726074 6.98903226852417 0.09551448374986649
5.417231559753418 6.978716850280762 0.09480863809585571
5.39163875579834 6.975583553314209 0.09461232274770737
5.369263172149658 6.977389335632324 0.09435511380434036
5.355881690979004 6.989964485168457 0.09437495470046997
5.302565097808838 6.981083869934082 0.09395292401313782
5.279371738433838 6.9805755615234375 0.0937962606549263
5.265632152557373 6.993411064147949 0.09341131150722504
5.232770919799805 6.979863166809082 0.09308458119630814
5.217195987701416 6.989261627197266 0.09294005483388901
5.189550399780273 6.983296871185303 0.0927131399512291
5.168453216552734 6.985138893127441 0.09259442239999771
5.14504337310791 6.983975410461426 0.09203182905912399
5.13653564453125 7.003497123718262 0.0921458899974823
5.0990729331970215 6.982757091522217 0.09173339605331421
5.074260234832764 6.980037689208984 0.09155494719743729
5.057275772094727 6.987113952636719 0.09138607978820801
5.044342041015625 6.999781608581543 0.09141470491886139
5.015661716461182 6.991423606872559 0.0912892296910286
4.993715763092041 6.991418838500977 0.09115386754274368
4.978095054626465 7.001121997833252 0.09114179015159607
4.959381103515625 7.005542278289795 0.09094039350748062
4.930210590362549 6.995072364807129 0.09067224711179733
4.908933162689209 6.996575355529785 0.09015599638223648
4.891049385070801 7.001946449279785 0.09009392559528351
4.874853134155273 7.009700775146484 0.09006407856941223
4.844884872436523 6.998456001281738 0.08978693932294846
4.832610130310059 7.011772632598877 0.08970560133457184
4.809979438781738 7.010025978088379 0.08955512940883636
4.789120674133301 7.011686325073242 0.08904969692230225
4.761013031005859 7.001688003540039 0.08879772573709488
4.743574142456055 7.008193016052246 0.08875173330307007
4.7209320068359375 7.006016731262207 0.08859842270612717
4.707420825958252 7.017346382141113 0.08861927688121796
4.678938865661621 7.00719690322876 0.08824412524700165
4.661381244659424 7.012369155883789 0.08779352158308029
4.637876987457275 7.008734226226807 0.08762665092945099
4.620499134063721 7.014770030975342 0.08757807314395905
4.598482608795166 7.01298189163208 0.0874377116560936
4.587852478027344 7.029473304748535 0.08752173185348511
4.562092304229736 7.021796226501465 0.08730731904506683
4.542338848114014 7.023251533508301 0.08669684082269669
4.525563716888428 7.030202865600586 0.08729466795921326
4.504725456237793 7.029841423034668 0.0870535597205162
4.458457946777344 7.022568702697754 0.08672961592674255
4.443634510040283 7.031425476074219 0.08633723109960556
4.427515029907227 7.03917121887207 0.08631588518619537
4.405416488647461 7.036395072937012 0.08617051690816879
4.390331268310547 7.044761657714844 0.08604216575622559
4.3621110916137695 7.032905101776123 0.0857812762260437
4.34151554107666 7.032238006591797 0.08566312491893768
4.318995952606201 7.028348445892334 0.08512210845947266
4.307789325714111 7.043800354003906 0.08519851416349411
4.288025379180908 7.044285297393799 0.08509636670351028
4.264230728149414 7.039007663726807 0.08492161333560944
4.242182731628418 7.035515785217285 0.08465497195720673
4.233196258544922 7.053674221038818 0.08476758003234863
4.203625679016113 7.038434982299805 0.08409498631954193
4.188962459564209 7.047062873840332 0.08409412205219269
4.1681318283081055 7.04549503326416 0.08397127687931061
4.149995803833008 7.0489277839660645 0.08390644192695618
4.125916957855225 7.041409492492676 0.08359702676534653
4.113789081573486 7.054466724395752 0.08364934474229813
4.09086799621582 7.0494914054870605 0.0831083208322525
4.077026844024658 7.059344291687012 0.08312457799911499
4.046640396118164 7.041419982910156 0.08330638706684113
4.036809921264648 7.058178424835205 0.08302657306194305
4.023031234741211 7.0683183670043945 0.08304651081562042
4.000844955444336 7.064162254333496 0.08289797604084015
3.979142904281616 7.059968948364258 0.08275209367275238
3.965663194656372 7.07132625579834 0.08278536796569824
3.9358389377593994 7.052410125732422 0.08235137164592743
3.9209072589874268 7.0600433349609375 0.0823453888297081
3.8989176750183105 7.0559186935424805 0.0818244144320488
3.8865151405334473 7.0680832862854 0.08187133073806763
3.8690025806427 7.070948600769043 0.08181174099445343
3.8421823978424072 7.057694911956787 0.08156216144561768
3.8194267749786377 7.0506978034973145 0.08127404004335403
3.8044588565826416 7.058243751525879 0.08126924932003021
6.877593517303467 -10.973786354064941 0.16224119067192078
6.977304935455322 -10.978890419006348 0.16375604271888733
8.380232810974121 -10.87982177734375 0.18062391877174377
8.484708786010742 -10.873373031616211 0.18392467498779297
8.581624031066895 -10.856160163879395 0.18454241752624512
8.657735824584961 -10.858133316040039 0.18539667129516602
8.703336715698242 -10.868972778320312 0.18653622269630432
8.763525009155273 -10.850170135498047 0.18684619665145874
8.799041748046875 -10.848010063171387 0.18712285161018372
8.872130393981934 -10.844446182250977 0.18790796399116516
8.978985786437988 -10.835346221923828 0.18937909603118896
10.142904281616211 -10.734986305236816 0.20459479093551636
10.271862030029297 -10.735464096069336 0.20716947317123413
10.376065254211426 -10.708780288696289 0.20882177352905273
10.500356674194336 -10.701607704162598 0.20996198058128357
10.59078311920166 -10.703224182128906 0.21156811714172363
10.614373207092285 -10.682635307312012 0.21181632578372955
10.705241203308105 -10.68371868133545 0.2127283811569214
10.742859840393066 -10.676856994628906 0.21303819119930267
10.833062171936035 -10.67619514465332 0.21393169462680817
10.872029304504395 -10.67021656036377 0.21519458293914795
10.949806213378906 -10.656387329101562 0.21584273874759674
11.089765548706055 -10.657671928405762 0.21727582812309265
12.34549331665039 -10.54184627532959 0.23277445137500763
12.488144874572754 -10.52862548828125 0.23420950770378113
12.628469467163086 -10.511825561523438 0.23660212755203247
12.766756057739258 -10.49177074432373 0.23795360326766968
12.82748031616211 -10.497153282165527 0.23867593705654144
12.873239517211914 -10.488762855529785 0.23911187052726746
12.93386459350586 -10.493574142456055 0.24007216095924377
12.962068557739258 -10.471927642822266 0.24096937477588654
13.027073860168457 -10.478530883789062 0.24176153540611267
13.065816879272461 -10.465112686157227 0.2420758455991745
13.17979621887207 -10.465596199035645 0.24336783587932587
13.226543426513672 -10.458036422729492 0.24383284151554108
13.379549980163574 -10.442992210388184 0.24568352103233337
15.048578262329102 -10.289998054504395 0.2644713521003723
15.231057167053223 -10.274850845336914 0.26653698086738586
15.285426139831543 -10.265437126159668 0.26711463928222656
15.41135025024414 -10.256092071533203 0.26855748891830444
15.474836349487305 -10.252070426940918 0.26929324865341187
15.528836250305176 -10.240180969238281 0.26985257863998413
15.597440719604492 -10.239042282104492 0.27181392908096313
15.651619911193848 -10.228195190429688 0.27238914370536804
15.71589469909668 -10.222354888916016 0.27312833070755005
15.780186653137207 -10.217633247375488 0.2738747000694275
15.86260986328125 -10.224346160888672 0.2749338150024414
15.985506057739258 -10.208525657653809 0.27631714940071106
16.032909393310547 -10.192020416259766 0.27677127718925476
16.169095993041992 -10.183235168457031 0.27837908267974854
16.38237953186035 -10.174285888671875 0.2794862389564514
16.57786750793457 -10.151506423950195 0.2826269865036011
18.309125900268555 -9.980912208557129 0.30384859442710876
18.385278701782227 -9.971885681152344 0.3047618865966797
18.540782928466797 -9.956514358520508 0.3066486716270447
18.609020233154297 -9.94234848022461 0.3074280619621277
18.768795013427734 -9.927449226379395 0.30938249826431274
18.845386505126953 -9.916849136352539 0.31029751896858215
19.015567779541016 -9.904369354248047 0.31240907311439514
19.081544876098633 -9.888446807861328 0.3131551742553711
19.168737411499023 -9.882871627807617 0.31424665451049805
19.245290756225586 -9.870710372924805 0.31515753269195557
19.341663360595703 -9.869497299194336 0.3167154788970947
19.494068145751953 -9.844013214111328 0.3185301423072815
19.580032348632812 -9.836481094360352 0.3206181526184082
19.749164581298828 -9.8175048828125 0.3227081298828125
19.845083236694336 -9.813520431518555 0.32361727952957153
20.015480041503906 -9.793456077575684 0.32572317123413086
20.081409454345703 -9.77375602722168 0.3264634907245636
20.27778434753418 -9.764283180236816 0.3289862275123596
20.54581642150879 -9.734346389770508 0.33233290910720825
22.680622100830078 -9.490869522094727 0.3631788492202759
22.88827896118164 -9.464693069458008 0.3658624589443207
22.98833465576172 -9.449005126953125 0.36714059114456177
23.211488723754883 -9.427912712097168 0.37007418274879456
23.318885803222656 -9.413947105407715 0.3714671730995178
23.539142608642578 -9.389037132263184 0.3743496537208557
23.660547256469727 -9.379324913024902 0.37596309185028076
23.772939682006836 -9.366440773010254 0.37743714451789856
23.87322235107422 -9.348766326904297 0.3787204623222351
23.981332778930664 -9.33246898651123 0.38012057542800903
24.09150505065918 -9.317419052124023 0.3815573751926422
24.251401901245117 -9.320157051086426 0.3837757408618927
24.34295082092285 -9.297410011291504 0.38491833209991455
24.448768615722656 -9.279327392578125 0.38628414273262024
24.5621337890625 -9.262782096862793 0.3877638578414917
24.702129364013672 -9.257070541381836 0.39250698685646057
24.9477596282959 -9.229487419128418 0.3957887291908264
25.057445526123047 -9.210580825805664 0.39722251892089844
25.460594177246094 -9.177499771118164 0.4026908874511719
25.83718490600586 -9.130123138427734 0.40773147344589233
28.30274200439453 -8.813847541809082 0.4464963674545288
28.757713317871094 -8.757594108581543 0.45279616117477417
29.206649780273438 -8.694050788879395 0.45899540185928345
29.51984214782715 -8.652112007141113 0.4633406400680542
29.685152053833008 -8.633709907531738 0.4656529426574707
30.009923934936523 -8.591259002685547 0.47017574310302734
30.170700073242188 -8.568069458007812 0.47240886092185974
30.50586700439453 -8.526111602783203 0.4770967960357666
30.67734146118164 -8.50390625 0.4794953763484955
30.831130981445312 -8.477197647094727 0.4816210865974426
31.018150329589844 -8.459424018859863 0.48426714539527893
31.170637130737305 -8.429999351501465 0.48636752367019653
31.360570907592773 -8.411075592041016 0.4890559911727905
31.518310546875 -8.383309364318848 0.49124330282211304
31.715045928955078 -8.363629341125488 0.5000391006469727
31.88895034790039 -8.33825397491455 0.5025054216384888
32.071533203125 -8.313339233398438 0.505103349685669
32.254615783691406 -8.28940200805664 0.5077146291732788
32.444950103759766 -8.26607608795166 0.5104379057884216
32.62395095825195 -8.238009452819824 0.5129777789115906
32.80813217163086 -8.211625099182129 0.5156028866767883
33.387569427490234 -8.133956909179688 0.5222972631454468
33.991275787353516 -8.05500316619873 0.5309386849403381
34.59026336669922 -7.967617511749268 0.5395016670227051
21.241382598876953 -4.193170547485352 0.33071351051330566
38.66350173950195 -7.380170822143555 0.601229190826416
39.16321563720703 -7.304750442504883 0.6085158586502075
40.229835510253906 -7.15613317489624 0.6241372227668762
21.099199295043945 -3.6615514755249023 0.3270973861217499
21.346590042114258 -3.6588733196258545 0.3308202028274536
21.850435256958008 -3.6975197792053223 0.3384982645511627
21.84467315673828 -3.649606943130493 0.3382906913757324
21.88256072998047 -3.608229160308838 0.33875834941864014
21.701658248901367 -3.531820774078369 0.33583125472068787
20.87173843383789 -3.352323055267334 0.3228917419910431
20.995635986328125 -3.3265438079833984 0.3250085711479187
21.21177864074707 -3.3153672218322754 0.3282519578933716
22.245635986328125 -3.4296767711639404 0.3430841565132141
22.30143928527832 -3.3898541927337646 0.34383413195610046
22.373544692993164 -3.352994918823242 0.3448371887207031
22.170284271240234 -3.27549409866333 0.3415597379207611
21.318492889404297 -3.0579752922058105 0.3282705545425415
21.292089462280273 -2.9627275466918945 0.32735762000083923
21.310089111328125 -2.920166492462158 0.3275405168533325
21.30703353881836 -2.8283820152282715 0.32730767130851746
23.353172302246094 -2.9507148265838623 0.35844188928604126
48.64500427246094 -5.835938930511475 0.7460779547691345
49.7669563293457 -5.653404235839844 0.762724757194519
54.655853271484375 -4.816944122314453 0.8304182887077332
56.013450622558594 -4.581913948059082 0.8505906462669373
56.92784881591797 -4.415441989898682 0.864186704158783
57.42206573486328 -4.333914756774902 0.8715490102767944
57.90087890625 -4.246523857116699 0.8786786794662476
58.39323806762695 -4.159970760345459 0.885165810585022
58.89897155761719 -4.073170185089111 0.8899545669555664
59.40953063964844 -3.9818427562713623 0.8975380063056946
59.90052795410156 -3.8890326023101807 0.9048321843147278
60.4090576171875 -3.7961771488189697 0.9123939275741577
60.910301208496094 -3.6979479789733887 0.9198440313339233
61.41510009765625 -3.599799156188965 0.9216293692588806
61.93598556518555 -3.5013744831085205 0.9284327030181885
62.471649169921875 -3.397792100906372 0.9363506436347961
63.0048942565918 -3.2956748008728027 0.9442378282546997
63.54448318481445 -3.1887223720550537 0.9522209763526917
64.11448669433594 -3.083021640777588 0.9606640934944153
64.11386108398438 -2.8132388591766357 0.9593303203582764
64.15660858154297 -2.680830240249634 0.9597991704940796
60.071197509765625 -2.2567529678344727 0.8986051082611084
58.66215896606445 -2.0819242000579834 0.8774756193161011
57.809120178222656 -1.9315435886383057 0.8646605610847473
56.46842956542969 -1.765998125076294 0.8419103622436523
55.31769561767578 -1.6151095628738403 0.8246980905532837
53.539424896240234 -1.3375499248504639 0.7981140613555908
52.60272979736328 -1.204929232597351 0.7841315269470215
51.228363037109375 -0.957610011100769 0.7635794281959534
21.703657150268555 5.2528300285339355 0.2426113784313202
20.645185470581055 5.365004539489746 0.23305554687976837
20.291439056396484 5.409481525421143 0.22846275568008423
16.487504959106445 5.798256874084473 0.18480359017848969
16.21938133239746 5.818795204162598 0.18350538611412048
15.968022346496582 5.842180252075195 0.1802811324596405
15.735761642456055 5.869630813598633 0.17704671621322632
15.549687385559082 5.874937534332275 0.1752314567565918
15.308052062988281 5.893880367279053 0.1719210296869278
15.083320617675781 5.916500568389893 0.16957709193229675
14.860431671142578 5.937134742736816 0.16674268245697021
14.636534690856934 5.954653739929199 0.16368266940116882
12.825827598571777 6.119220733642578 0.14348390698432922
12.647177696228027 6.131887435913086 0.14105470478534698
12.462194442749023 6.13925838470459 0.1385740488767624
12.3509521484375 6.149230480194092 0.13762302696704865
12.299043655395508 6.155269622802734 0.13634534180164337
12.256535530090332 6.165833473205566 0.13601627945899963
12.202823638916016 6.171513080596924 0.13556788861751556
12.141849517822266 6.1723504066467285 0.13503135740756989
12.098151206970215 6.181764125823975 0.13385844230651855
12.034797668457031 6.181849479675293 0.1333036869764328
11.983685493469238 6.187058448791504 0.1328803151845932
11.890007019042969 6.202253341674805 0.13131098449230194
11.823659896850586 6.198890209197998 0.13072100281715393
11.672123908996582 6.2133002281188965 0.12866923213005066
10.409892082214355 6.322684288024902 0.1127404272556305
10.280495643615723 6.33290433883667 0.1115945503115654
10.146896362304688 6.339601993560791 0.11002202332019806
10.034049987792969 6.357147216796875 0.10850449651479721
9.97807502746582 6.350740432739258 0.10804124176502228
9.950939178466797 6.362726211547852 0.10717032104730606
9.912178039550781 6.367612361907959 0.10689709335565567
9.860994338989258 6.363678932189941 0.10648725181818008
9.822598457336426 6.368013858795166 0.106047622859478
9.777083396911621 6.368010520935059 0.10515673458576202
9.742836952209473 6.374539852142334 0.10493100434541702
9.696386337280273 6.373122692108154 0.1045760065317154
9.654888153076172 6.375224590301514 0.10410566627979279
9.618629455566406 6.380185127258301 0.10332067310810089
9.523696899414062 6.374932765960693 0.10242322832345963
9.50340747833252 6.390149116516113 0.10148053616285324
9.41386604309082 6.387476444244385 0.10028184950351715
9.376853942871094 6.391018867492676 0.10002884268760681
9.304465293884277 6.399234294891357 0.09885343909263611
9.271976470947266 6.405273914337158 0.09864897280931473
9.199285507202148 6.412456035614014 0.09747663885354996
9.0869779586792 6.419429779052734 0.09655295312404633
8.440055847167969 6.453772068023682 0.08816096931695938
8.33774471282959 6.459005832672119 0.0868707001209259
8.31287956237793 6.467391014099121 0.08675093203783035
8.2499361038208 6.474379062652588 0.08622624725103378
8.203584671020508 6.465556621551514 0.08539558947086334
8.145905494689941 6.475897789001465 0.08492879569530487
8.117565155029297 6.480905532836914 0.08428853750228882
8.078194618225098 6.477777481079102 0.08402407914400101
8.051534652709961 6.483898162841797 0.08373727649450302
8.01772403717041 6.4847612380981445 0.08352892845869064
7.997118949890137 6.495787143707275 0.08297417312860489
7.957751274108887 6.491264820098877 0.0827055275440216
7.925837516784668 6.493288040161133 0.0823695957660675
7.88178825378418 6.484772205352783 0.08205217123031616
7.854724884033203 6.49050235748291 0.08143897354602814
7.831422328948975 6.498642921447754 0.08104255050420761
7.8068647384643555 6.505858898162842 0.08092866837978363
7.763902187347412 6.498018264770508 0.08015504479408264
7.741882801055908 6.507148742675781 0.07992132753133774
7.702794075012207 6.501618385314941 0.07965750992298126
7.680326461791992 6.510610580444336 0.07956782728433609
7.640532493591309 6.504364967346191 0.0786837562918663
7.6206254959106445 6.51474142074585 0.078618124127388
7.579912185668945 6.508013725280762 0.07834137976169586
7.5468621253967285 6.506892204284668 0.07753066718578339
7.5196733474731445 6.510704517364502 0.07739047706127167
7.495542049407959 6.517879009246826 0.07728496193885803
7.459568023681641 6.51383113861084 0.07705347239971161
7.378279685974121 6.525053977966309 0.07603435218334198
7.302069187164307 6.539923191070557 0.07507283240556717
7.214316368103027 6.543527126312256 0.07399764657020569
6.906085968017578 6.561431407928467 0.07049165666103363
6.874852180480957 6.558954238891602 0.07031171768903732
6.818660736083984 6.560420989990234 0.06988203525543213
6.792963027954102 6.562896251678467 0.06931832432746887
6.7414774894714355 6.568271636962891 0.06893832981586456
6.713098049163818 6.567831993103027 0.06835008412599564
6.6558427810668945 6.566903591156006 0.06791272759437561
6.637199401855469 6.575746536254883 0.06742653250694275
6.609203338623047 6.576046466827393 0.06728480756282806
6.578610420227051 6.572830677032471 0.0669773519039154
6.555164813995361 6.576644420623779 0.06687745451927185
6.5314507484436035 6.580909729003906 0.06634728610515594
6.50679874420166 6.583338737487793 0.06623561680316925
6.478662014007568 6.582135200500488 0.06608796119689941
6.457151412963867 6.588375091552734 0.06587822735309601
6.43344783782959 6.591496467590332 0.0657758042216301
6.417092323303223 6.60209321975708 0.06532029062509537
6.391756534576416 6.604196071624756 0.06507234275341034
6.361416339874268 6.600200176239014 0.06490276008844376
6.341644763946533 6.607264518737793 0.06484176963567734
6.315357685089111 6.607883453369141 0.06415827572345734
6.279693126678467 6.59792423248291 0.06393491476774216
6.25532865524292 6.6005024909973145 0.06383027136325836
6.234860420227051 6.606308937072754 0.06333880126476288
6.202596664428711 6.599698066711426 0.063019298017025
6.180737018585205 6.604462623596191 0.06293942779302597
6.161384582519531 6.61122989654541 0.062461674213409424
6.111904144287109 6.613763809204102 0.062110986560583115
6.086652755737305 6.6139235496521 0.06157565489411354
6.0440826416015625 6.623429775238037 0.06129639595746994
6.0191240310668945 6.623632431030273 0.06118253991007805
5.971864700317383 6.627490997314453 0.06044080853462219
5.9524126052856445 6.633727073669434 0.060384105890989304
5.902732849121094 6.634163856506348 0.06029116362333298
5.889766693115234 6.647512435913086 0.060171350836753845
5.774109363555908 6.656466960906982 0.058752551674842834
5.69898796081543 6.653918266296387 0.057877812534570694
5.658655643463135 6.663423538208008 0.05762594938278198
5.648473739624023 6.679478168487549 0.05725616216659546
5.607095718383789 6.687465667724609 0.0569952167570591
5.594965934753418 6.701830863952637 0.05660921335220337
5.546815395355225 6.700685024261475 0.05627860873937607
5.520390510559082 6.697642803192139 0.055750153958797455
5.4722113609313965 6.695814609527588 0.055419839918613434
5.450282573699951 6.697935581207275 0.05493926256895065
5.426456451416016 6.697193622589111 0.05484025180339813
5.400816917419434 6.694540023803711 0.054600052535533905
5.379547595977783 6.696564674377441 0.05517389625310898
5.364847660064697 6.706923007965088 0.05476672202348709
5.340043067932129 6.705028533935547 0.054534539580345154
5.314503192901611 6.701451301574707 0.054415345191955566
5.288464069366455 6.697314262390137 0.053894590586423874
5.272446155548096 6.706236362457275 0.05387631058692932
5.250075340270996 6.706377983093262 0.05366664379835129
5.2355852127075195 6.716739654541016 0.05326497554779053
5.202237129211426 6.703240394592285 0.05307050794363022
5.189473628997803 6.715721607208252 0.052960578352212906
5.157558441162109 6.703770637512207 0.05238596722483635
5.139068603515625 6.708497047424316 0.05233945697546005
5.120370864868164 6.713101387023926 0.052169762551784515
5.101500034332275 6.717872142791748 0.051729656755924225
5.075995445251465 6.713366985321045 0.05161331966519356
5.051461696624756 6.7098188400268555 0.051384005695581436
5.035665035247803 6.718454837799072 0.051368169486522675
5.013023376464844 6.717451095581055 0.05089005455374718
4.996917247772217 6.724938869476318 0.05074653401970863
4.9719648361206055 6.721098899841309 0.050637952983379364
4.94329833984375 6.711635589599609 0.05010077729821205
4.930011749267578 6.722769737243652 0.049986712634563446
4.899789810180664 6.711372375488281 0.049824438989162445
4.8846588134765625 6.720088005065918 0.04942651465535164
4.860759258270264 6.717129230499268 0.049955178052186966
4.838342189788818 6.715654373168945 0.049748532474040985
4.823887825012207 6.724973201751709 0.049357615411281586
4.7821478843688965 6.726414680480957 0.04910098388791084
4.762374401092529 6.728124618530273 0.04865686595439911
4.725685119628906 6.736270904541016 0.0484524667263031
4.673758506774902 6.722290992736816 0.04782888665795326
4.652827262878418 6.7219038009643555 0.04763932526111603
4.615448474884033 6.728277683258057 0.047166287899017334
4.593072414398193 6.725536346435547 0.04696245864033699
4.556528091430664 6.732734680175781 0.04649927467107773
4.5356597900390625 6.731952667236328 0.04631119593977928
4.521137714385986 6.7414326667785645 0.04593124985694885
4.4999871253967285 6.7400898933410645 0.04585977643728256
4.473731517791748 6.7316484451293945 0.04562031850218773
4.453137397766113 6.731131553649902 0.04517751187086105
4.439083099365234 6.740242004394531 0.04506011679768562
4.419198989868164 6.741144180297852 0.045003775507211685
4.40396785736084 6.748624801635742 0.04461614787578583
4.375567436218262 6.735604286193848 0.04507588595151901
4.366389751434326 6.753011703491211 0.045013852417469025
4.340000152587891 6.742844104766846 0.04451283812522888
4.320054531097412 6.742559909820557 0.04445226490497589
4.303415298461914 6.7482829093933105 0.044313233345746994
4.279661178588867 6.741854190826416 0.0438399575650692
4.260499000549316 6.742550849914551 0.043787915259599686
4.243157863616943 6.746981143951416 0.043642204254865646
4.227675914764404 6.753420829772949 0.04325631633400917
4.206626892089844 6.751606464385986 0.043186694383621216
4.183048248291016 6.745125770568848 0.04297435283660889
4.161940097808838 6.742287635803223 0.04253330081701279
4.144289970397949 6.7458930015563965 0.042385268956422806
4.128546714782715 6.751641750335693 0.042367368936538696
4.110824108123779 6.754110336303711 0.041959892958402634
4.083957672119141 6.742358207702637 0.04171928018331528
4.07096004486084 6.752481460571289 0.04172959178686142
4.050527572631836 6.75116491317749 0.04130123555660248
4.027153968811035 6.743890762329102 0.0410924106836319
4.016882419586182 6.758512496948242 0.04112980142235756
3.997270107269287 6.7583441734313965 0.04071100056171417
3.9740443229675293 6.751009464263916 0.04050414264202118
3.953033208847046 6.7473063468933105 0.0400683730840683
3.9433703422546387 6.763899326324463 0.040116600692272186
3.9178075790405273 6.752217769622803 0.040111884474754333
3.8963775634765625 6.747501850128174 0.03992372751235962
21.983606338500977 6.50640344619751 0.43416744470596313
17.236156463623047 6.718509674072266 0.3452191650867462
16.977964401245117 6.741124153137207 0.34062546491622925
16.69465446472168 6.750439167022705 0.334947407245636
16.527524948120117 6.763984680175781 0.3319035768508911
16.252450942993164 6.771003723144531 0.3264084458351135
16.01327896118164 6.789816379547119 0.321392297744751
15.757675170898438 6.798624038696289 0.31686678528785706
15.513250350952148 6.8091630935668945 0.3120161294937134
13.490989685058594 6.893460273742676 0.2741262912750244
13.320385932922363 6.912232398986816 0.27062171697616577
13.130563735961914 6.918849468231201 0.2667350471019745
12.998714447021484 6.919473171234131 0.26464879512786865
12.94787883758545 6.9269328117370605 0.2639053165912628
12.831819534301758 6.934507369995117 0.2612426280975342
12.757767677307129 6.928733825683594 0.2600271701812744
12.650997161865234 6.939899921417236 0.25756171345710754
12.590376853942871 6.940675258636475 0.2566189169883728
12.477352142333984 6.947043418884277 0.25491148233413696
12.414554595947266 6.945867538452148 0.25371697545051575
12.293115615844727 6.946061134338379 0.25117361545562744
12.249207496643066 6.954826354980469 0.2505705654621124
12.1361083984375 6.9583611488342285 0.24820148944854736
10.873106956481934 7.016116142272949 0.2232646644115448
10.730766296386719 7.020208358764648 0.22105927765369415
10.597123146057129 7.029016017913818 0.2184411734342575
10.455988883972168 7.030451774597168 0.21585266292095184
10.376192092895508 7.039727687835693 0.21403975784778595
10.315274238586426 7.030405521392822 0.21309128403663635
10.280643463134766 7.03809118270874 0.21267938613891602
10.222431182861328 7.029656410217285 0.21159914135932922
10.18960952758789 7.038976669311523 0.21065181493759155
10.14712905883789 7.040999412536621 0.21007542312145233
10.09884262084961 7.038585662841797 0.20920217037200928
10.047504425048828 7.0345258712768555 0.20787668228149414
9.994844436645508 7.0288262367248535 0.2070905864238739
9.971874237060547 7.044342041015625 0.20692065358161926
9.927549362182617 7.043957710266113 0.2061292678117752
9.877826690673828 7.039755344390869 0.20483778417110443
9.799210548400879 7.045931339263916 0.20290707051753998
9.670402526855469 7.046172142028809 0.20042595267295837
9.544334411621094 7.046596527099609 0.1980036199092865
9.41717529296875 7.044614791870117 0.19556277990341187
9.305827140808105 7.05299186706543 0.193998321890831
8.745513916015625 7.072727203369141 0.1832732856273651
8.620922088623047 7.062068462371826 0.18090909719467163
8.533468246459961 7.080541133880615 0.17932754755020142
8.484794616699219 7.0706048011779785 0.178619384765625
8.411303520202637 7.0689287185668945 0.17701977491378784
8.389388084411621 7.080938339233398 0.17687362432479858
8.345840454101562 7.074098587036133 0.17610956728458405
8.32109260559082 7.082849025726318 0.17589682340621948
8.281098365783691 7.07916259765625 0.17486029863357544
8.25413703918457 7.086020469665527 0.17444664239883423
8.2113618850708 7.078949928283691 0.17385230958461761
8.188760757446289 7.090015888214111 0.17318937182426453
8.14406967163086 7.080945014953613 0.17255422472953796
8.116846084594727 7.08757209777832 0.17214101552963257
8.075716018676758 7.081454753875732 0.17158165574073792
8.044122695922852 7.083333492279053 0.1704140454530716
8.010493278503418 7.083953380584717 0.1700190007686615
7.983154773712158 7.089559078216553 0.1697533279657364
7.946856498718262 7.086876392364502 0.168643057346344
7.91686487197876 7.090343952178955 0.1683262437582016
7.881912708282471 7.088778495788574 0.16789713501930237
7.852264404296875 7.091643810272217 0.16757898032665253
7.8252339363098145 7.097641944885254 0.16667982935905457
7.7868266105651855 7.09231424331665 0.16617536544799805
7.745186805725098 7.083850383758545 0.16560040414333344
7.720958232879639 7.092041015625 0.16476567089557648
7.685745716094971 7.089158535003662 0.1643279790878296
7.623793125152588 7.091670513153076 0.16315558552742004
7.592611312866211 7.092111587524414 0.16265299916267395
7.000917434692383 7.112732887268066 0.15305110812187195
6.967602252960205 7.108331203460693 0.15250064432621002
6.924766540527344 7.12440299987793 0.15175595879554749
6.895320892333984 7.123627185821533 0.15129053592681885
6.845949649810791 7.132485389709473 0.15040478110313416
6.802586555480957 7.1168107986450195 0.149633526802063
6.787649154663086 7.131622314453125 0.14918148517608643
6.751079559326172 7.122739315032959 0.14870241284370422
6.733400821685791 7.133678913116455 0.1484963595867157
6.696047782897949 7.1245341300964355 0.14800788462162018
6.672822952270508 7.129412651062012 0.14736661314964294
6.649796485900879 7.134636878967285 0.14718714356422424
6.630712032318115 7.144492149353027 0.14710018038749695
6.59371280670166 7.134261608123779 0.14646631479263306
6.577474594116211 7.147263526916504 0.1464444398880005
6.558008670806885 7.155856132507324 0.14588971436023712
6.525864601135254 7.150515556335449 0.14536386728286743
6.493500709533691 7.145650863647461 0.14498265087604523
6.478627681732178 7.159078598022461 0.1449819803237915
6.451602458953857 7.159018516540527 0.14412100613117218
6.4313740730285645 7.167301654815674 0.14401084184646606
6.399064064025879 7.161135196685791 0.14361980557441711
6.381353855133057 7.171421527862549 0.14297230541706085
6.350186347961426 7.166957855224609 0.14261437952518463
6.328935623168945 7.172906875610352 0.1424711048603058
6.294369220733643 7.194580078125 0.1417902112007141
6.255407333374023 7.18005895614624 0.14124789834022522
6.212050914764404 7.191217422485352 0.14037136733531952
6.191340446472168 7.197380542755127 0.14024057984352112
6.144299030303955 7.203840255737305 0.1392829716205597
6.105874061584473 7.189162731170654 0.13875219225883484
6.065308570861816 7.202446460723877 0.13794124126434326
6.040159225463867 7.203078746795654 0.13828516006469727
5.989481449127197 7.204049110412598 0.1373821198940277
5.9064040184021 7.195667266845703 0.13594338297843933
5.838033676147461 7.204252243041992 0.13484355807304382
5.752518653869629 7.191359519958496 0.13335540890693665
5.7095794677734375 7.198943138122559 0.13292045891284943
5.678106307983398 7.190543174743652 0.13211648166179657
5.643498420715332 7.208240509033203 0.13187557458877563
5.613950729370117 7.201928615570068 0.13111688196659088
5.576251029968262 7.215341567993164 0.1308048516511917
5.544711112976074 7.206079006195068 0.13000036776065826
5.513943672180176 7.1971611976623535 0.12963120639324188
5.500152111053467 7.210799217224121 0.1295347511768341
5.479547500610352 7.214786529541016 0.1294018179178238
5.4518914222717285 7.209601879119873 0.12936626374721527
5.421328067779541 7.200891494750977 0.12887266278266907
5.412321090698242 7.220061302185059 0.12901447713375092
5.388726234436035 7.219972133636475 0.1283918172121048
5.35132360458374 7.201685428619385 0.12773491442203522
5.3323211669921875 7.207526206970215 0.12764020264148712
5.318789482116699 7.220526695251465 0.12725721299648285
5.281378746032715 7.201687812805176 0.1265983283519745
5.269068717956543 7.216476917266846 0.1266641914844513
5.245872974395752 7.216104030609131 0.1260509043931961
5.224384307861328 7.218698024749756 0.1257731169462204
5.192322731018066 7.206054210662842 0.12536372244358063
5.172493934631348 7.210743427276611 0.12484069168567657
5.152547836303711 7.214722633361816 0.12459458410739899
5.128108978271484 7.212100028991699 0.12436533719301224
5.101539134979248 7.207062721252441 0.12368042767047882
5.081273078918457 7.210336685180664 0.12342621386051178
5.063938140869141 7.218214988708496 0.1233767420053482
5.0327348709106445 7.205495834350586 0.12257200479507446
5.015634059906006 7.21307373046875 0.12239455431699753
4.999475479125977 7.2224812507629395 0.12237375229597092
4.960554122924805 7.198126316070557 0.12138001620769501
4.942265033721924 7.203760147094727 0.12117362022399902
4.922039031982422 7.207009792327881 0.1210523173213005
4.901885986328125 7.209805011749268 0.12158593535423279
4.87493896484375 7.202272415161133 0.1208832785487175
4.857184410095215 7.2089433670043945 0.12069559842348099
4.838841915130615 7.214206218719482 0.120613694190979
4.823020935058594 7.222975730895996 0.12018877267837524
4.7870941162109375 7.202439785003662 0.1195513904094696
4.769640922546387 7.208585262298584 0.11948861926794052
4.731184005737305 7.216320514678955 0.11875907331705093
4.699802875518799 7.201002597808838 0.11834581941366196
4.666969299316406 7.216917514801025 0.11775848269462585
4.646520137786865 7.218101978302002 0.1172209233045578
4.602170944213867 7.215796947479248 0.11674334853887558
4.580600738525391 7.2149577140808105 0.11657565087080002
4.562114715576172 7.219880104064941 0.11610011011362076
4.5413055419921875 7.220083713531494 0.11582725495100021
4.519693851470947 7.2189202308654785 0.11565862596035004
4.498408317565918 7.219164848327637 0.11511281132698059
4.475928783416748 7.216409683227539 0.11479701101779938
4.431917190551758 7.213093280792236 0.11405210196971893
4.405064582824707 7.202857971191406 0.11362310498952866
4.395658493041992 7.222095489501953 0.11402258276939392
4.372225761413574 7.2172770500183105 0.11380224674940109
4.347569942474365 7.211056709289551 0.1134376972913742
4.3271098136901855 7.211156845092773 0.1129048615694046
4.3065571784973145 7.210781097412109 0.11263728141784668
4.294590950012207 7.225526809692383 0.11272481083869934
4.269869804382324 7.218233585357666 0.11208130419254303
4.2392473220825195 7.200524806976318 0.11154866218566895
4.22790002822876 7.21646785736084 0.11165562272071838
4.208824634552002 7.218210220336914 0.11115826666355133
4.189035415649414 7.218655109405518 0.11090894788503647
4.161676406860352 7.2069292068481445 0.11059297621250153
4.150379180908203 7.221933364868164 0.1103026419878006
4.12561559677124 7.213451385498047 0.10992220044136047
4.100753307342529 7.205654621124268 0.1096692755818367
4.076970100402832 7.198573112487793 0.10904829204082489
4.066871166229248 7.216650485992432 0.10906945168972015
4.045186996459961 7.213128089904785 0.10888882726430893
4.02644681930542 7.214764595031738 0.10840299725532532
4.002533435821533 7.208057403564453 0.108053058385849
3.9848546981811523 7.211440086364746 0.10798024386167526
3.9644968509674072 7.209902286529541 0.10733172297477722
3.94380784034729 7.208707332611084 0.10718830674886703
3.9273929595947266 7.214217662811279 0.10714840143918991
3.9062321186065674 7.210941791534424 0.10709750652313232
3.8794755935668945 7.198222637176514 0.10640578716993332
51.997039794921875 0.02385478839278221 0.9181517362594604
51.254356384277344 0.13063281774520874 0.9050387144088745
50.60393142700195 0.2363305389881134 0.8935598731040955
50.00419235229492 0.33730536699295044 0.8829859495162964
49.413970947265625 0.43660295009613037 0.8725810050964355
48.83847427368164 0.5351364612579346 0.8601697683334351
48.30766296386719 0.6295858025550842 0.8487123250961304
47.481224060058594 0.8188274502754211 0.8364543318748474
47.13844299316406 0.9114607572555542 0.8304353952407837
39.29772186279297 2.7430005073547363 0.6879035234451294
38.641883850097656 2.94144344329834 0.6767339706420898
38.14570999145508 3.065305709838867 0.6682615280151367
37.891597747802734 3.1240394115448 0.6621624231338501
37.45336151123047 3.2467689514160156 0.6541880369186401
37.27151870727539 3.3106882572174072 0.6511334776878357
36.82414245605469 3.4255919456481934 0.643558144569397
36.641910552978516 3.4870662689208984 0.6405035853385925
36.247833251953125 3.603663921356201 0.6321848630905151
36.056846618652344 3.6602561473846436 0.6289839148521423
35.933597564697266 3.723630905151367 0.6264348030090332
35.71617126464844 3.7777047157287598 0.6227856278419495
35.56829833984375 3.8367185592651367 0.620348334312439
35.19636535644531 3.9466185569763184 0.6141435503959656
35.044464111328125 4.003242492675781 0.6116390228271484
34.87669372558594 4.057933807373047 0.6088581085205078
34.661415100097656 4.1074347496032715 0.6052461862564087
34.534461975097656 4.1655964851379395 0.6031863689422607
34.049766540527344 4.324471950531006 0.593086838722229
33.60383987426758 4.482673645019531 0.5857997536659241
33.17039108276367 4.637273788452148 0.5782489776611328
31.051654815673828 5.34287166595459 0.5410547256469727
30.641220092773438 5.470800876617432 0.5340360999107361
30.100624084472656 5.505187511444092 0.5250113606452942
29.86017417907715 5.525274276733398 0.5196093916893005
29.40100860595703 5.568471431732178 0.511588454246521
29.14949607849121 5.583520412445068 0.5074093341827393
28.70559310913086 5.623920440673828 0.4987336993217468
28.484506607055664 5.642012119293213 0.49509796500205994
28.0217342376709 5.673094272613525 0.48704659938812256
27.805147171020508 5.690680027008057 0.4834895730018616
27.568788528442383 5.702360153198242 0.47827547788619995
27.375545501708984 5.721654415130615 0.475129097700119
27.197187423706055 5.744625091552734 0.47224560379981995
27.008018493652344 5.763655185699463 0.46876341104507446
26.80736541748047 5.779025077819824 0.4654896557331085
26.60009765625 5.79342794418335 0.46456384658813477
26.400318145751953 5.807732105255127 0.46088898181915283
26.210205078125 5.824234962463379 0.45653805136680603
26.02410125732422 5.839579105377197 0.45350801944732666
25.835968017578125 5.854101657867432 0.4504430592060089
25.50511932373047 5.892172813415527 0.444721519947052
25.321895599365234 5.905223369598389 0.4405328333377838
24.951404571533203 5.929727554321289 0.434518963098526
24.778953552246094 5.9430975914001465 0.4317314922809601
24.41268539428711 5.96408748626709 0.42424800992012024
23.895896911621094 5.997270584106445 0.415913850069046
23.41130256652832 6.032347679138184 0.4066557288169861
21.577482223510742 6.143774032592773 0.37528952956199646
21.13957405090332 6.163018226623535 0.3673170804977417
20.866575241088867 6.178893566131592 0.362704873085022
20.73431396484375 6.186558246612549 0.36062783002853394
20.47391128540039 6.202880382537842 0.35524359345436096
20.3470401763916 6.210571765899658 0.353266179561615
20.234834671020508 6.223283767700195 0.3515464663505554
20.086933135986328 6.2237749099731445 0.348225861787796
19.947357177734375 6.225925922393799 0.3457232415676117
19.83220100402832 6.2361907958984375 0.34395837783813477
19.70028305053711 6.239978790283203 0.34189334511756897
19.58847999572754 6.24932336807251 0.3392225503921509
19.451515197753906 6.25144100189209 0.3367830812931061
19.33962059020996 6.2597880363464355 0.3350698947906494
19.231056213378906 6.268767833709717 0.33400535583496094
19.101293563842773 6.271641254425049 0.33104923367500305
18.987226486206055 6.277868270874023 0.3292974829673767
18.8735408782959 6.284730911254883 0.32726603746414185
18.764841079711914 6.29212760925293 0.32560813426971436
18.653156280517578 6.297769546508789 0.32298171520233154
18.55750274658203 6.309366703033447 0.3215567171573639
18.447629928588867 6.315049171447754 0.3195958137512207
18.234844207763672 6.328126430511475 0.31547218561172485
18.115198135375977 6.328754901885986 0.3136286735534668
17.908288955688477 6.341218948364258 0.3102288544178009
17.789844512939453 6.340856075286865 0.30752697587013245
17.60173797607422 6.357480525970459 0.3044622540473938
17.495025634765625 6.360010623931885 0.30284395813941956
17.29990005493164 6.371687412261963 0.29907166957855225
15.915569305419922 6.437943458557129 0.27351805567741394
15.676431655883789 6.456182479858398 0.26931220293045044
15.580169677734375 6.454385757446289 0.267642617225647
15.421905517578125 6.465049743652344 0.2646121382713318
15.341565132141113 6.46883487701416 0.2632206976413727
15.260777473449707 6.473201751708984 0.26207125186920166
15.168767929077148 6.471348762512207 0.26072126626968384
15.093631744384766 6.476349353790283 0.25889715552330017
15.030719757080078 6.487410545349121 0.2578163146972656
14.932315826416016 6.481730937957764 0.2563585638999939
14.878570556640625 6.495129585266113 0.25491228699684143
14.790630340576172 6.494391918182373 0.2534072697162628
14.724108695983887 6.5016632080078125 0.25175008177757263
14.638471603393555 6.501252174377441 0.2497779130935669
14.566278457641602 6.50541353225708 0.24877695739269257
14.501884460449219 6.512784004211426 0.2476750761270523
14.416827201843262 6.511630058288574 0.245724618434906
14.35260009765625 6.518515586853027 0.24485865235328674
14.283700942993164 6.523013114929199 0.24368558824062347
14.210142135620117 6.5261430740356445 0.2419409304857254
14.143686294555664 6.531198501586914 0.24103975296020508
14.077515602111816 6.536118984222412 0.24014294147491455
13.997581481933594 6.5353899002075195 0.2380741983652115
13.92963695526123 6.538910865783691 0.23714804649353027
13.876752853393555 6.550297737121582 0.2364853322505951
13.788864135742188 6.543835639953613 0.2349967062473297
13.730243682861328 6.550960540771484 0.23352178931236267
13.670440673828125 6.558315277099609 0.2327418327331543
13.610777854919434 6.564472675323486 0.23173758387565613
13.534652709960938 6.562656402587891 0.22997546195983887
13.397018432617188 6.565506935119629 0.22788572311401367
13.212435722351074 6.578378677368164 0.2245437204837799
13.022260665893555 6.586174488067627 0.21955104172229767
12.844586372375488 6.598278522491455 0.21637074649333954
12.49307632446289 6.618281841278076 0.21011300384998322
12.311519622802734 6.62155294418335 0.20755192637443542
12.194356918334961 6.624166488647461 0.20519299805164337
12.136805534362793 6.626290798187256 0.20381823182106018
12.04110336303711 6.640018463134766 0.20247820019721985
11.976958274841309 6.637095928192139 0.20099429786205292
11.9262113571167 6.64158821105957 0.20017647743225098
11.873359680175781 6.645199298858643 0.19952543079853058
11.818779945373535 6.6468987464904785 0.19820909202098846
11.771724700927734 6.652853012084961 0.1974559724330902
11.713653564453125 6.652864456176758 0.1950734704732895
11.656449317932129 6.652403831481934 0.19415493309497833
11.612060546875 6.65999698638916 0.1930299550294876
11.557367324829102 6.6605401039123535 0.19215577840805054
11.519457817077637 6.670575141906738 0.19175522029399872
11.469894409179688 6.6746344566345215 0.19055011868476868
11.421924591064453 6.6784868240356445 0.18979044258594513
11.361929893493652 6.675307273864746 0.1890249252319336
11.321718215942383 6.684034824371338 0.18798013031482697
11.253700256347656 6.675411224365234 0.18689000606536865
11.210253715515137 6.68134880065918 0.18639995157718658
11.159729957580566 6.6833648681640625 0.18519040942192078
11.121482849121094 6.691855430603027 0.18459688127040863
11.0708589553833 6.6936492919921875 0.18399354815483093
11.021993637084961 6.695377349853516 0.18281221389770508
10.96456527709961 6.691680908203125 0.18190282583236694
10.930732727050781 6.703123092651367 0.18157868087291718
10.879690170288086 6.70292854309082 0.18036732077598572
10.82762336730957 6.7021074295043945 0.17955061793327332
10.793551445007324 6.712733268737793 0.1786298155784607
10.751781463623047 6.717738151550293 0.17798495292663574
10.689706802368164 6.710053443908691 0.17718911170959473
10.657903671264648 6.72165584564209 0.17631149291992188
10.61121654510498 6.723031520843506 0.17558735609054565
10.57417106628418 6.73056697845459 0.17389625310897827
10.504729270935059 6.717727184295654 0.17240771651268005
10.478727340698242 6.731992721557617 0.17221149802207947
10.390064239501953 6.7368035316467285 0.17046219110488892
10.325907707214355 6.725895881652832 0.16963905096054077
10.236756324768066 6.729185104370117 0.1678893268108368
9.967645645141602 6.733479976654053 0.16338390111923218
9.856870651245117 6.749279499053955 0.1615312397480011
9.72455883026123 6.748868942260742 0.1593325138092041
9.590424537658691 6.74616813659668 0.15694546699523926
9.513371467590332 6.751369476318359 0.15438082814216614
9.470084190368652 6.7509074211120605 0.1539115160703659
9.428630828857422 6.750910758972168 0.15275558829307556
