VERSION .7
FIELDS x y z
SIZE 4 4 4
TYPE F F F
COUNT 1 1 1
WIDTH 858
HEIGHT 1
VIEWPOINT 0 0 0 1 0 0 0
POINTS 858
DATA ascii
7.013771057128906 6.256062030792236 0.13928893208503723
6.994377136230469 6.265297889709473 0.13890767097473145
6.952585220336914 6.254260063171387 0.1380235105752945
6.922444820404053 6.253608703613281 0.13742992281913757
6.894659519195557 6.25454044342041 0.13682353496551514
6.867430210113525 6.25621223449707 0.13628900051116943
6.833469390869141 6.251694202423096 0.13556614518165588
6.8066816329956055 6.2535295486450195 0.1347305327653885
6.777022361755371 6.252264022827148 0.13439995050430298
6.754926681518555 6.258298873901367 0.13391360640525818
6.71165657043457 6.244487762451172 0.1327570527791977
6.695148944854736 6.255099296569824 0.13268765807151794
6.6608381271362305 6.2494025230407715 0.1317104548215866
6.634370803833008 6.250851631164551 0.1314457654953003
6.600611209869385 6.2453718185424805 0.1304827779531479
6.573842525482178 6.245949745178223 0.13020935654640198
6.541649341583252 6.241585731506348 0.1292782425880432
6.522844314575195 6.249974250793457 0.12916786968708038
6.486845970153809 6.241695404052734 0.1281646341085434
6.46396541595459 6.245565414428711 0.12796910107135773
6.438404083251953 6.2471747398376465 0.12717673182487488
6.401620864868164 6.237669944763184 0.12670791149139404
6.381716251373291 6.244144439697266 0.12602484226226807
6.355154991149902 6.244441032409668 0.12575982511043549
6.327152252197266 6.243129253387451 0.12492386251688004
6.298742294311523 6.241366386413574 0.1246219128370285
6.271246433258057 6.239965438842773 0.12379375100135803
6.249924659729004 6.244956970214844 0.1233900636434555
6.216257572174072 6.2375688552856445 0.12268862128257751
6.172340393066406 6.245469570159912 0.12179926037788391
6.143305778503418 6.242366790771484 0.12095265835523605
6.087780475616455 6.238279342651367 0.12007980048656464
6.063190460205078 6.238932132720947 0.11955876648426056
6.010388374328613 6.236938953399658 0.11850637197494507
5.929222106933594 6.230634689331055 0.11691536009311676
5.865011215209961 6.241263389587402 0.11537480354309082
5.8127288818359375 6.238064289093018 0.11434090882539749
5.787612438201904 6.237010955810547 0.11410218477249146
5.738892555236816 6.236982822418213 0.11313916742801666
5.712651252746582 6.234722137451172 0.11236383765935898
5.6571550369262695 6.226256370544434 0.11127117276191711
5.631711006164551 6.2244977951049805 0.1105143129825592
5.587815284729004 6.228163242340088 0.10965394228696823
5.555574417114258 6.21848201751709 0.10927721858024597
5.542341232299805 6.230063438415527 0.10876551270484924
5.519791126251221 6.230704307556152 0.10852871835231781
5.486726760864258 6.219679832458496 0.10790526866912842
5.466987609863281 6.223710536956787 0.10749637335538864
5.43983268737793 6.219121932983398 0.10699357837438583
5.423252105712891 6.226613521575928 0.1066487729549408
5.39762544631958 6.223219871520996 0.10617321729660034
5.369093894958496 6.2166852951049805 0.10536758601665497
5.352922439575195 6.2244462966918945 0.10530561953783035
5.331223964691162 6.225300312042236 0.10463272035121918
5.305390357971191 6.221565246582031 0.10438370704650879
5.280735015869141 6.219167709350586 0.10365629196166992
5.260260581970215 6.221522331237793 0.10323864966630936
5.236472129821777 6.219517707824707 0.10280027985572815
5.20939826965332 6.213911056518555 0.10203054547309875
5.193112373352051 6.221006393432617 0.10196830332279205
5.1675543785095215 6.21699333190918 0.10122846066951752
5.148367881774902 6.220123291015625 0.10110541433095932
5.127470970153809 6.221461772918701 0.10046021640300751
5.1051177978515625 6.2210235595703125 0.10000929236412048
5.081164836883545 6.218103408813477 0.09957621991634369
5.059545040130615 6.218284606933594 0.09891479462385178
5.04282283782959 6.224499702453613 0.0988449901342392
5.0158586502075195 6.217901706695557 0.09808637946844101
4.989987373352051 6.212165832519531 0.09783016890287399
4.973856449127197 6.218898773193359 0.09750434756278992
4.950623035430908 6.216602325439453 0.09730593115091324
4.925955295562744 6.212465763092041 0.09659476578235626
4.907644748687744 6.215825080871582 0.09622352570295334
4.885003566741943 6.213968753814697 0.095814049243927
4.86549186706543 6.216084003448486 0.09520845115184784
4.840367317199707 6.2104949951171875 0.09496843814849854
4.797603607177734 6.209383964538574 0.09416323900222778
4.757008075714111 6.210729598999023 0.09318453073501587
4.745882987976074 6.2229132652282715 0.09295810759067535
4.697707653045654 6.21384334564209 0.09205101430416107
4.678149700164795 6.214739799499512 0.09144476801156998
4.632630348205566 6.208514213562012 0.09059285372495651
4.568252086639404 6.203219413757324 0.08915189653635025
4.53543758392334 6.213293075561523 0.08855309337377548
4.510955333709717 6.206760406494141 0.08811511099338531
4.470159530639648 6.205412864685059 0.08735877275466919
4.457110404968262 6.214449882507324 0.08710123598575592
4.429732799530029 6.203780174255371 0.08661270886659622
4.413012504577637 6.208003997802734 0.08628642559051514
4.390713691711426 6.203856468200684 0.0858912542462349
4.368026256561279 6.199402809143066 0.08523830771446228
4.349531173706055 6.200884819030762 0.08513268828392029
4.323111057281494 6.190865993499756 0.08440907299518585
4.305377960205078 6.193254470825195 0.08386081457138062
4.2926411628723145 6.202355861663818 0.08386331051588058
4.27390193939209 6.203112602233887 0.0832938551902771
4.246579170227051 6.1913604736328125 0.08301183581352234
4.233090400695801 6.199234962463379 0.08254154026508331
4.212189197540283 6.196562767028809 0.08192909508943558
4.196656227111816 6.201802730560303 0.08188370615243912
4.170671463012695 6.191042900085449 0.08117210119962692
4.153449058532715 6.193991661071777 0.08109313249588013
4.145281791687012 6.20963191986084 0.08072800934314728
4.118343353271484 6.197457313537598 0.08000260591506958
4.10116720199585 6.199934005737305 0.07992399483919144
4.080775737762451 6.197016716003418 0.07932181656360626
4.0654706954956055 6.202126502990723 0.07927913963794708
4.043686389923096 6.197358131408691 0.07866021990776062
4.029438018798828 6.20361328125 0.07842676341533661
3.999223470687866 6.185527801513672 0.07788905501365662
3.9915168285369873 6.202254772186279 0.07774747908115387
3.960297107696533 6.18226957321167 0.0769442468881607
3.9505624771118164 6.19580078125 0.07700738310813904
3.928175210952759 6.188984394073486 0.0763760358095169
3.9124555587768555 6.192960262298584 0.07612200081348419
3.8931117057800293 6.191216468811035 0.07575415074825287
3.875805616378784 6.192173004150391 0.07522021234035492
3.85475492477417 6.187433242797852 0.07506582140922546
3.841386556625366 6.19504451751709 0.0746123343706131
3.8197884559631348 6.188851833343506 0.07424168288707733
3.808338165283203 6.199427604675293 0.07403040677309036
3.7896361351013184 6.198251724243164 0.0734775960445404
3.767353057861328 6.190635681152344 0.07309427112340927
3.7423853874206543 6.179293632507324 0.07262308150529861
3.7385311126708984 6.201939582824707 0.07259826362133026
3.6993279457092285 6.195770263671875 0.0716605931520462
3.6756539344787598 6.185245513916016 0.07125382125377655
3.6624865531921387 6.193174362182617 0.07101224362850189
3.6444220542907715 6.191919326782227 0.07071327418088913
3.630401372909546 6.197483062744141 0.07044872641563416
3.6085731983184814 6.19050407409668 0.0698445737361908
3.5822978019714355 6.174844741821289 0.06962968409061432
3.5593690872192383 6.164761543273926 0.06919193267822266
45.148277282714844 -6.7600908279418945 1.0075689554214478
45.960655212402344 -6.586586952209473 1.0260299444198608
46.813255310058594 -6.408699035644531 1.0441434383392334
47.40446472167969 -6.286368370056152 1.0567301511764526
47.69544219970703 -6.224264144897461 1.0629262924194336
49.877105712890625 -3.6508214473724365 1.0993889570236206
48.97129821777344 -3.275139331817627 1.0789430141448975
48.07228088378906 -2.9115829467773438 1.0544788837432861
47.348289489746094 -2.667642831802368 1.0383347272872925
47.092315673828125 -2.5551917552948 1.0325959920883179
46.81569290161133 -2.4411630630493164 1.0264170169830322
46.56829833984375 -2.330106019973755 1.020880937576294
46.30825424194336 -2.220761299133301 1.0150716304779053
45.803836822509766 -2.003265380859375 1.0038195848464966
45.646018981933594 -1.901465654373169 1.0002720355987549
45.23248291015625 -1.6934473514556885 0.9910444021224976
45.05221176147461 -1.5915544033050537 0.9854915142059326
57.79358673095703 0.13913874328136444 1.7348493337631226
52.85590362548828 1.7925922870635986 1.5807145833969116
51.98511505126953 2.0903191566467285 1.553621530532837
51.25078582763672 2.3835935592651367 1.532090425491333
51.06172180175781 2.482395887374878 1.5248591899871826
50.8309326171875 2.5786445140838623 1.518126130104065
50.62892150878906 2.675123929977417 1.5122579336166382
50.38056945800781 2.766857624053955 1.5036311149597168
50.21410369873047 2.8639488220214844 1.498840570449829
50.0069580078125 2.9576234817504883 1.4928406476974487
49.80156707763672 3.0491995811462402 1.4868934154510498
49.57693099975586 3.1404101848602295 1.4803798198699951
49.415611267089844 3.2345147132873535 1.4757633209228516
49.240692138671875 3.3273732662200928 1.4707460403442383
49.03602600097656 3.415781021118164 1.461515188217163
48.826759338378906 3.5060319900512695 1.4554979801177979
48.6505012512207 3.5948708057403564 1.4504629373550415
48.32001876831055 3.7751224040985107 1.4397501945495605
48.11467742919922 3.859553813934326 1.432234525680542
47.789825439453125 4.036124229431152 1.423058032989502
47.25700759887695 4.290493965148926 1.4079673290252686
46.756370544433594 4.541576385498047 1.3910048007965088
44.702667236328125 5.482604503631592 1.3278017044067383
44.274356842041016 5.712818145751953 1.314613699913025
43.79820251464844 5.931536674499512 1.3003493547439575
43.49209213256836 6.076711654663086 1.2920093536376953
43.34564208984375 6.147982597351074 1.2865557670593262
43.2169189453125 6.222445487976074 1.2819294929504395
43.060096740722656 6.2925872802734375 1.2776684761047363
42.930572509765625 6.364678382873535 1.274214267730713
42.79871368408203 6.437119960784912 1.2706996202468872
42.60129928588867 6.499332904815674 1.2637866735458374
42.506805419921875 6.57639741897583 1.261392593383789
42.369903564453125 6.64674186706543 1.2565717697143555
42.26218795776367 6.719733238220215 1.2537877559661865
42.10359191894531 6.785308361053467 1.2495031356811523
41.972259521484375 6.854989051818848 1.2460325956344604
41.84981155395508 6.9241838455200195 1.2413909435272217
41.767967224121094 7.00234317779541 1.2382441759109497
41.660240173339844 7.0731964111328125 1.2354811429977417
41.47929382324219 7.13106632232666 1.228865146636963
41.339622497558594 7.1980085372924805 1.2251794338226318
41.02613830566406 7.231175422668457 1.2163310050964355
40.095489501953125 7.241377830505371 1.1896350383758545
39.65953063964844 7.247659683227539 1.1746821403503418
38.79309844970703 7.258282661437988 1.1499128341674805
37.497188568115234 7.260088920593262 1.110499382019043
36.30525207519531 7.266394138336182 1.0765299797058105
33.13568115234375 7.286643981933594 0.982313334941864
32.15744400024414 7.283760070800781 0.9524263143539429
31.278125762939453 7.291611194610596 0.926645040512085
30.630090713500977 7.276681900024414 0.9074814319610596
30.32833480834961 7.271515846252441 0.8979358077049255
30.073230743408203 7.277251720428467 0.8908350467681885
29.781848907470703 7.273260593414307 0.8818193674087524
29.511051177978516 7.272052764892578 0.8742449283599854
29.22509765625 7.2668023109436035 0.8652129769325256
28.946414947509766 7.262359619140625 0.8574100136756897
28.670339584350586 7.2563700675964355 0.848867654800415
28.439577102661133 7.261625289916992 0.8424874544143677
28.17441177368164 7.2572431564331055 0.8341048955917358
27.92481231689453 7.254778861999512 0.8271597623825073
27.668481826782227 7.251314640045166 0.8192383050918579
27.433908462524414 7.25071382522583 0.812740683555603
27.181650161743164 7.245220184326172 0.8047704100608826
26.969234466552734 7.249549865722656 0.7989307641983032
26.73025131225586 7.244820594787598 0.7915345430374146
26.493955612182617 7.2415666580200195 0.7849947810173035
26.256332397460938 7.235208511352539 0.7774789333343506
26.045188903808594 7.235211372375488 0.7707576155662537
25.81478500366211 7.230644226074219 0.7643997073173523
25.585569381713867 7.223735809326172 0.7580505609512329
25.159029006958008 7.217846870422363 0.7447081804275513
24.93781280517578 7.21042537689209 0.7385997176170349
24.52752685546875 7.203865051269531 0.7257804870605469
23.94107437133789 7.195417404174805 0.7097522616386414
21.782817840576172 7.150149345397949 0.6453085541725159
21.287870407104492 7.1362409591674805 0.6312097311019897
20.816364288330078 7.124059677124023 0.6172008514404297
20.665725708007812 7.120448112487793 0.61257004737854
20.530494689941406 7.122955322265625 0.6090110540390015
20.37350845336914 7.115891456604004 0.6040647029876709
20.243480682373047 7.117644309997559 0.6000591516494751
20.08829689025879 7.111336708068848 0.5959050059318542
19.94759750366211 7.108145713806152 0.5914566516876221
19.81201171875 7.106813430786133 0.5878813862800598
19.671226501464844 7.10316801071167 0.5835744142532349
19.54408836364746 7.103139400482178 0.579534113407135
19.39803695678711 7.097006797790527 0.5756517052650452
19.25391387939453 7.089615821838379 0.5712473392486572
19.14158821105957 7.093398571014404 0.5676630735397339
19.001140594482422 7.08755350112915 0.5639472603797913
18.867822647094727 7.082462310791016 0.5598726868629456
18.738723754882812 7.0789899826049805 0.5564839839935303
18.617080688476562 7.077934741973877 0.5526399612426758
18.482404708862305 7.070666313171387 0.5485369563102722
18.367155075073242 7.071591377258301 0.5455623269081116
18.244850158691406 7.068012237548828 0.5417097806930542
18.128387451171875 7.066194534301758 0.5381503105163574
18.000118255615234 7.060530185699463 0.5336098670959473
17.885955810546875 7.058611869812012 0.5306544303894043
17.770631790161133 7.055755615234375 0.5276647210121155
17.662830352783203 7.056671619415283 0.5237562656402588
17.53072738647461 7.046113967895508 0.5202649235725403
17.303571701049805 7.039603233337402 0.513259768486023
17.203676223754883 7.040606498718262 0.5107252597808838
15.76732063293457 7.001086235046387 0.4687301814556122
15.476728439331055 6.988861560821533 0.45941537618637085
15.199848175048828 6.97920036315918 0.4514697790145874
15.097963333129883 6.970392227172852 0.44887515902519226
15.021587371826172 6.973599433898926 0.44658246636390686
14.918663024902344 6.963982105255127 0.44340401887893677
14.829079627990723 6.959680080413818 0.4411684572696686
14.754298210144043 6.9630842208862305 0.43839454650878906
14.672388076782227 6.96169376373291 0.436384379863739
14.571966171264648 6.951129913330078 0.4338265657424927
14.492301940917969 6.951169967651367 0.43090933561325073
14.397468566894531 6.942471981048584 0.4285239577293396
14.334699630737305 6.949390888214111 0.42665040493011475
14.237443923950195 6.939360618591309 0.4236562252044678
14.166189193725586 6.941049575805664 0.4219650626182556
14.076789855957031 6.934575080871582 0.41878271102905273
14.005502700805664 6.935612201690674 0.417092502117157
13.91757583618164 6.928071975708008 0.4149002432823181
13.848898887634277 6.930839538574219 0.4123460054397583
13.765737533569336 6.924979209899902 0.41029858589172363
13.69679069519043 6.9265265464782715 0.40825796127319336
13.61147403717041 6.919358253479004 0.4056307077407837
13.534479141235352 6.915600776672363 0.40293020009994507
13.455915451049805 6.911746978759766 0.4010298252105713
13.395905494689941 6.916093826293945 0.39874744415283203
13.307554244995117 6.905494689941406 0.3965456187725067
13.232457160949707 6.902444839477539 0.3938341736793518
13.152067184448242 6.895267009735107 0.39186346530914307
13.101029396057129 6.903770446777344 0.3907776474952698
12.949602127075195 6.893250942230225 0.38621965050697327
12.873479843139648 6.887609481811523 0.38349175453186035
12.747024536132812 6.888606071472168 0.38057759404182434
12.53365707397461 6.875453948974609 0.374225914478302
12.007303237915039 6.85189962387085 0.3589017391204834
11.82002067565918 6.843888282775879 0.3529984951019287
11.76939868927002 6.847661972045898 0.35191649198532104
11.646003723144531 6.841678142547607 0.3482600450515747
11.577893257141113 6.834023475646973 0.345826119184494
11.45563793182373 6.827076435089111 0.3430293798446655
11.418357849121094 6.837010383605957 0.3415253162384033
11.336902618408203 6.820756912231445 0.33951815962791443
11.292150497436523 6.826210021972656 0.33780038356781006
11.232256889343262 6.821871280670166 0.33643126487731934
11.17818832397461 6.8213419914245605 0.3344430923461914
11.110962867736816 6.812422275543213 0.33286046981811523
11.061930656433105 6.813983917236328 0.33181264996528625
11.006970405578613 6.812607765197754 0.32981032133102417
10.950835227966309 6.809334754943848 0.3285503089427948
10.889860153198242 6.802796840667725 0.32636016607284546
10.848577499389648 6.809269905090332 0.32555678486824036
10.784835815429688 6.800500392913818 0.323289692401886
10.736144065856934 6.801894187927246 0.32226479053497314
10.67985725402832 6.797332763671875 0.3209981322288513
10.629997253417969 6.796635627746582 0.31915104389190674
10.574886322021484 6.793267250061035 0.3175099492073059
10.523621559143066 6.791227340698242 0.3157048523426056
10.473287582397461 6.790071487426758 0.31428155303001404
10.430743217468262 6.793682098388672 0.3130141496658325
10.36886978149414 6.784069538116455 0.31123921275138855
10.321213722229004 6.784015655517578 0.3098227381706238
10.263827323913574 6.777243614196777 0.3081889748573303
10.217775344848633 6.777326583862305 0.3068162202835083
10.11128044128418 6.7681779861450195 0.303727388381958
10.058100700378418 6.763339042663574 0.3025575876235962
9.965807914733887 6.761910438537598 0.29989320039749146
9.933176040649414 6.770403861999512 0.29901063442230225
9.84445571899414 6.7703399658203125 0.296458899974823
9.779272079467773 6.755932807922363 0.2945249080657959
9.688396453857422 6.753119468688965 0.29191386699676514
9.556123733520508 6.751060485839844 0.28849363327026367
9.412811279296875 6.738921165466309 0.28402620553970337
9.322644233703613 6.7339324951171875 0.28152787685394287
9.289084434509277 6.739459037780762 0.280555784702301
9.198776245117188 6.7328643798828125 0.2779802083969116
9.147015571594238 6.724560737609863 0.27684250473976135
9.065682411193848 6.723379135131836 0.27454110980033875
9.031335830688477 6.727386951446533 0.27324074506759644
8.94973087310791 6.725005149841309 0.2709369361400604
8.903374671936035 6.719509124755859 0.2699612081050873
8.859054565429688 6.715429782867432 0.2683667242527008
8.825979232788086 6.719625949859619 0.2677922248840332
8.783838272094727 6.716381072998047 0.26626062393188477
8.728477478027344 6.7032670974731445 0.2650105953216553
8.698405265808105 6.709295272827148 0.2638539671897888
8.66229248046875 6.71015739440918 0.26318079233169556
8.62000846862793 6.706536293029785 0.26165831089019775
8.573861122131348 6.699619293212891 0.26068437099456787
8.547849655151367 6.707908630371094 0.26001816987991333
8.495561599731445 6.695874214172363 0.25849276781082153
8.465993881225586 6.701475620269775 0.25802120566368103
8.420536041259766 6.694423675537109 0.25640833377838135
8.382847785949707 6.693277359008789 0.2553281784057617
8.334168434143066 6.68277645111084 0.2539741098880768
8.304206848144531 6.687573432922363 0.2531318664550781
8.266603469848633 6.685992240905762 0.2521217465400696
8.22610092163086 6.681978225708008 0.25095924735069275
8.191486358642578 6.682497978210449 0.2500414550304413
8.157076835632324 6.6826677322387695 0.2490592747926712
8.10899543762207 6.671904563903809 0.24773216247558594
8.090288162231445 6.685089111328125 0.24723610281944275
8.041661262512207 6.673038482666016 0.24617332220077515
8.007874488830566 6.6735663414001465 0.24493220448493958
7.963810920715332 6.66526985168457 0.24401336908340454
7.938342094421387 6.672015190124512 0.24302273988723755
7.902414798736572 6.670306205749512 0.24206942319869995
7.863624095916748 6.665928363800049 0.24096278846263885
7.833111763000488 6.6685028076171875 0.24017593264579773
7.767389297485352 6.6687211990356445 0.23866859078407288
7.727593421936035 6.662914276123047 0.2372542768716812
7.649372577667236 6.651387691497803 0.23508477210998535
7.6238579750061035 6.657486915588379 0.23445409536361694
7.525128364562988 6.655116081237793 0.23202505707740784
7.457878112792969 6.651823997497559 0.23020239174365997
7.347404479980469 6.636694431304932 0.22686666250228882
7.297715187072754 6.6478352546691895 0.22559145092964172
7.262378692626953 6.643274307250977 0.22492532432079315
7.205916404724121 6.6475830078125 0.2234424501657486
7.154604911804199 6.628146171569824 0.22168809175491333
7.100839614868164 6.633760929107666 0.22028610110282898
7.0772857666015625 6.639679908752441 0.21998852491378784
7.034395217895508 6.626941204071045 0.2184918224811554
7.0011491775512695 6.623543739318848 0.21789366006851196
6.979001522064209 6.630453586578369 0.21704944968223572
6.955023765563965 6.635634422302246 0.21641510725021362
6.906920433044434 6.61717414855957 0.21508237719535828
6.885942459106445 6.6249003410339355 0.21453988552093506
6.847356796264648 6.615639686584473 0.21351125836372375
6.828582763671875 6.62531852722168 0.21303990483283997
6.788656234741211 6.613985061645508 0.21164342761039734
6.7649030685424805 6.618707656860352 0.21133658289909363
6.730567932128906 6.612870216369629 0.21038275957107544
6.710787773132324 6.620860576629639 0.20961719751358032
6.669066429138184 6.607509613037109 0.20874914526939392
6.653489589691162 6.619856834411621 0.2081235647201538
6.611665725708008 6.606047630310059 0.20725032687187195
6.585964202880859 6.607736110687256 0.2063051164150238
6.54702091217041 6.596346378326416 0.20551912486553192
6.528571605682373 6.605559349060059 0.20481052994728088
6.495718955993652 6.600019454956055 0.204213947057724
6.465640068054199 6.596783638000488 0.20313268899917603
6.447136878967285 6.605713367462158 0.20273606479167938
6.419498443603516 6.605123519897461 0.20199407637119293
6.379734992980957 6.59196662902832 0.20092755556106567
6.3615031242370605 6.60048246383667 0.20047515630722046
6.335753917694092 6.601489067077637 0.19985052943229675
6.303305149078369 6.595463752746582 0.1989588588476181
6.277126312255859 6.595782279968262 0.1983199119567871
6.257645606994629 6.602694511413574 0.1978294849395752
6.224553108215332 6.595580101013184 0.19667187333106995
6.16477108001709 6.587150573730469 0.19509804248809814
6.144794464111328 6.593620777130127 0.19465693831443787
6.093069553375244 6.593575477600098 0.193293958902359
6.061630725860596 6.586925506591797 0.19273176789283752
6.009930610656738 6.586195945739746 0.19142167270183563
5.935143947601318 6.5869317054748535 0.1892710030078888
5.845648765563965 6.570199012756348 0.1866585612297058
5.79344367980957 6.567006587982178 0.18533925712108612
5.777885437011719 6.576831817626953 0.18527576327323914
5.72412109375 6.57124137878418 0.1839059442281723
5.691314697265625 6.561384677886963 0.18276426196098328
5.679320335388184 6.575519561767578 0.1825852394104004
5.64130973815918 6.558976173400879 0.18151095509529114
5.627477645874023 6.5707902908325195 0.18098075687885284
5.597725868225098 6.564019203186035 0.18046993017196655
5.57790470123291 6.568334579467773 0.17974428832530975
5.544715881347656 6.557147026062012 0.179117351770401
5.528637886047363 6.566166877746582 0.17851996421813965
5.50223970413208 6.562771797180176 0.17787723243236542
5.478048324584961 6.561528205871582 0.1774851679801941
5.445662498474121 6.5507659912109375 0.17659549415111542
5.425738334655762 6.554786682128906 0.1761627197265625
5.398792266845703 6.55030632019043 0.17521506547927856
5.381533622741699 6.557043075561523 0.17510110139846802
5.353886604309082 6.551398277282715 0.17413029074668884
5.336487770080566 6.558284759521484 0.1740128993988037
5.318861961364746 6.5644025802612305 0.17336894571781158
5.289421081542969 6.556203842163086 0.17234113812446594
5.26332950592041 6.552088260650635 0.1719416379928589
5.247526168823242 6.56062126159668 0.17136307060718536
5.217916011810303 6.551427841186523 0.1708402931690216
5.190915584564209 6.545804500579834 0.16989536583423615
5.167159557342529 6.544063568115234 0.16956961154937744
5.153263568878174 6.554838180541992 0.16905522346496582
5.125750541687012 6.547761917114258 0.1683700680732727
5.103363990783691 6.547482490539551 0.16780893504619598
5.075134754180908 6.539660453796387 0.1668277531862259
5.062999725341797 6.552051544189453 0.16687560081481934
5.0379815101623535 6.5480852127075195 0.16599971055984497
5.013236999511719 6.54443359375 0.16541317105293274
4.995089530944824 6.549222469329834 0.16499096155166626
4.973295211791992 6.549242973327637 0.16450005769729614
4.938796043395996 6.5319108963012695 0.1635328084230423
4.9240217208862305 6.540914535522461 0.16322526335716248
4.899250507354736 6.536651134490967 0.16285860538482666
4.879852771759033 6.539001941680908 0.1621706783771515
4.853152275085449 6.531831741333008 0.1617361307144165
4.842512130737305 6.5463032722473145 0.1613425314426422
4.793537139892578 6.537042617797852 0.16012555360794067
4.771608352661133 6.5359954833984375 0.15935900807380676
4.7228593826293945 6.526762962341309 0.15815594792366028
4.709247589111328 6.536470413208008 0.15793120861053467
4.668412685394287 6.537668228149414 0.15672490000724792
4.639946937561035 6.526399612426758 0.15600278973579407
4.591392993927002 6.516040802001953 0.15480469167232513
4.576770305633545 6.5239996910095215 0.1545030176639557
4.537598609924316 6.526451110839844 0.1533985286951065
4.495856285095215 6.524871826171875 0.15243282914161682
4.469757556915283 6.51589298248291 0.1517409086227417
4.424411296844482 6.508378982543945 0.15091478824615479
4.410086154937744 6.516351699829102 0.15040409564971924
4.37581205368042 6.524738788604736 0.14969363808631897
4.341355323791504 6.502490043640137 0.14849843084812164
4.326742649078369 6.510678291320801 0.14847491681575775
4.308891773223877 6.513097763061523 0.14784860610961914
4.293209075927734 6.519137382507324 0.1473027467727661
4.263984203338623 6.504581451416016 0.14677190780639648
4.25131368637085 6.514698505401611 0.14632648229599
4.228908538818359 6.510232925415039 0.1458120346069336
4.214900970458984 6.5187201499938965 0.1455443799495697
4.182773590087891 6.498569011688232 0.14442631602287292
4.17095947265625 6.510252952575684 0.14449197053909302
4.146819591522217 6.502721309661865 0.1436568796634674
4.131348609924316 6.508608818054199 0.1433870792388916
4.106137275695801 6.499140739440918 0.14272698760032654
4.089412689208984 6.502513885498047 0.14214429259300232
4.0704827308654785 6.502713203430176 0.14196254312992096
4.055936813354492 6.509960174560547 0.14146381616592407
4.0251030921936035 6.49044132232666 0.14065101742744446
4.010873317718506 6.497960090637207 0.14037203788757324
3.9945216178894043 6.502107620239258 0.1400708705186844
3.9837021827697754 6.514769554138184 0.13969767093658447
3.9536452293395996 6.4962663650512695 0.1391240358352661
3.9383015632629395 6.501888275146484 0.13860082626342773
3.917328357696533 6.497653484344482 0.13812881708145142
3.8984503746032715 6.497692108154297 0.13769730925559998
3.879088878631592 6.495940208435059 0.13728201389312744
3.8596084117889404 6.49429988861084 0.1366143524646759
3.8378589153289795 6.488821983337402 0.13607576489448547
3.818504810333252 6.486782073974609 0.13565999269485474
3.801222801208496 6.488594055175781 0.13527870178222656
3.78389835357666 6.490364074707031 0.1349411904811859
3.7623343467712402 6.484264850616455 0.13419389724731445
3.7513480186462402 6.497265815734863 0.1340455263853073
3.7304015159606934 6.492061614990234 0.1335713416337967
3.71604585647583 6.498257637023926 0.13308311998844147
3.6854681968688965 6.4768548011779785 0.132232666015625
3.678077459335327 6.4951863288879395 0.13224603235721588
3.6403298377990723 6.492140769958496 0.1314169466495514
3.615058422088623 6.478549957275391 0.13053734600543976
3.578096628189087 6.476258754730225 0.12973439693450928
3.5638370513916016 6.482192039489746 0.12925097346305847
3.5466530323028564 6.483705520629883 0.1291303038597107
3.5280508995056152 6.481609344482422 0.1284945011138916
3.4907684326171875 6.477937698364258 0.12792620062828064
39.91856002807617 -7.791240215301514 1.2361235618591309
47.993988037109375 -6.161959648132324 1.4669432640075684
48.89274597167969 -5.965162754058838 1.4932383298873901
49.51484680175781 -5.829537391662598 1.5114747285842896
49.8292350769043 -5.761737823486328 1.5220816135406494
50.46039581298828 -5.619470596313477 1.5406244993209839
51.40148162841797 -5.397348403930664 1.5682899951934814
52.39070510864258 -5.16844367980957 1.5974490642547607
60.65927505493164 -3.165045738220215 1.8340452909469604
61.912071228027344 -2.840258836746216 1.8713469505310059
62.80213165283203 -2.6160976886749268 1.897900104522705
63.256103515625 -2.5035226345062256 1.9097189903259277
64.16527557373047 -2.2688987255096436 1.9368617534637451
64.62213134765625 -2.1507925987243652 1.9505140781402588
65.02437591552734 -1.8901020288467407 1.9566874504089355
64.7528076171875 -1.7477452754974365 1.9484282732009888
63.73162841796875 -1.451608419418335 1.917490005493164
63.394996643066406 -1.3123215436935425 1.9072754383087158
62.45403289794922 -1.0297367572784424 1.8788273334503174
61.0081901550293 -0.6222947835922241 1.8331043720245361
59.34686279296875 -0.23021897673606873 1.783104658126831
18.26253318786621 6.989682197570801 0.5399631857872009
17.890487670898438 6.976546764373779 0.5290774703025818
17.646770477294922 6.967267990112305 0.5215742588043213
17.545578002929688 6.969436168670654 0.5190097093582153
17.320049285888672 6.964445114135742 0.5120620727539062
16.994203567504883 6.957846641540527 0.5014692544937134
14.080758094787598 6.865596771240234 0.41396716237068176
13.85215950012207 6.862254619598389 0.4071374833583832
13.6806640625 6.8492021560668945 0.4020071029663086
13.619230270385742 6.853829860687256 0.4006151854991913
13.461282730102539 6.845541954040527 0.3950648903846741
13.39902114868164 6.848913192749023 0.39314746856689453
13.232076644897461 6.8340163230896 0.38818252086639404
13.162481307983398 6.832711219787598 0.3861472010612488
13.009777069091797 6.823147773742676 0.38161006569862366
12.94637680053711 6.82418966293335 0.37967634201049805
12.802309036254883 6.817300796508789 0.37539929151535034
12.740036010742188 6.818112373352051 0.37359315156936646
12.608316421508789 6.8160810470581055 0.36921191215515137
12.394779205322266 6.8016815185546875 0.3633389472961426
11.055694580078125 6.7488603591918945 0.3226662874221802
10.88300895690918 6.738133430480957 0.3176504373550415
10.782108306884766 6.738229751586914 0.3144005239009857
10.723264694213867 6.732850074768066 0.31267309188842773
10.624122619628906 6.73314905166626 0.30983567237854004
10.56747055053711 6.728022575378418 0.3078269064426422
10.458578109741211 6.720758438110352 0.3043808937072754
10.418807029724121 6.725793361663818 0.3032841682434082
10.354192733764648 6.715059280395508 0.3013995289802551
10.305736541748047 6.714458465576172 0.299646258354187
10.266353607177734 6.719188690185547 0.29890912771224976
10.213099479675293 6.715139389038086 0.2970224916934967
10.162137985229492 6.712278842926025 0.2952089309692383
10.115074157714844 6.711382865905762 0.2942442297935486
10.008820533752441 6.701761245727539 0.2912376821041107
9.955516815185547 6.69651985168457 0.2893655300140381
9.872507095336914 6.7007598876953125 0.28703030943870544
9.814361572265625 6.691570281982422 0.2850267291069031
9.720024108886719 6.687386512756348 0.28237730264663696
9.681700706481934 6.690664291381836 0.28095105290412903
8.87298583984375 6.640641212463379 0.25683093070983887
8.766183853149414 6.6470947265625 0.25390228629112244
8.669620513916016 6.631563186645508 0.25057709217071533
8.64093017578125 6.638085842132568 0.2501510977745056
8.560184478759766 6.633568286895752 0.2472931444644928
8.524137496948242 6.633991718292236 0.24665096402168274
8.44984245300293 6.633500099182129 0.24399243295192719
8.390445709228516 6.615059852600098 0.24267122149467468
8.329657554626465 6.624207496643066 0.24071142077445984
8.281291007995605 6.6142168045043945 0.2394239902496338
8.24795150756836 6.616124629974365 0.23822021484375
8.218216896057129 6.6203484535217285 0.23739948868751526
8.173473358154297 6.6126909255981445 0.2362181842327118
8.13222885131836 6.6077446937561035 0.23479002714157104
8.093533515930176 6.604234218597412 0.2337203025817871
8.068560600280762 6.612166404724121 0.23276406526565552
8.030847549438477 6.609619140625 0.2317923754453659
7.991388320922852 6.605376243591309 0.2307041585445404
7.954930305480957 6.603528022766113 0.22942045331001282
7.924724102020264 6.606277942657471 0.2286645770072937
7.877473831176758 6.595012187957764 0.22735214233398438
7.847724914550781 6.5983052253723145 0.2262716442346573
7.810140609741211 6.594419002532959 0.22529900074005127
7.736993789672852 6.588669300079346 0.22302889823913574
7.692612171173096 6.578465461730957 0.2218596339225769
7.630856513977051 6.581494331359863 0.2199220359325409
7.528504371643066 6.576203346252441 0.21693861484527588
7.428650856018066 6.571770668029785 0.21430963277816772
7.318814277648926 6.5570831298828125 0.2108568549156189
7.232931613922119 6.562572956085205 0.20837296545505524
7.127518653869629 6.549897193908691 0.20534467697143555
7.044563293457031 6.555826663970947 0.2026388943195343
6.948245048522949 6.548182487487793 0.19988378882408142
6.875852584838867 6.534851551055908 0.19775354862213135
6.8520402908325195 6.539337158203125 0.19713984429836273
6.7919793128967285 6.536894798278809 0.19536879658699036
6.754372596740723 6.527754783630371 0.1943589150905609
6.692271709442139 6.522469520568848 0.19247408211231232
6.660486221313477 6.518495082855225 0.19195231795310974
6.63737678527832 6.523340225219727 0.19111132621765137
6.6118621826171875 6.525650501251221 0.19020530581474304
6.578521728515625 6.519749641418457 0.18906846642494202
6.5497965812683105 6.519074440002441 0.18864597380161285
6.523146152496338 6.519552707672119 0.18770048022270203
6.487508773803711 6.510900497436523 0.18650580942630768
6.464841842651367 6.515933036804199 0.18569031357765198
6.435786247253418 6.513627052307129 0.18524566292762756
6.406455039978027 6.510910987854004 0.18423286080360413
6.377756595611572 6.5095014572143555 0.1832485795021057
6.343884468078613 6.501865386962891 0.18210914731025696
6.324597358703613 6.509505271911621 0.18194933235645294
6.293635845184326 6.504948139190674 0.1808994710445404
6.2599639892578125 6.497072219848633 0.17976641654968262
6.230534553527832 6.493879795074463 0.17876550555229187
6.215455532073975 6.505489349365234 0.17872384190559387
6.185702323913574 6.50130558013916 0.17770731449127197
6.166951656341553 6.5093865394592285 0.17702431976795197
6.1324357986450195 6.4999189376831055 0.17587044835090637
6.111432075500488 6.505084037780762 0.1753634363412857
6.078254699707031 6.497089862823486 0.17455798387527466
6.051595687866211 6.495560646057129 0.17412513494491577
6.000051975250244 6.494863510131836 0.17264443635940552
5.969304084777832 6.488543510437012 0.17160797119140625
5.9181013107299805 6.487509250640869 0.17008870840072632
5.896071434020996 6.490797996520996 0.16931389272212982
5.808012008666992 6.475183486938477 0.16688653826713562
5.737425804138184 6.477961540222168 0.16473302245140076
5.601682662963867 6.460081100463867 0.16091729700565338
5.536982536315918 6.467164039611816 0.15866373479366302
5.453194618225098 6.450950622558594 0.15639066696166992
5.410157203674316 6.454981803894043 0.1556524634361267
5.385219573974609 6.452380180358887 0.15480831265449524
5.355813503265381 6.444643020629883 0.1538390815258026
5.3369855880737305 6.44960880279541 0.1531769037246704
5.316394805908203 6.452297687530518 0.15246622264385223
5.291579723358154 6.449405193328857 0.15213745832443237
5.267419815063477 6.4476399421691895 0.15132388472557068
5.253141403198242 6.457827568054199 0.15079712867736816
5.224808692932129 6.4502949714660645 0.14986106753349304
5.2044501304626465 6.452937126159668 0.14915910363197327
5.173529624938965 6.442271709442139 0.14838366210460663
5.148101329803467 6.438371658325195 0.14781662821769714
5.1292643547058105 6.442539691925049 0.14716094732284546
5.09367561340332 6.425156593322754 0.14602206647396088
5.078684329986572 6.4340715408325195 0.1454806625843048
5.0582098960876465 6.435911178588867 0.14478296041488647
5.034634113311768 6.433349132537842 0.14448946714401245
5.011423587799072 6.431589603424072 0.14371129870414734
4.992894649505615 6.435674667358398 0.14307351410388947
4.964597702026367 6.426693916320801 0.14214903116226196
4.9463911056518555 6.431113243103027 0.1415192037820816
4.926028728485107 6.432580471038818 0.14105123281478882
4.897078990936279 6.42279052734375 0.1403888314962387
4.875433444976807 6.421998023986816 0.1398772895336151
4.8550124168396 6.423096656799316 0.13918818533420563
4.838260173797607 6.429073333740234 0.13860610127449036
4.809318542480469 6.418661117553711 0.1379433125257492
4.795674800872803 6.428659439086914 0.13744895160198212
4.757721900939941 6.40547513961792 0.1364753544330597
4.750112533569336 6.42340087890625 0.1361549347639084
4.7247185707092285 6.417325019836426 0.13532890379428864
4.709184646606445 6.424106121063232 0.13477855920791626
4.684633255004883 6.418875694274902 0.1342444270849228
4.662631034851074 6.417102813720703 0.1335166096687317
4.6387939453125 6.412236213684082 0.13294938206672668
4.6204376220703125 6.41522216796875 0.1323275864124298
4.598998069763184 6.413933753967285 0.13161951303482056
4.57028865814209 6.401906967163086 0.13069655001163483
4.558106422424316 6.413314342498779 0.1302538812160492
4.534272193908691 6.4083571434021 0.12974168360233307
4.511142730712891 6.403810977935791 0.12919701635837555
4.494265556335449 6.408888339996338 0.12862689793109894
4.465704917907715 6.396356582641602 0.12771368026733398
4.427079200744629 6.398271560668945 0.12642763555049896
4.4033989906311035 6.392356872558594 0.1256566196680069
4.363460063934326 6.39183235168457 0.12481050193309784
4.339641571044922 6.38535737991333 0.12403854727745056
4.301573276519775 6.3870391845703125 0.12303632497787476
4.261535167694092 6.385467052459717 0.12172214686870575
4.2478132247924805 6.393600940704346 0.12145082652568817
4.20332145690918 6.384809970855713 0.12001208961009979
4.1861891746521 6.387608528137207 0.11943548917770386
4.164363861083984 6.384011268615723 0.11899381875991821
4.146336078643799 6.38529109954834 0.11839155107736588
4.124735355377197 6.380979061126709 0.11768622696399689
4.103974342346191 6.378708839416504 0.11723123490810394
4.088732719421387 6.384096145629883 0.11671014130115509
4.067278861999512 6.379709720611572 0.11601364612579346
4.048975944519043 6.381032466888428 0.11541756987571716
4.030017852783203 6.38038444519043 0.11479470133781433
4.013092994689941 6.382887363433838 0.11448320746421814
3.9844579696655273 6.367489814758301 0.11359398812055588
3.970315456390381 6.374267578125 0.1133151650428772
3.951186180114746 6.373377323150635 0.11269405484199524
3.9296154975891113 6.368533611297607 0.11200524866580963
3.903717517852783 6.356039524078369 0.11118518561124802
3.8922390937805176 6.367814064025879 0.11079087853431702
3.870728015899658 6.3622541427612305 0.11010085791349411
3.853996515274048 6.36445951461792 0.10954706370830536
3.836604356765747 6.366393089294434 0.10923323035240173
3.8159680366516113 6.361976623535156 0.10856878012418747
3.7969374656677246 6.360132217407227 0.10795076191425323
3.7798242568969727 6.362307548522949 0.10760198533535004
3.759150743484497 6.357517242431641 0.10693688690662384
3.734189033508301 6.345321178436279 0.10614977777004242
3.727623462677002 6.365233421325684 0.10590064525604248
3.70701003074646 6.360264778137207 0.10524190217256546
3.6831283569335938 6.350032806396484 0.10449470579624176
3.66469144821167 6.348966598510742 0.10414870083332062
18.82069969177246 7.797023773193359 0.7217243909835815
18.552518844604492 7.777624130249023 0.7128143906593323
18.189208984375 7.760119438171387 0.6995042562484741
17.818809509277344 7.734862327575684 0.684745192527771
14.208620071411133 7.489533424377441 0.5486193895339966
14.141467094421387 7.491678237915039 0.5460834503173828
13.962080001831055 7.472116470336914 0.5393989086151123
13.889791488647461 7.470550060272217 0.5367708206176758
13.724846839904785 7.456526279449463 0.5302250385284424
13.647067070007324 7.450991153717041 0.5278136730194092
13.586451530456543 7.455615043640137 0.5251404047012329
13.498003005981445 7.443567276000977 0.5218903422355652
13.347583770751953 7.43409538269043 0.5163471102714539
13.271830558776855 7.428030490875244 0.5135024189949036
13.055980682373047 7.415392875671387 0.505111575126648
12.824687957763672 7.391040802001953 0.4966430068016052
11.100431442260742 7.264646530151367 0.43213969469070435
10.92202377319336 7.246364593505859 0.4253605604171753
10.8720064163208 7.246147632598877 0.42320799827575684
10.763948440551758 7.239780426025391 0.41939258575439453
10.709136009216309 7.235236167907715 0.41783949732780457
10.657011032104492 7.2327985763549805 0.4156140685081482
10.59473991394043 7.223121643066406 0.41306960582733154
10.552501678466797 7.226446628570557 0.41157668828964233
10.492704391479492 7.218048095703125 0.4090614318847656
10.445240020751953 7.217799663543701 0.40780043601989746
10.379948616027832 7.205070495605469 0.40506982803344727
10.342475891113281 7.210908889770508 0.4034242630004883
10.2818603515625 7.200821399688721 0.4016492962837219
10.223787307739258 7.192333698272705 0.3992067575454712
10.138676643371582 7.19596529006958 0.3962972164154053
10.083948135375977 7.189148426055908 0.39398908615112305
9.983802795410156 7.180850982666016 0.3904920220375061
9.835135459899902 7.168670654296875 0.3849549889564514
9.67963981628418 7.148943901062012 0.37915095686912537
8.747062683105469 7.076352119445801 0.34488189220428467
8.70376205444336 7.071254730224609 0.3430653214454651
8.614384651184082 7.059073448181152 0.34002891182899475
8.581412315368652 7.062264442443848 0.33863723278045654
8.504451751708984 7.058818340301514 0.3360854983329773
8.458301544189453 7.050601959228516 0.334173321723938
8.425177574157715 7.053155899047852 0.3330845236778259
8.381458282470703 7.046191215515137 0.3316305875778198
8.347140312194824 7.0473480224609375 0.33049118518829346
8.304702758789062 7.041568756103516 0.32873401045799255
8.271614074707031 7.043071746826172 0.3273366391658783
8.227243423461914 7.035184860229492 0.32586586475372314
8.197519302368164 7.0397491455078125 0.32491493225097656
8.141475677490234 7.021028518676758 0.32261428236961365
8.100761413574219 7.016147613525391 0.3213004469871521
8.066925048828125 7.0161919593811035 0.32017576694488525
8.027910232543945 7.011961460113525 0.318561315536499
7.993471145629883 7.011652946472168 0.31748461723327637
7.963454246520996 7.014617919921875 0.3165157735347748
7.918475151062012 7.004619598388672 0.31466880440711975
7.89504337310791 7.013625621795654 0.31367966532707214
7.841925621032715 6.995608329772949 0.3121437728404999
7.820711135864258 7.006742477416992 0.311250776052475
7.770010471343994 6.990440368652344 0.3091709613800049
7.745946407318115 6.99793004989624 0.3085065186023712
7.696505069732666 6.983180999755859 0.30678099393844604
7.671156883239746 6.989262104034424 0.30571290850639343
7.563455581665039 6.978655815124512 0.30190783739089966
7.457089900970459 6.967812538146973 0.29843735694885254
7.062412261962891 6.940605163574219 0.28410762548446655
6.951696872711182 6.918245315551758 0.28019991517066956
6.898510456085205 6.923385143280029 0.27803462743759155
6.858744144439697 6.912104606628418 0.2764151096343994
6.801228046417236 6.912120819091797 0.2746741771697998
6.763403415679932 6.902271270751953 0.2731335163116455
6.7049055099487305 6.900467872619629 0.27161964774131775
6.675724029541016 6.899022579193115 0.27043309807777405
6.640478134155273 6.891620635986328 0.26900553703308105
6.624396324157715 6.903923988342285 0.2689453959465027
6.582002639770508 6.888298511505127 0.2672188878059387
6.564154624938965 6.89906644821167 0.2665131688117981
6.530970096588135 6.892776012420654 0.26516374945640564
6.504006385803223 6.892911911010742 0.26433065533638
6.467473983764648 6.8835954666137695 0.26318472623825073
6.4421210289001465 6.88518762588501 0.262154221534729
6.408882141113281 6.878681182861328 0.2608199715614319
6.386914253234863 6.884067535400391 0.26019737124443054
6.350213050842285 6.87306022644043 0.25902652740478516
6.322237491607666 6.872177600860596 0.2579118609428406
6.298722267150879 6.875194549560547 0.25696906447410583
6.265664100646973 6.86767053604126 0.2558860778808594
6.229103088378906 6.856958389282227 0.25442609190940857
6.207796096801758 6.862062454223633 0.25388193130493164
6.183760643005371 6.864071846008301 0.25291699171066284
6.153581619262695 6.8599853515625 0.2517164349555969
6.12319803237915 6.854678153991699 0.25074702501296997
6.099609851837158 6.85732364654541 0.2498130053281784
6.073479175567627 6.856925964355469 0.2490772306919098
6.040998458862305 6.8488359451293945 0.24777314066886902
6.009129524230957 6.841736316680908 0.24699930846691132
5.990657806396484 6.849699020385742 0.24658331274986267
5.958502769470215 6.841531753540039 0.24553662538528442
5.902721405029297 6.835395336151123 0.24332019686698914
5.88668966293335 6.845497131347656 0.24269109964370728
5.8255615234375 6.8324079513549805 0.2408064305782318
5.787944793701172 6.817356109619141 0.23930054903030396
5.739826679229736 6.818211555480957 0.23739880323410034
5.724242687225342 6.8288774490356445 0.23710617423057556
5.668848037719727 6.820937156677246 0.23515823483467102
5.6386799812316895 6.813351631164551 0.23395070433616638
5.584243297576904 6.80572509765625 0.23180469870567322
5.520073890686035 6.814435005187988 0.22984370589256287
5.437432289123535 6.7993669509887695 0.22711342573165894
5.385911464691162 6.793399810791016 0.22533467411994934
5.357395172119141 6.786694526672363 0.22420836985111237
5.315011024475098 6.791236400604248 0.2230953574180603
5.286559104919434 6.784224987030029 0.22197410464286804
5.263877868652344 6.784107208251953 0.2210884690284729
5.244006156921387 6.7880048751831055 0.22033169865608215
5.222867012023926 6.790103912353516 0.21975305676460266
5.191253662109375 6.778063774108887 0.21878096461296082
5.168727874755859 6.778215408325195 0.2179127037525177
5.148777008056641 6.7815775871276855 0.2171507477760315
5.122560501098633 6.77667236328125 0.21612906455993652
5.0975117683410645 6.772706508636475 0.21514762938022614
5.0782470703125 6.776719093322754 0.2146509885787964
5.052927017211914 6.772645473480225 0.2139534056186676
5.029058456420898 6.770308494567871 0.21302884817123413
5.001885414123535 6.76300048828125 0.21195797622203827
4.984701156616211 6.769579887390137 0.21132183074951172
4.951172351837158 6.753741264343262 0.21021796762943268
4.94057035446167 6.769169807434082 0.20986229181289673
4.907644271850586 6.753444671630859 0.20855000615119934
4.8960161209106445 6.767316818237305 0.20843037962913513
4.863116264343262 6.751778602600098 0.20712655782699585
4.8425726890563965 6.7527618408203125 0.20633850991725922
4.8199615478515625 6.75115966796875 0.20570284128189087
4.797779083251953 6.750145435333252 0.20513468980789185
4.7705278396606445 6.741387367248535 0.20406416058540344
4.748923301696777 6.740871429443359 0.20346811413764954
4.7282023429870605 6.741610527038574 0.20268630981445312
4.715024948120117 6.7529802322387695 0.20222678780555725
4.683486461639404 6.738038063049316 0.20098207890987396
