VERSION .7
FIELDS x y z
SIZE 4 4 4
TYPE F F F
COUNT 1 1 1
WIDTH 836
HEIGHT 1
VIEWPOINT 0 0 0 1 0 0 0
POINTS 836
DATA ascii
6.4977850914001465 6.225202560424805 -0.07321060448884964
6.477071762084961 6.231187343597412 -0.0731222927570343
6.4491424560546875 6.2301411628723145 -0.07240968942642212
6.43626594543457 6.24433708190918 -0.07241381704807281
6.389227867126465 6.224492073059082 -0.07148820161819458
6.377786636352539 6.23980188369751 -0.07139870524406433
6.350112438201904 6.238724708557129 -0.07080094516277313
6.33365535736084 6.248439311981201 -0.07064922153949738
6.306606292724609 6.248394966125488 -0.07049765437841415
6.2865424156188965 6.254421710968018 -0.06988129019737244
6.257046699523926 6.250967979431152 -0.06969831138849258
6.235817909240723 6.256432056427002 -0.06907077878713608
6.219386577606201 6.265899658203125 -0.06902982294559479
6.199969291687012 6.272472381591797 -0.06842013448476791
6.160661697387695 6.2592387199401855 -0.06813190877437592
6.145315170288086 6.269617080688477 -0.06756763905286789
6.1189866065979 6.269492149353027 -0.06774640828371048
6.098102569580078 6.274089813232422 -0.06734232604503632
6.072509765625 6.273754596710205 -0.06708870828151703
6.055357456207275 6.282835483551025 -0.06662850826978683
6.023888111114502 6.276197910308838 -0.066318079829216
6.009504795074463 6.2880449295043945 -0.0657745823264122
5.983059883117676 6.286441802978516 -0.06562585383653641
5.960548400878906 6.288870811462402 -0.06499464809894562
5.93924617767334 6.293266773223877 -0.0649109035730362
5.9258856773376465 6.305272102355957 -0.06437726318836212
5.892884254455566 6.29628849029541 -0.06415867805480957
5.870965957641602 6.2997918128967285 -0.06354393064975739
5.85465669631958 6.308487892150879 -0.06339867413043976
5.831984519958496 6.311042785644531 -0.0628870353102684
5.811718940734863 6.315356731414795 -0.06269535422325134
5.780972957611084 6.308167934417725 -0.06209363415837288
5.766656875610352 6.319596290588379 -0.0619749017059803
5.742602348327637 6.319523811340332 -0.06144227087497711
5.707479953765869 6.33426570892334 -0.0607256144285202
5.679495811462402 6.3295722007751465 -0.060568470507860184
5.630423545837402 6.3282976150512695 -0.05981113016605377
5.6139140129089355 6.336170196533203 -0.05925865098834038
5.594435691833496 6.341426372528076 -0.05950367450714111
5.568432331085205 6.33841609954834 -0.05895887315273285
5.525888442993164 6.343671798706055 -0.05827800929546356
5.509102821350098 6.350964546203613 -0.05771784111857414
5.488861560821533 6.355006217956543 -0.05765177682042122
5.462128162384033 6.350647926330566 -0.056994423270225525
5.451084136962891 6.364475250244141 -0.05692069232463837
5.425328731536865 6.3618621826171875 -0.056382596492767334
5.411344528198242 6.372199535369873 -0.056275591254234314
5.38416862487793 6.36708927154541 -0.05571732670068741
5.364264488220215 6.370946407318115 -0.055549506098032
5.341760635375977 6.371006965637207 -0.054946959018707275
5.327584266662598 6.381738662719727 -0.054936133325099945
5.289926052093506 6.363425254821777 -0.05418780446052551
5.282397270202637 6.38142204284668 -0.05373894423246384
5.260577201843262 6.382611274719238 -0.05365529656410217
5.242516994476318 6.387660503387451 -0.0531042218208313
5.214052200317383 6.380091190338135 -0.052949778735637665
5.1935715675354 6.382647514343262 -0.05237831920385361
5.173885822296143 6.385477066040039 -0.052210718393325806
5.167030334472656 6.404303073883057 -0.05187477171421051
5.135913848876953 6.3934736251831055 -0.051592811942100525
5.113602161407471 6.392826080322266 -0.051010072231292725
5.096958160400391 6.399998188018799 -0.05097509175539017
5.077754020690918 6.403105735778809 -0.05041994899511337
5.053572654724121 6.40001106262207 -0.05020562559366226
5.031723976135254 6.400242805480957 -0.049735184758901596
5.014556884765625 6.4057207107543945 -0.049590952694416046
4.9951934814453125 6.409147262573242 -0.04904450848698616
4.965336799621582 6.3981781005859375 -0.04887688159942627
4.9633941650390625 6.423150539398193 -0.04849058389663696
4.939822196960449 6.420949935913086 -0.047898225486278534
4.91478967666626 6.415916919708252 -0.047792769968509674
4.895293235778809 6.41817569732666 -0.04723037779331207
4.8831400871276855 6.430519104003906 -0.04724595695734024
4.854533672332764 6.420467853546143 -0.04661215841770172
4.840267658233643 6.430107116699219 -0.0465061217546463
4.824243545532227 6.436575889587402 -0.04609137400984764
4.781280040740967 6.435550689697266 -0.04534491151571274
4.757247447967529 6.431038856506348 -0.04485861957073212
4.730729103088379 6.451845169067383 -0.044274162501096725
4.707702159881592 6.448460102081299 -0.043796807527542114
4.673117160797119 6.458022117614746 -0.04313940554857254
4.650018215179443 6.454258918762207 -0.04305380582809448
4.632332801818848 6.45875883102417 -0.04281673952937126
4.618221282958984 6.467378616333008 -0.04242437332868576
4.583375930786133 6.476078987121582 -0.04176875576376915
4.553680419921875 6.462518692016602 -0.04124361649155617
4.544408798217773 6.478711128234863 -0.04118206351995468
4.517979621887207 6.469548225402832 -0.040584493428468704
4.500420093536377 6.472977638244629 -0.040166303515434265
4.484320640563965 6.479310035705566 -0.040044959634542465
4.464015960693359 6.47866153717041 -0.03950749337673187
4.445789813995361 6.481126308441162 -0.03946135938167572
4.431784629821777 6.490217208862305 -0.03898344188928604
4.409252643585205 6.486081600189209 -0.03842035308480263
4.395232200622559 6.494576454162598 -0.0384133905172348
4.365500450134277 6.480251312255859 -0.03780403733253479
4.352160930633545 6.489646911621094 -0.03771175444126129
4.342451095581055 6.504991054534912 -0.037358883768320084
4.3237810134887695 6.506221771240234 -0.036842189729213715
4.30022668838501 6.500174522399902 -0.03665390983223915
4.288995742797852 6.513216495513916 -0.03629925847053528
4.256972312927246 6.493885517120361 -0.03567289561033249
4.244471549987793 6.504389762878418 -0.035585206001996994
4.229279041290283 6.511282920837402 -0.0351925827562809
4.2198286056518555 6.526341438293457 -0.03512928634881973
4.195535182952881 6.519269943237305 -0.034568656235933304
4.17446756362915 6.516209125518799 -0.03403424099087715
4.149913787841797 6.507752418518066 -0.033851806074380875
4.140549659729004 6.523587703704834 -0.033509477972984314
4.123012065887451 6.525850296020508 -0.03338366374373436
4.100341320037842 6.520071029663086 -0.03284492716193199
4.079047679901123 6.516883373260498 -0.03240891173481941
4.069545745849609 6.531802177429199 -0.032343603670597076
4.048896789550781 6.529698371887207 -0.031821537762880325
4.0304412841796875 6.530153274536133 -0.031316742300987244
4.013871192932129 6.533785820007324 -0.03129482641816139
4.006625175476074 6.553153991699219 -0.030872806906700134
3.9757821559906006 6.533133506774902 -0.030644871294498444
3.9672701358795166 6.549897193908691 -0.030311910435557365
3.953852415084839 6.559141159057617 -0.02984807826578617
3.909174919128418 6.547230243682861 -0.029160967096686363
3.896268844604492 6.556487560272217 -0.028796367347240448
3.8606412410736084 6.559278964996338 -0.02817748859524727
3.841931104660034 6.558587074279785 -0.027767721563577652
3.8042032718658447 6.557346343994141 -0.02714160829782486
3.7932751178741455 6.569881916046143 -0.026785627007484436
3.7591214179992676 6.574515342712402 -0.026183370500802994
3.721045970916748 6.572000026702881 -0.025652891024947166
3.69942045211792 6.565547466278076 -0.025139909237623215
3.667485475540161 6.573448181152344 -0.02465182915329933
3.653465986251831 6.580377101898193 -0.0241926871240139
3.6394550800323486 6.588265419006348 -0.023726066574454308
3.627535820007324 6.599006175994873 -0.02364608645439148
3.603473663330078 6.58758020401001 -0.02321259304881096
3.5885159969329834 6.593652725219727 -0.02275160886347294
3.5711138248443604 6.594231605529785 -0.02263382449746132
3.5569794178009033 6.601003646850586 -0.022174645215272903
15.572748184204102 -2.101229667663574 -0.20566709339618683
15.595218658447266 -2.0045182704925537 -0.2059994786977768
15.609373092651367 -1.9066649675369263 -0.2067851424217224
15.58189868927002 -1.8367424011230469 -0.20631159842014313
15.59387493133545 -1.805351972579956 -0.20642203092575073
15.566741943359375 -1.7358057498931885 -0.20616480708122253
15.574942588806152 -1.6376569271087646 -0.20502522587776184
15.530234336853027 -0.5190858244895935 -0.20557671785354614
15.533349990844727 -0.4214479327201843 -0.20557865500450134
15.541604042053223 -0.3561781346797943 -0.205667182803154
15.518148422241211 -0.32342222332954407 -0.2053467333316803
15.544076919555664 -0.2584763467311859 -0.20567497611045837
15.527615547180176 -0.2259727418422699 -0.20544810593128204
15.518743515014648 -0.16047731041908264 -0.20532020926475525
15.523767471313477 -0.12831132113933563 -0.2053835541009903
15.522618293762207 -0.06292690336704254 -0.20485571026802063
15.516319274902344 -0.03070126660168171 -0.20552031695842743
7.646965026855469 5.621749401092529 -0.17350129783153534
7.574993133544922 5.642538547515869 -0.1720978021621704
7.4882354736328125 5.651454925537109 -0.16966137290000916
7.4448723793029785 5.668097496032715 -0.1687721610069275
7.415605545043945 5.670163154602051 -0.16780045628547668
7.365583419799805 5.681229114532471 -0.16709327697753906
7.2808332443237305 5.6892194747924805 -0.16496191918849945
7.209649085998535 5.706956386566162 -0.16360151767730713
7.12843132019043 5.715925693511963 -0.16201001405715942
6.582025527954102 5.79704475402832 -0.14962521195411682
6.521205425262451 5.816680908203125 -0.14854158461093903
6.45090913772583 5.827210426330566 -0.1468212753534317
6.405529975891113 5.835247993469238 -0.14581815898418427
6.384607315063477 5.840626239776611 -0.1455014944076538
6.335919380187988 5.84528923034668 -0.14421680569648743
6.320626258850098 5.8555073738098145 -0.14403127133846283
6.279579162597656 5.866815567016602 -0.1432461440563202
6.250237464904785 5.863741874694824 -0.1423252373933792
6.220855236053467 5.86106538772583 -0.14193931221961975
6.20751953125 5.873013019561768 -0.141397625207901
6.179577827453613 5.870926856994629 -0.14104031026363373
6.1344990730285645 5.8774518966674805 -0.14004826545715332
6.112905979156494 5.881713390350342 -0.13932156562805176
6.075922012329102 5.895034313201904 -0.13852360844612122
6.049144268035889 5.894044399261475 -0.138199120759964
5.986917018890381 5.907235622406006 -0.13670231401920319
5.905657768249512 5.900788307189941 -0.1350695788860321
5.599058151245117 5.958398818969727 -0.12809042632579803
5.532024383544922 5.961727142333984 -0.126414492726326
5.473854064941406 5.973923206329346 -0.12545263767242432
5.436636447906494 5.983704566955566 -0.12467948347330093
5.416450500488281 5.986400127410889 -0.12410952150821686
5.37857723236084 5.995098114013672 -0.1233331635594368
5.364116668701172 6.003998756408691 -0.12317660450935364
5.323440074920654 6.009216785430908 -0.12164758145809174
5.296792984008789 6.0041937828063965 -0.12121804058551788
5.280821323394775 6.011928558349609 -0.12075936049222946
5.257652759552002 6.010663032531738 -0.12041191756725311
5.243988037109375 6.020205974578857 -0.12000389397144318
5.214112281799316 6.011789798736572 -0.11951576918363571
5.204831123352051 6.026308059692383 -0.1192021295428276
5.179526329040527 6.0229716300964355 -0.11881458014249802
5.158165454864502 6.023372650146484 -0.11822272092103958
5.1347761154174805 6.021306991577148 -0.11749452352523804
5.120824337005615 6.03099250793457 -0.11746376752853394
5.1057634353637695 6.038609981536865 -0.11692441999912262
5.085517883300781 6.040042400360107 -0.11675383150577545
5.076447010040283 6.055478096008301 -0.11635545641183853
5.062197208404541 6.063994884490967 -0.11594191193580627
5.027890205383301 6.048964500427246 -0.11534300446510315
5.015249252319336 6.059447288513184 -0.11496515572071075
4.993492603302002 6.058713912963867 -0.11465388536453247
4.98139762878418 6.0702595710754395 -0.114293672144413
4.955883979797363 6.064945220947266 -0.113901287317276
4.932257175445557 6.0616607666015625 -0.1132621318101883
4.900700569152832 6.074959754943848 -0.11265165358781815
4.874207973480225 6.068446636199951 -0.11185827851295471
4.846632957458496 6.085833549499512 -0.1106603667140007
4.827739715576172 6.08859920501709 -0.11052852123975754
4.786998748779297 6.089115619659424 -0.10969875752925873
4.738525390625 6.106685638427734 -0.10853110998868942
4.688283443450928 6.1210036277771 -0.10741908103227615
4.634072303771973 6.129670143127441 -0.10611765086650848
4.599339008331299 6.137285232543945 -0.10544288903474808
4.583287239074707 6.142386436462402 -0.10499930381774902
4.548165321350098 6.149177551269531 -0.10432153940200806
4.524873733520508 6.144477367401123 -0.10398173332214355
4.479997634887695 6.137343883514404 -0.102711021900177
4.464282512664795 6.142704963684082 -0.102545365691185
4.454529285430908 6.156735420227051 -0.10169960558414459
4.430427551269531 6.150257110595703 -0.10134077817201614
4.4232892990112305 6.16745662689209 -0.10100983828306198
4.388330936431885 6.146233558654785 -0.10050003230571747
4.3791961669921875 6.1604323387146 -0.10012798756361008
4.37001895904541 6.1754150390625 -0.09985765069723129
4.356161117553711 6.183004379272461 -0.09974166005849838
4.334686279296875 6.179720878601074 -0.0991709977388382
4.306148052215576 6.167016506195068 -0.09872259944677353
4.28652286529541 6.166131019592285 -0.09820734709501266
4.279773712158203 6.183929443359375 -0.09788718819618225
4.266415596008301 6.192690849304199 -0.09788475185632706
4.2422776222229 6.185089111328125 -0.09716257452964783
4.222543239593506 6.183955669403076 -0.09664154797792435
4.209257125854492 6.192697525024414 -0.09654814749956131
4.1903157234191895 6.192432403564453 -0.09595292806625366
4.162888050079346 6.180303573608398 -0.09526649862527847
4.159323692321777 6.202752113342285 -0.09538926929235458
4.145951747894287 6.210803985595703 -0.0950184017419815
4.113152503967285 6.190097808837891 -0.09446641802787781
4.10296106338501 6.202645301818848 -0.09416789561510086
4.088793754577637 6.209362030029297 -0.09368973225355148
4.067391395568848 6.20551061630249 -0.09349987655878067
4.052562236785889 6.21096134185791 -0.09299903362989426
4.0287628173828125 6.203402042388916 -0.09185339510440826
4.0235161781311035 6.223559856414795 -0.09166888147592545
4.008303165435791 6.228338718414307 -0.09152554720640182
3.9885342121124268 6.226810455322266 -0.09092690050601959
3.9600868225097656 6.210738182067871 -0.0905662477016449
3.957639217376709 6.235405445098877 -0.09036359935998917
3.9427757263183594 6.241416931152344 -0.08996715396642685
3.9271929264068604 6.245415687561035 -0.08981427550315857
3.906399726867676 6.241899490356445 -0.08928467333316803
3.8952412605285645 6.252886772155762 -0.0888800397515297
3.878288745880127 6.254557132720947 -0.08879868686199188
3.8527770042419434 6.243153095245361 -0.08806193619966507
3.838547945022583 6.249074935913086 -0.08758705109357834
3.8250255584716797 6.256134033203125 -0.08757586032152176
3.810706615447998 6.262737274169922 -0.08710769563913345
3.7924256324768066 6.261918544769287 -0.0866277813911438
3.7593536376953125 6.266721725463867 -0.08602982759475708
3.7390592098236084 6.2623138427734375 -0.08541741967201233
3.703930377960205 6.263255596160889 -0.08476992696523666
3.6973342895507812 6.281818866729736 -0.08447584509849548
3.669703245162964 6.2654523849487305 -0.08414331823587418
3.657184600830078 6.273897647857666 -0.0837116464972496
3.640076160430908 6.274438381195068 -0.08282548189163208
3.622161626815796 6.274400234222412 -0.08228462189435959
7.6752705574035645 5.971068382263184 -0.09465530514717102
7.59154748916626 5.982922554016113 -0.09349600970745087
7.5007710456848145 5.988205909729004 -0.0916619598865509
7.459150314331055 6.006585597991943 -0.09088872373104095
7.391354560852051 6.028980731964111 -0.08994302153587341
7.286534786224365 6.0201616287231445 -0.08808136731386185
6.520642280578613 6.142917156219482 -0.075284942984581
6.45130729675293 6.154606819152832 -0.07438516616821289
6.396329879760742 6.153820514678955 -0.07350829243659973
6.388784885406494 6.172142028808594 -0.07303093373775482
6.3325042724609375 6.1695404052734375 -0.07256929576396942
6.310427665710449 6.173609733581543 -0.07170385867357254
6.292572021484375 6.18234920501709 -0.07164405286312103
6.258378028869629 6.174485206604004 -0.07087045907974243
6.254127502441406 6.195955276489258 -0.07096710801124573
6.2193450927734375 6.187722682952881 -0.07029686868190765
6.204902172088623 6.199184417724609 -0.07016918808221817
6.176357269287109 6.1963300704956055 -0.06956616044044495
6.1351704597473145 6.207073211669922 -0.06886376440525055
6.104200839996338 6.202029705047607 -0.06813012063503265
6.063572883605957 6.2122697830200195 -0.06742894649505615
6.041572570800781 6.2160844802856445 -0.06733982264995575
5.999783992767334 6.224726676940918 -0.06663226336240768
5.984877586364746 6.235710620880127 -0.06608495861291885
5.9410858154296875 6.242496490478516 -0.06537102162837982
5.901883602142334 6.227131366729736 -0.06507409363985062
5.51615047454834 6.279064178466797 -0.058083631098270416
5.456315994262695 6.290271282196045 -0.05684977397322655
5.426799774169922 6.309732913970947 -0.05631793290376663
5.395941734313965 6.300252914428711 -0.05613018572330475
5.357528209686279 6.308987617492676 -0.055499736219644547
5.342896938323975 6.3182854652404785 -0.054980210959911346
5.312782287597656 6.309963703155518 -0.05440361425280571
5.298511981964111 6.319585800170898 -0.05429404228925705
5.2790374755859375 6.322963714599609 -0.053519319742918015
5.256580829620361 6.323474884033203 -0.05332009866833687
5.234678268432617 6.323777675628662 -0.052828915417194366
5.224684238433838 6.338436126708984 -0.05276656523346901
5.201061725616455 6.337312698364258 -0.052270516753196716
5.179138660430908 6.337371826171875 -0.05207827687263489
5.154448509216309 6.334567070007324 -0.051566388458013535
5.139581680297852 6.343302249908447 -0.05105511099100113
5.11370849609375 6.33821439743042 -0.05092919245362282
5.109445095062256 6.360687255859375 -0.05052182078361511
5.078388214111328 6.348966121673584 -0.05033910274505615
5.053389549255371 6.344659328460693 -0.049727749079465866
5.032313823699951 6.345968723297119 -0.04926575347781181
5.020210266113281 6.357762336730957 -0.04916994273662567
5.010082244873047 6.372878551483154 -0.04882054775953293
4.980292320251465 6.362115383148193 -0.04854552447795868
4.95759916305542 6.3602752685546875 -0.04796323925256729
4.930874824523926 6.381232261657715 -0.047479819506406784
4.909115791320801 6.381036758422852 -0.047005146741867065
4.864857196807861 6.378273963928223 -0.0463431254029274
4.852298736572266 6.389904975891113 -0.04587256535887718
4.812469482421875 6.392533302307129 -0.045052580535411835
4.790830612182617 6.391996383666992 -0.044483084231615067
4.753515243530273 6.397531509399414 -0.043901048600673676
4.7335028648376465 6.398940086364746 -0.043352533131837845
4.6891021728515625 6.395072937011719 -0.042708270251750946
4.641657829284668 6.414546489715576 -0.041778020560741425
4.583453178405762 6.418689727783203 -0.04065663367509842
4.5500807762146 6.42903470993042 -0.04012083634734154
4.538903713226318 6.4415483474731445 -0.039757076650857925
4.494438648223877 6.435837745666504 -0.03902636840939522
4.472396373748779 6.432843208312988 -0.0385698564350605
4.456279754638672 6.438794136047363 -0.03845353424549103
4.4464616775512695 6.453185081481934 -0.038106441497802734
4.423327445983887 6.448382377624512 -0.037923913449048996
4.3997650146484375 6.443325042724609 -0.03745495527982712
4.390201568603516 6.458056449890137 -0.03682122007012367
4.359766483306885 6.442173004150391 -0.03620113059878349
4.3517866134643555 6.45989465713501 -0.035870056599378586
4.32836389541626 6.4539899826049805 -0.03568336367607117
4.315707206726074 6.464249610900879 -0.0353182889521122
4.297274589538574 6.466336250305176 -0.035184528678655624
4.283659934997559 6.475133895874023 -0.034807074815034866
4.255319118499756 6.462076187133789 -0.03420969843864441
4.242127418518066 6.471240043640137 -0.03422220051288605
4.222651481628418 6.470953464508057 -0.03369712457060814
4.212745666503906 6.485827922821045 -0.033257193863391876
4.190690517425537 6.481276512145996 -0.03318876773118973
4.1781229972839355 6.491522789001465 -0.03272903710603714
4.15362024307251 6.483667850494385 -0.032267071306705475
4.137603759765625 6.488269805908203 -0.03215142711997032
4.124061107635498 6.4976091384887695 -0.03178522735834122
4.105288505554199 6.49779748916626 -0.031270794570446014
4.0892534255981445 6.502260208129883 -0.03125368803739548
4.073988437652588 6.508800029754639 -0.03077963925898075
4.0464348793029785 6.494709014892578 -0.030202368274331093
4.036004543304443 6.508907318115234 -0.030227672308683395
4.015007495880127 6.5051469802856445 -0.029707111418247223
4.003383636474609 6.516533374786377 -0.029715947806835175
3.9812707901000977 6.511685848236084 -0.029190121218562126
3.9666903018951416 6.51819372177124 -0.028247293084859848
3.9407429695129395 6.505918979644775 -0.02778891660273075
3.930227279663086 6.5199480056762695 -0.02772754244506359
3.9075350761413574 6.512833595275879 -0.02728964015841484
3.8976359367370605 6.526999473571777 -0.026851659640669823
3.8820483684539795 6.532557964324951 -0.026743965223431587
3.8651723861694336 6.535001754760742 -0.02635061740875244
3.8465349674224854 6.535124778747559 -0.025854770094156265
3.8340036869049072 6.545053005218506 -0.025869719684123993
3.8093349933624268 6.533994674682617 -0.025331595912575722
3.796412467956543 6.54391622543335 -0.024969913065433502
3.776276111602783 6.540440559387207 -0.024826951324939728
3.768700122833252 6.558712005615234 -0.02440834417939186
3.7487783432006836 6.556426048278809 -0.024007821455597878
3.729335069656372 6.553946495056152 -0.023874320089817047
3.710911273956299 6.553167819976807 -0.02347571775317192
3.6951723098754883 6.558008193969727 -0.023011384531855583
3.670504093170166 6.545953750610352 -0.022842148318886757
3.6608028411865234 6.561470031738281 -0.022503644227981567
3.6407623291015625 6.557496070861816 -0.022008277475833893
3.626319646835327 6.563541412353516 -0.022003259509801865
3.6069555282592773 6.561568260192871 -0.02151327207684517
3.596986770629883 6.575721740722656 -0.02117426134645939
3.552816867828369 6.560445308685303 -0.019802208989858627
3.539655923843384 6.568659782409668 -0.019711628556251526
6.463526725769043 6.089110374450684 -0.08589676022529602
6.388001441955566 6.094212532043457 -0.08496934920549393
6.3237152099609375 6.109279155731201 -0.0845181941986084
6.284661293029785 6.122929096221924 -0.08380579203367233
6.2556867599487305 6.120055675506592 -0.0835854634642601
6.207944393157959 6.124727249145508 -0.0828697681427002
6.1799774169921875 6.122495651245117 -0.08255048096179962
6.132181644439697 6.126531600952148 -0.08183752745389938
6.123903274536133 6.14370584487915 -0.08190403878688812
6.063985824584961 6.135055065155029 -0.08091223984956741
6.042280197143555 6.138521671295166 -0.08088956773281097
5.996060371398926 6.143100738525391 -0.08008887618780136
5.930702209472656 6.153054714202881 -0.07932408154010773
5.863208293914795 6.160069465637207 -0.07841730862855911
5.457893371582031 6.212749481201172 -0.0735194981098175
5.403567790985107 6.229459285736084 -0.07281617820262909
5.338844299316406 6.233586311340332 -0.07196817547082901
5.289702892303467 6.229117393493652 -0.0712532252073288
5.26954460144043 6.231543064117432 -0.07105611264705658
5.228315353393555 6.235861778259277 -0.0704570934176445
5.216454029083252 6.248003959655762 -0.07047510147094727
5.178940773010254 6.256443023681641 -0.06983160972595215
5.142435073852539 6.238654136657715 -0.06950822472572327
5.109785079956055 6.252508163452148 -0.0689292922616005
5.097246170043945 6.263808727264404 -0.06894191354513168
5.07183837890625 6.259693622589111 -0.06877630949020386
5.049912929534912 6.259143352508545 -0.06816738843917847
5.026307106018066 6.256568908691406 -0.06791629642248154
5.01486873626709 6.269554615020752 -0.06784375756978989
4.9912309646606445 6.266617774963379 -0.06731151044368744
4.980914115905762 6.281151294708252 -0.06735740602016449
4.95341682434082 6.273171901702881 -0.06676997989416122
4.935422897338867 6.27712345123291 -0.0665983110666275
4.919205188751221 6.284078598022461 -0.06656618416309357
4.89975643157959 6.286066055297852 -0.06648264825344086
4.883764743804932 6.292437553405762 -0.0659511387348175
4.850848197937012 6.27766752243042 -0.06568732112646103
4.837319850921631 6.287083148956299 -0.06530323624610901
4.824526786804199 6.2980852127075195 -0.06530477106571198
4.797515392303467 6.289982318878174 -0.06501392275094986
4.777397155761719 6.290635108947754 -0.06453507393598557
4.746140003204346 6.304426670074463 -0.06447599828243256
4.727752685546875 6.307199001312256 -0.06391951441764832
4.683169364929199 6.302855968475342 -0.06367897987365723
4.664347171783447 6.304812431335449 -0.06311778724193573
4.623331546783447 6.3047332763671875 -0.06291995942592621
4.623373031616211 6.332948684692383 -0.06273210793733597
4.577127456665039 6.324722766876221 -0.061879195272922516
4.562486171722412 6.332764148712158 -0.061868682503700256
4.525177478790283 6.337080478668213 -0.0612504780292511
4.497605800628662 6.326187610626221 -0.06104736030101776
4.456503391265869 6.3246073722839355 -0.06047748774290085
4.4084248542785645 6.340660095214844 -0.05989168956875801
4.377248764038086 6.352735996246338 -0.059365879744291306
4.345583438873291 6.33487606048584 -0.0591113418340683
4.310755729675293 6.341190338134766 -0.05852832272648811
4.298553466796875 6.351722240447998 -0.058544669300317764
4.266268253326416 6.361398696899414 -0.05800382420420647
4.242892742156982 6.355185508728027 -0.0578635148704052
4.234750747680664 6.371582984924316 -0.057564377784729004
4.206839084625244 6.358839511871338 -0.057366903871297836
4.1935930252075195 6.367668151855469 -0.057270556688308716
4.174410820007324 6.3679399490356445 -0.05682428181171417
4.154104709625244 6.3657355308532715 -0.056728657335042953
4.142186641693115 6.376521110534668 -0.05637667328119278
4.132533073425293 6.391331195831299 -0.05597046762704849
4.096652507781982 6.364767074584961 -0.05565958842635155
4.083128452301025 6.373631954193115 -0.05566289648413658
4.065145492553711 6.37464714050293 -0.05513625219464302
4.052909851074219 6.384647369384766 -0.05514919012784958
4.031249523162842 6.380609512329102 -0.05467437952756882
4.01805305480957 6.389045715332031 -0.054580360651016235
3.9938948154449463 6.380149841308594 -0.05443127080798149
3.9711341857910156 6.373847961425781 -0.05394233763217926
3.9520769119262695 6.372687339782715 -0.0538635328412056
3.950385332107544 6.400445938110352 -0.053931884467601776
3.929396152496338 6.39609956741333 -0.05346293747425079
3.9144577980041504 6.401529788970947 -0.05343807116150856
3.899090528488159 6.407110691070557 -0.05296050384640694
3.8776488304138184 6.401754856109619 -0.05284642428159714
3.857510805130005 6.398434638977051 -0.052751630544662476
3.8403398990631104 6.400836944580078 -0.05225075036287308
3.831075668334961 6.415536880493164 -0.05230844020843506
3.8156840801239014 6.419991493225098 -0.052275244146585464
3.794358730316162 6.415274143218994 -0.0517202764749527
3.77777099609375 6.417585372924805 -0.051672935485839844
3.761270523071289 6.4208903312683105 -0.051275674253702164
3.7379863262176514 6.4116129875183105 -0.05104571580886841
3.7242987155914307 6.418711185455322 -0.050681401044130325
3.712406635284424 6.429819583892822 -0.05034874379634857
6.318183422088623 6.445518493652344 -0.010731891728937626
6.262275218963623 6.442536354064941 -0.010243565775454044
6.2534356117248535 6.460210800170898 -0.010256314650177956
6.202631950378418 6.4619646072387695 -0.00966662261635065
6.178454875946045 6.463571071624756 -0.009653969667851925
6.1507110595703125 6.462128162384033 -0.009631074033677578
6.121029853820801 6.457727432250977 -0.009169429540634155
6.094333648681641 6.4563446044921875 -0.009040990844368935
6.057861328125 6.4720940589904785 -0.008594104088842869
6.024603366851807 6.4633941650390625 -0.008568492718040943
5.978570938110352 6.468412399291992 -0.008099604398012161
5.95762825012207 6.472650527954102 -0.008086659014225006
5.911625862121582 6.477203845977783 -0.0075308713130652905
5.8407487869262695 6.480906963348389 -0.006954296492040157
5.784987449645996 6.500749588012695 -0.006517529021948576
5.297713279724121 6.53765344619751 -0.0026030256412923336
5.240839958190918 6.551241874694824 -0.002085080137476325
5.202317714691162 6.5595293045043945 -0.0019694759976118803
5.1801838874816895 6.559534549713135 -0.0015617061872035265
5.14127254486084 6.566935062408447 -0.0014575637178495526
5.123382568359375 6.572136402130127 -0.001051182858645916
5.097119331359863 6.5673322677612305 -0.0010456686140969396
5.072296142578125 6.563424110412598 -0.0010475709568709135
5.059412002563477 6.575076580047607 -0.0005417832871899009
5.032814979553223 6.56933069229126 -0.000537835294380784
5.005833625793457 6.5622758865356445 -0.0005346767138689756
4.986895561218262 6.565831184387207 -0.00013698218390345573
4.978447437286377 6.5836896896362305 6.711622700095177e-05
4.949626445770264 6.573887825012207 0.00017373310402035713
4.923586845397949 6.56845760345459 0.0005734856240451336
4.9057393074035645 6.573024749755859 0.0005701041081920266
4.897415637969971 6.590359687805176 0.0005676192231476307
4.869757652282715 6.5824666023254395 0.0010680746054276824
4.858184814453125 6.595405578613281 0.0010668945033103228
4.831135272979736 6.58726692199707 0.0010685932356864214
4.813766956329346 6.593072891235352 0.001571519998833537
4.790589809417725 6.590001106262207 0.0015589541289955378
4.776106834411621 6.5988264083862305 0.001559120137244463
4.751620292663574 6.594609260559082 0.001953716157004237
4.738702297210693 6.605539321899414 0.002054188633337617
4.700951099395752 6.611526966094971 0.002444413024932146
4.6768317222595215 6.606592655181885 0.0024411254562437534
4.6372551918029785 6.609536647796631 0.0029234057292342186
4.618670463562012 6.612873077392578 0.0029170047491788864
4.584293365478516 6.622208118438721 0.003407130716368556
4.522407531738281 6.621374130249023 0.0038782174233347178
4.472224235534668 6.637800693511963 0.004749150015413761
4.412476539611816 6.638808250427246 0.005215510725975037
4.363846778869629 6.656033515930176 0.005689953453838825
4.2979865074157715 6.646329879760742 0.00614798441529274
4.259252548217773 6.64766263961792 0.006616043392568827
4.242268085479736 6.651684761047363 0.006606158800423145
4.209651947021484 6.662081718444824 0.007081883959472179
4.185427665710449 6.654469013214111 0.007068528328090906
4.174562454223633 6.668576240539551 0.007451633457094431
4.1457085609436035 6.65314245223999 0.007424479350447655
4.135636329650879 6.6679534912109375 0.007531521841883659
4.1122636795043945 6.661812782287598 0.007892345078289509
4.104343891143799 6.679957389831543 0.007899614050984383
4.083619117736816 6.677440643310547 0.007982499897480011
4.067442893981934 6.682834148406982 0.008744630962610245
4.039633750915527 6.668263912200928 0.008717820048332214
4.01975154876709 6.667542457580566 0.008700259029865265
4.004913330078125 6.6742143630981445 0.009171957150101662
3.991997480392456 6.684090614318848 0.009175751358270645
3.972330331802368 6.683551788330078 0.009539053775370121
3.958979845046997 6.692673206329346 0.00963821541517973
3.9367120265960693 6.686847686767578 0.009616767056286335
3.9102983474731445 6.674363613128662 0.009965796023607254
3.8943817615509033 6.678934574127197 0.010058276355266571
3.884225845336914 6.693592548370361 0.010063119232654572
3.860427141189575 6.685245513916016 0.010419380851089954
3.8477203845977783 6.695286750793457 0.010423188097774982
3.8222312927246094 6.683943748474121 0.010862494818866253
3.8082008361816406 6.691595077514648 0.010859156027436256
3.7927498817443848 6.696930885314941 0.010856786742806435
3.7826318740844727 6.712268352508545 0.011335604824125767
3.7674427032470703 6.71787166595459 0.011328645050525665
3.7482359409332275 6.717217445373535 0.01169007457792759
3.728548049926758 6.714644432067871 0.011767982505261898
3.710709571838379 6.715315818786621 0.011755647137761116
3.6926448345184326 6.716477870941162 0.012111950665712357
3.6716501712799072 6.71124267578125 0.01219167746603489
3.6564383506774902 6.7165021896362305 0.012554647400975227
3.6422317028045654 6.724574089050293 0.012927096337080002
3.621471405029297 6.719505786895752 0.012899970635771751
13.313652038574219 5.744212627410889 -0.04818076640367508
11.309659957885742 5.959420680999756 -0.04095500707626343
11.163152694702148 5.972184181213379 -0.040560655295848846
11.02604866027832 5.988293647766113 -0.040192559361457825
10.925371170043945 5.993336200714111 -0.039920490235090256
10.893390655517578 6.005235195159912 -0.03984621912240982
10.7905912399292 6.007956027984619 -0.03956710547208786
10.747926712036133 6.013454437255859 -0.039454229176044464
10.663747787475586 6.025463581085205 -0.03923960402607918
10.527589797973633 6.036153793334961 -0.03859028220176697
9.256589889526367 6.139896392822266 -0.03438864275813103
9.164414405822754 6.1620683670043945 -0.03417741134762764
9.06383991241455 6.17753791809082 -0.033943627029657364
9.021865844726562 6.176387786865234 -0.03383665159344673
8.987780570983887 6.181292533874512 -0.03362267464399338
8.940235137939453 6.175960063934326 -0.03349589928984642
8.904444694519043 6.178572654724121 -0.033406808972358704
8.886491775512695 6.194280624389648 -0.03338859975337982
8.838796615600586 6.188328266143799 -0.033258602023124695
8.812849998474121 6.197454452514648 -0.03321020305156708
8.769977569580078 6.195347309112549 -0.03309963643550873
8.740433692932129 6.201706409454346 -0.032514918595552444
8.70063591003418 6.200818061828613 -0.03241553157567978
8.646292686462402 6.21699857711792 -0.0323072224855423
8.607297897338867 6.2162604331970215 -0.03221585601568222
8.52231216430664 6.209661483764648 -0.0319974347949028
8.428498268127441 6.222797870635986 -0.031788527965545654
7.7773966789245605 6.2898101806640625 -0.029610123485326767
7.690606594085693 6.300000190734863 -0.029425399377942085
7.607075214385986 6.3119025230407715 -0.02926226705312729
7.575749397277832 6.31312370300293 -0.029190033674240112
7.5115766525268555 6.312816143035889 -0.028567489236593246
7.478006362915039 6.3117499351501465 -0.02849346399307251
7.450859069824219 6.315520286560059 -0.028438594192266464
7.429028511047363 6.324178218841553 -0.02840396575629711
7.3976969718933105 6.324028968811035 -0.02821499854326248
7.380255222320557 6.335834980010986 -0.028193965554237366
7.337095260620117 6.32589864730835 -0.028078362345695496
7.310845375061035 6.3297624588012695 -0.028030451387166977
7.287132740020752 6.335897445678711 -0.02799151837825775
7.265659809112549 6.3443732261657715 -0.02796190232038498
7.225863456726074 6.336259365081787 -0.027857623994350433
7.202535152435303 6.34229040145874 -0.027697909623384476
7.1695966720581055 6.34036922454834 -0.027628090232610703
7.148247718811035 6.348132610321045 -0.027595004066824913
7.089688301086426 6.349734306335449 -0.02746903896331787
7.063786029815674 6.353002071380615 -0.027424171566963196
7.0010271072387695 6.350093841552734 -0.02728467807173729
6.975508213043213 6.353382587432861 -0.02723548747599125
6.920719146728516 6.357010841369629 -0.02666993997991085
6.898468017578125 6.3630170822143555 -0.02663257345557213
6.845078468322754 6.367333889007568 -0.026410583406686783
6.819680213928223 6.370157241821289 -0.02636098861694336
6.448782920837402 6.389100074768066 -0.025532696396112442
6.381139755249023 6.402075290679932 -0.025424979627132416
6.316662311553955 6.417574405670166 -0.024886785075068474
6.289499282836914 6.416558265686035 -0.02483292669057846
6.263551712036133 6.417453289031982 -0.02466730959713459
6.233407020568848 6.413138389587402 -0.024607611820101738
6.219236850738525 6.425184726715088 -0.024595243856310844
6.185651779174805 6.417864799499512 -0.024524109438061714
6.1532182693481445 6.410785675048828 -0.024455076083540916
6.139599323272705 6.423225402832031 -0.024444911628961563
6.119770050048828 6.429924011230469 -0.024420540779829025
6.079341411590576 6.414046287536621 -0.024319075047969818
6.072103500366211 6.433095932006836 -0.024335719645023346
6.043231964111328 6.429970741271973 -0.02427726611495018
6.019492149353027 6.431403636932373 -0.024237293750047684
5.991562843322754 6.429036617279053 -0.02417813614010811
5.97888708114624 6.442187786102295 -0.024181850254535675
5.938131332397461 6.424962043762207 -0.024077696725726128
5.923157691955566 6.436291217803955 -0.02406734973192215
5.905245780944824 6.443612575531006 -0.024047300219535828
5.886549949645996 6.45082426071167 -0.024026304483413696
5.857135772705078 6.4454026222229 -0.02385525219142437
5.827699184417725 6.439809799194336 -0.023787938058376312
5.8107008934021 6.4486613273620605 -0.023775234818458557
5.774291038513184 6.435056686401367 -0.02368350513279438
5.7620954513549805 6.448336601257324 -0.023681828752160072
5.737092018127441 6.448025226593018 -0.023638740181922913
5.719171047210693 6.454807281494141 -0.023618239909410477
5.690683364868164 6.449732303619385 -0.023555492982268333
5.643884181976318 6.4510908126831055 -0.023062171414494514
5.585456371307373 6.465884208679199 -0.022877372801303864
5.519277095794678 6.471227645874023 -0.02277122251689434
5.454869270324707 6.477751731872559 -0.02267320454120636
5.415059566497803 6.485718727111816 -0.02262357994914055
5.380440711975098 6.471505165100098 -0.022533969953656197
5.3463029861450195 6.485814094543457 -0.022504955530166626
5.277416229248047 6.484881401062012 -0.02238887920975685
5.2503767013549805 6.479715347290039 -0.022228242829442024
5.215470314025879 6.492345333099365 -0.02219078503549099
5.197901725769043 6.498047828674316 -0.022175531834363937
5.1720991134643555 6.49353551864624 -0.021722009405493736
5.142311096191406 6.484347343444824 -0.021657070145010948
5.135128498077393 6.502964019775391 -0.02168080396950245
5.105226039886475 6.492919921875 -0.021612592041492462
5.094813823699951 6.508076190948486 -0.02162822335958481
5.064367294311523 6.496916770935059 -0.021449632942676544
5.043172836303711 6.497657775878906 -0.021420270204544067
5.0287699699401855 6.507586479187012 -0.021420100703835487
5.004998207092285 6.504847049713135 -0.021373150870203972
4.981378555297852 6.502676963806152 -0.021329499781131744
4.969519138336182 6.515157699584961 -0.021539149805903435
4.943999290466309 6.509838581085205 -0.0214846134185791
4.924291610717773 6.512558937072754 -0.0214694757014513
4.900946617126465 6.509890556335449 -0.021321924403309822
4.888289928436279 6.52119779586792 -0.021324539557099342
4.863924026489258 6.517488479614258 -0.020881637930870056
4.8521881103515625 6.530158996582031 -0.020888768136501312
4.820308685302734 6.51545524597168 -0.020812464877963066
4.803479194641113 6.52163028717041 -0.020799648016691208
4.784422874450684 6.524238586425781 -0.020775916054844856
4.769155502319336 6.531799793243408 -0.020769156515598297
4.741490364074707 6.522953033447266 -0.02061070129275322
4.722474098205566 6.525392055511475 -0.020584585145115852
4.705986022949219 6.531771659851074 -0.020571473985910416
4.688088417053223 6.535655498504639 -0.020554210990667343
4.661956787109375 6.52778434753418 -0.020502006635069847
4.64716100692749 6.536374568939209 -0.020492419600486755
4.623805999755859 6.5323591232299805 -0.02045203559100628
4.586129665374756 6.537168502807617 -0.01991925947368145
4.566162109375 6.537693977355957 -0.019892405718564987
4.528204917907715 6.541863441467285 -0.01984761655330658
4.503176212310791 6.534641265869141 -0.01979941502213478
4.4634108543396 6.535675525665283 -0.0199396051466465
4.451096534729004 6.546773910522461 -0.019846372306346893
4.431422710418701 6.547877788543701 -0.019819902256131172
4.418426513671875 6.557952880859375 -0.019822698086500168
4.394268989562988 6.551395416259766 -0.019774189218878746
4.370412349700928 6.546011924743652 -0.019346119835972786
4.353211402893066 6.549640655517578 -0.019331417977809906
4.323795795440674 6.565190315246582 -0.01922614313662052
4.3061347007751465 6.568006992340088 -0.01920720376074314
4.26246452331543 6.561497688293457 -0.019134504720568657
4.2487664222717285 6.570216655731201 -0.019134758040308952
4.22958517074585 6.571298122406006 -0.01911299303174019
4.203250885009766 6.560257911682129 -0.019058452919125557
4.185766696929932 6.5629119873046875 -0.018937401473522186
4.173099994659424 6.573985576629639 -0.01894593983888626
4.150188446044922 6.567976474761963 -0.01852811500430107
4.1264424324035645 6.56121301651001 -0.01848537102341652
4.119652271270752 6.580860614776611 -0.01851631887257099
4.0870137214660645 6.558948040008545 -0.018433593213558197
4.0750041007995605 6.570905685424805 -0.01843620277941227
4.056615829467773 6.571664333343506 -0.018321074545383453
4.042649269104004 6.580264091491699 -0.018512988463044167
4.015559196472168 6.566865921020508 -0.018451951444149017
4.004035949707031 6.578657150268555 -0.01845513842999935
3.9849071502685547 6.578831672668457 -0.01843341812491417
3.9681432247161865 6.581940174102783 -0.01842358335852623
3.950901985168457 6.58420467376709 -0.01840631663799286
3.9319448471069336 6.5844526290893555 -0.01801299676299095
3.9141030311584473 6.585583209991455 -0.0178982000797987
3.895962715148926 6.586142539978027 -0.01787622831761837
3.8664746284484863 6.568273067474365 -0.0178073737770319
3.8628592491149902 6.593390941619873 -0.01785152591764927
3.8342509269714355 6.575997352600098 -0.017787018790841103
3.8155899047851562 6.576048851013184 -0.017764637246727943
3.8027210235595703 6.585313320159912 -0.017664987593889236
13.496301651000977 6.264089584350586 0.07316118478775024
11.419939994812012 6.420597553253174 0.06517841666936874
11.277679443359375 6.434256553649902 0.0645984560251236
11.139453887939453 6.448554992675781 0.06404051929712296
10.99231243133545 6.45597505569458 0.0635819137096405
10.901209831237793 6.4643707275390625 0.06321804970502853
10.841504096984863 6.45941162109375 0.06294399499893188
10.745645523071289 6.463771820068359 0.06254406273365021
10.628837585449219 6.4848527908325195 0.06284330040216446
10.480313301086426 6.4849958419799805 0.06220758706331253
10.353808403015137 6.4970831871032715 0.061850614845752716
9.315292358398438 6.550786972045898 0.05858521908521652
9.212928771972656 6.56574821472168 0.058207668364048004
9.109395980834961 6.578707218170166 0.057814136147499084
9.034428596496582 6.581963539123535 0.05750565603375435
8.994888305664062 6.582444190979004 0.05748258903622627
8.933584213256836 6.59553337097168 0.05727498233318329
8.892110824584961 6.593468189239502 0.057096581906080246
8.844959259033203 6.587168216705322 0.05687714368104935
8.809528350830078 6.589913368225098 0.05674139782786369
8.775997161865234 6.593277454376221 0.05660628527402878
8.70346450805664 6.59630823135376 0.05684526264667511
8.676315307617188 6.604125499725342 0.056765004992485046
8.593940734863281 6.5987701416015625 0.05640444904565811
8.56688404083252 6.606298923492432 0.05631180852651596
8.453827857971191 6.604450702667236 0.055844321846961975
7.800530910491943 6.667742729187012 0.05418208986520767
7.69530725479126 6.661977767944336 0.05374031513929367
7.611367225646973 6.673480033874512 0.05344716086983681
7.508208274841309 6.666982650756836 0.05301171913743019
7.457286834716797 6.6781463623046875 0.05298282951116562
7.433284759521484 6.685152530670166 0.05290832370519638
7.396541595458984 6.6799235343933105 0.05274462699890137
7.377045631408691 6.690331935882568 0.0527074821293354
7.347080707550049 6.691648006439209 0.052594855427742004
7.312367916107178 6.688014984130859 0.052449196577072144
7.2793474197387695 6.685609340667725 0.05231136456131935
7.258355140686035 6.6948018074035645 0.05225503444671631
7.221616268157959 6.688872814178467 0.05269872397184372
7.18922758102417 6.686644554138184 0.05255690962076187
7.169560432434082 6.696806907653809 0.05252110958099365
7.15659236907959 6.712724685668945 0.05252895876765251
7.104517459869385 6.691648006439209 0.05224794149398804
7.087008476257324 6.703783988952637 0.05222238600254059
7.053766250610352 6.700130462646484 0.052083536982536316
7.008214950561523 6.713232517242432 0.05195748060941696
6.972773551940918 6.707085609436035 0.051792629063129425
6.918396472930908 6.711103916168213 0.05172029882669449
6.839684963226318 6.718722820281982 0.051450155675411224
6.765105247497559 6.729550838470459 0.05120498687028885
6.681972503662109 6.730955123901367 0.051357947289943695
6.447311878204346 6.745153427124023 0.05064539611339569
6.367128372192383 6.745660305023193 0.05034644156694412
6.30040168762207 6.759597301483154 0.05026818811893463
6.243070602416992 6.754901885986328 0.05003999173641205
6.216326713562012 6.754030704498291 0.04993673041462898
6.1941237449646 6.757997989654541 0.0503135547041893
6.161235332489014 6.751012802124023 0.050166066735982895
6.150279521942139 6.767158508300781 0.05019472911953926
6.113508224487305 6.755469799041748 0.05000539496541023
6.105459213256836 6.77495002746582 0.05006055533885956
6.065924167633057 6.759232044219971 0.04996144026517868
6.046172142028809 6.766245365142822 0.04991738125681877
6.017743110656738 6.762622833251953 0.049800366163253784
6.001308917999268 6.772403240203857 0.04978208616375923
5.9637956619262695 6.759103775024414 0.04947410151362419
5.951714515686035 6.773694038391113 0.04949319362640381
5.922901153564453 6.769179344177246 0.049481093883514404
5.897757530212402 6.769570350646973 0.04938669502735138
5.871432781219482 6.7676591873168945 0.049288637936115265
5.8564558029174805 6.779600143432617 0.04928193241357803
5.8225860595703125 6.768735885620117 0.049115996807813644
5.8079094886779785 6.7800822257995605 0.04910961911082268
5.778069496154785 6.7744855880737305 0.0489799901843071
5.7645955085754395 6.787164211273193 0.04898533225059509
5.731315612792969 6.776431560516357 0.048827048391103745
5.705934524536133 6.775725364685059 0.04872824624180794
5.675123691558838 6.767590522766113 0.048691824078559875
5.664553642272949 6.783700466156006 0.04873047396540642
5.638798236846924 6.7820820808410645 0.04863094165921211
5.620201587677002 6.788321495056152 0.048589594662189484
5.575267791748047 6.792078018188477 0.04887710511684418
5.543924808502197 6.782718181610107 0.04872863367199898
5.483105182647705 6.795042991638184 0.04867355525493622
5.308984756469727 6.81004524230957 0.04813872277736664
5.2371063232421875 6.805650234222412 0.04787520319223404
5.178627967834473 6.818603038787842 0.04773593693971634
5.118682384490967 6.798243522644043 0.047541871666908264
5.102260589599609 6.806468486785889 0.04794349893927574
5.088665008544922 6.817765235900879 0.047947585582733154
5.0660080909729 6.817052364349365 0.04786784201860428
5.040798187255859 6.8133063316345215 0.04776453226804733
5.025341033935547 6.822155952453613 0.04775536432862282
5.002383232116699 6.820583820343018 0.04766837880015373
4.982480049133301 6.823789596557617 0.0476202555000782
4.968291282653809 6.8342695236206055 0.04772506281733513
4.939207077026367 6.823990821838379 0.04758385196328163
4.919335842132568 6.827016830444336 0.04753011465072632
4.893117904663086 6.8206071853637695 0.047203876078128815
4.8779730796813965 6.830076217651367 0.04720156267285347
4.8459248542785645 6.815060615539551 0.047024693340063095
4.833430767059326 6.8276262283325195 0.047042034566402435
4.804196357727051 6.8169846534729 0.047403912991285324
4.7874908447265625 6.823487758636475 0.047383494675159454
4.764848709106445 6.821986198425293 0.0473029762506485
4.753170967102051 6.835439682006836 0.04732711613178253
4.730022430419922 6.832536697387695 0.047234464436769485
4.706757068634033 6.829878807067871 0.047146011143922806
4.682742118835449 6.8253021240234375 0.047051332890987396
4.663712501525879 6.828078746795654 0.04700160399079323
