VERSION .7
FIELDS x y z
SIZE 4 4 4
TYPE F F F
COUNT 1 1 1
WIDTH 836
HEIGHT 1
VIEWPOINT 0 0 0 1 0 0 0
POINTS 836
DATA ascii
3.1253316402435303 5.336909294128418 -0.09881553053855896
3.114595413208008 5.344584941864014 -0.09845757484436035
3.0990512371063232 5.34337043762207 -0.0982455462217331
3.0814836025238037 5.338717937469482 -0.0976654589176178
6.074892997741699 4.999144077301025 -0.121977299451828
6.014210224151611 5.012951850891113 -0.12043328583240509
5.960343837738037 5.031890869140625 -0.11912260949611664
5.915875434875488 5.037173271179199 -0.11770794540643692
5.903739929199219 5.048010349273682 -0.11767453700304031
5.846376419067383 5.0417399406433105 -0.11639393866062164
5.786202907562256 5.053622245788574 -0.11488818377256393
5.737835884094238 5.075317859649658 -0.11397477239370346
5.209880352020264 5.1847639083862305 -0.10144994407892227
5.150389671325684 5.190412521362305 -0.10003266483545303
5.102812767028809 5.207537651062012 -0.09885203838348389
5.0611186027526855 5.2086896896362305 -0.09794294834136963
5.040583610534668 5.209140777587891 -0.09739506989717484
5.001587867736816 5.212592124938965 -0.09654071927070618
4.996233940124512 5.2286882400512695 -0.09620435535907745
4.958613872528076 5.233266830444336 -0.09510613977909088
4.929033279418945 5.22371768951416 -0.09466578811407089
4.902358531951904 5.23947811126709 -0.09378177672624588
4.891433238983154 5.2495951652526855 -0.09369780123233795
4.8519463539123535 5.251387596130371 -0.09265816956758499
4.826348781585693 5.246001243591309 -0.09202758222818375
4.800272464752197 5.2614359855651855 -0.09142995625734329
4.433962821960449 5.335208892822266 -0.082279734313488
4.38624382019043 5.345804214477539 -0.08083024621009827
4.335518836975098 5.35224723815918 -0.07959242910146713
4.307108402252197 5.363196849822998 -0.07872476428747177
4.291091442108154 5.366023540496826 -0.07855673134326935
4.259398937225342 5.372625350952148 -0.07755373418331146
4.2416815757751465 5.373144626617432 -0.07701507955789566
4.217401504516602 5.38889741897583 -0.07656782120466232
4.2063188552856445 5.3979058265686035 -0.07615305483341217
4.175422668457031 5.381252765655518 -0.07538090646266937
4.167974472045898 5.3952836990356445 -0.07503661513328552
4.150550842285156 5.395965099334717 -0.07450887560844421
4.139319896697998 5.40509033203125 -0.0740976631641388
4.120351314544678 5.4035139083862305 -0.07395880669355392
4.104188919067383 5.405674934387207 -0.07345730066299438
4.080340385437012 5.398041248321533 -0.07282321900129318
4.078451633453369 5.418881416320801 -0.07291043549776077
4.056521415710449 5.413776397705078 -0.07239141315221786
4.045882225036621 5.422991752624512 -0.07198752462863922
4.022858142852783 5.415543079376221 -0.07136587798595428
4.020654678344727 5.436800956726074 -0.07112020254135132
3.995298385620117 5.426030158996582 -0.07045937329530716
3.9871513843536377 5.438568115234375 -0.07043768465518951
3.9591476917266846 5.42463493347168 -0.06973870098590851
3.957615613937378 5.446233749389648 -0.06957685202360153
3.925044059753418 5.449524402618408 -0.06858581304550171
3.906687021255493 5.447840690612793 -0.06805311143398285
3.8703746795654297 5.445483684539795 -0.06733648478984833
3.859605312347412 5.45426607131958 -0.06693736463785172
3.8371832370758057 5.4713029861450195 -0.06620825827121735
3.793217420578003 5.481596946716309 -0.06515150517225266
3.652696371078491 5.497860431671143 -0.06121506541967392
3.6088404655456543 5.506645202636719 -0.06025560945272446
3.565437078475952 5.515881538391113 -0.05890607088804245
3.5207059383392334 5.522525787353516 -0.05754047632217407
3.503556966781616 5.520868301391602 -0.05744864046573639
3.4877052307128906 5.521786212921143 -0.05698135867714882
3.4824459552764893 5.539026260375977 -0.05668364092707634
3.4585862159729004 5.526494979858398 -0.0560850091278553
3.4578323364257812 5.551485061645508 -0.055863816291093826
3.4339332580566406 5.5388360023498535 -0.05526604875922203
3.42838716506958 5.555601596832275 -0.05496406927704811
3.3994970321655273 5.535066604614258 -0.05429382994771004
3.390886068344116 5.546968460083008 -0.053944457322359085
3.3727564811706543 5.543746471405029 -0.05376872420310974
3.365791082382202 5.55824089050293 -0.05344456806778908
3.348729133605957 5.556199073791504 -0.05296217277646065
3.3381104469299316 5.565293312072754 -0.05258478969335556
3.3244597911834717 5.568699359893799 -0.05215562507510185
3.3124828338623047 5.575036525726318 -0.05175386369228363
3.2933545112609863 5.56975793838501 -0.05124495178461075
3.2806284427642822 5.5747551918029785 -0.05083348974585533
3.2663168907165527 5.577512741088867 -0.05039980262517929
3.2503652572631836 5.576780796051025 -0.05025865137577057
3.232987880706787 5.573667526245117 -0.04985058307647705
3.225914478302002 5.588798522949219 -0.049530234187841415
3.2077064514160156 5.583985805511475 -0.04903549328446388
3.1979422569274902 5.593982696533203 -0.04867168143391609
3.178626537322998 5.587716102600098 -0.04816553741693497
3.1735424995422363 5.605814456939697 -0.047871194779872894
3.152020215988159 5.594997406005859 -0.047329507768154144
3.143648624420166 5.607967376708984 -0.046991005539894104
3.1214089393615723 5.595636367797852 -0.04644231125712395
3.118539810180664 5.6185197830200195 -0.04618404060602188
3.091236114501953 5.596667766571045 -0.04556228220462799
3.086091995239258 5.615007400512695 -0.04558534175157547
3.0702614784240723 5.6144328117370605 -0.04513727128505707
3.0618934631347656 5.626837730407715 -0.04479438066482544
3.0410730838775635 5.616459846496582 -0.04427177831530571
3.033620834350586 5.63123893737793 -0.04394686222076416
7.822159767150879 4.463906288146973 -0.19160506129264832
7.761198997497559 4.494032859802246 -0.19025269150733948
7.687229156494141 4.494536876678467 -0.18845853209495544
7.665195465087891 4.503024578094482 -0.18804466724395752
7.613237380981445 4.5157365798950195 -0.18679563701152802
7.582358360290527 4.518716335296631 -0.18616941571235657
7.527690887451172 4.529208183288574 -0.18475551903247833
6.777138710021973 4.703579902648926 -0.16671717166900635
6.699702262878418 4.712516784667969 -0.16503769159317017
6.6551923751831055 4.723228931427002 -0.16411744058132172
6.634478569030762 4.7292609214782715 -0.16335046291351318
6.613213539123535 4.734830379486084 -0.16306854784488678
6.599647045135498 4.746474266052246 -0.16248807311058044
6.565533638000488 4.742644309997559 -0.16188929975032806
6.554549217224121 4.755439281463623 -0.16136732697486877
6.524303436279297 4.754802227020264 -0.16087263822555542
6.490659236907959 4.750938415527344 -0.15988539159297943
6.453031063079834 4.765261650085449 -0.1593608260154724
6.43191385269165 4.770325660705566 -0.15859392285346985
6.370678901672363 4.787281036376953 -0.15733714401721954
6.301921844482422 4.797898769378662 -0.15550312399864197
5.807117462158203 4.902418613433838 -0.1438114047050476
5.754307746887207 4.920124053955078 -0.14271843433380127
5.714134216308594 4.927582740783691 -0.14177459478378296
5.691389560699463 4.928600311279297 -0.14108982682228088
5.642113208770752 4.927660942077637 -0.14000959694385529
5.629789352416992 4.937643051147461 -0.1398736983537674
5.614304065704346 4.944712162017822 -0.13937215507030487
5.59265661239624 4.946786880493164 -0.1390102058649063
5.5672149658203125 4.9450273513793945 -0.1382645219564438
5.5628533363342285 4.962338924407959 -0.13833250105381012
5.543264865875244 4.965673446655273 -0.13773314654827118
5.5332560539245605 4.977443695068359 -0.13765601813793182
5.506417274475098 4.974509239196777 -0.1368826925754547
5.48607063293457 4.976956844329834 -0.13655012845993042
5.47075080871582 4.983794689178467 -0.1360584944486618
5.445524215698242 4.982028007507324 -0.1352437287569046
5.4197235107421875 5.000017166137695 -0.13466808199882507
5.390655517578125 4.994444847106934 -0.13420923054218292
5.345223903656006 4.994351387023926 -0.1331542730331421
5.2902727127075195 5.005669116973877 -0.1316772997379303
5.243129730224609 5.023908615112305 -0.13076098263263702
5.181639671325684 5.027853012084961 -0.12921437621116638
4.967443943023682 5.069275379180908 -0.12398646771907806
4.921854019165039 5.086324214935303 -0.12286088615655899
4.880155563354492 5.0859198570251465 -0.12192315608263016
4.863425254821777 5.089583873748779 -0.12168818712234497
4.838138580322266 5.106000900268555 -0.1208142638206482
4.820821285247803 5.108917713165283 -0.12056577205657959
4.789400577545166 5.096767425537109 -0.11969718337059021
4.783278465270996 5.112092018127441 -0.11965670436620712
4.768284320831299 5.117311477661133 -0.11919990926980972
4.751997947692871 5.121217727661133 -0.11863330006599426
4.736602783203125 5.126429080963135 -0.11852072924375534
4.718530178070068 5.128178596496582 -0.11790885776281357
4.69586706161499 5.125479221343994 -0.11761590093374252
4.68080472946167 5.130373001098633 -0.11708123981952667
4.666684150695801 5.136263370513916 -0.11657051742076874
4.651975631713867 5.14210319519043 -0.11647731065750122
4.633937835693359 5.143579483032227 -0.1158701479434967
4.612432956695557 5.141123294830322 -0.11559880524873734
4.600622177124023 5.150049209594727 -0.11515672504901886
4.585122585296631 5.154187202453613 -0.11461514234542847
4.5606889724731445 5.14882755279541 -0.11427915841341019
4.552399635314941 5.161007881164551 -0.1139192283153534
4.533614158630371 5.161262035369873 -0.11371690034866333
4.517249584197998 5.16484260559082 -0.11316397041082382
4.496316432952881 5.162487506866455 -0.11248981207609177
4.487636089324951 5.174680709838867 -0.11254743486642838
4.481747627258301 5.189729690551758 -0.11225220561027527
4.453233242034912 5.178396224975586 -0.11180730909109116
4.4216132164001465 5.185644149780273 -0.11072853207588196
4.409894943237305 5.193691730499268 -0.11070474237203598
4.374234199523926 5.195886611938477 -0.10978734493255615
4.353750705718994 5.193392753601074 -0.10920766741037369
4.30660343170166 5.203772068023682 -0.10802516341209412
4.2573347091674805 5.210585117340088 -0.1067872866988182
4.19118595123291 5.240968227386475 -0.10527326166629791
4.135409355163574 5.238399505615234 -0.10388248413801193
4.108942985534668 5.250187397003174 -0.10336513817310333
4.096618175506592 5.256879806518555 -0.10292242467403412
4.079288959503174 5.25723123550415 -0.10268621146678925
4.06433629989624 5.261003494262695 -0.1022612676024437
4.044068336486816 5.257407188415527 -0.10162219405174255
4.028141975402832 5.259250164031982 -0.10141975432634354
4.014546871185303 5.264634609222412 -0.1008790135383606
3.9982056617736816 5.265957832336426 -0.10034047067165375
3.9859437942504883 5.27249002456665 -0.10030733048915863
3.967351198196411 5.271141052246094 -0.09971775114536285
3.9446353912353516 5.263785362243652 -0.09902109950780869
3.934373617172241 5.273402690887451 -0.09904438257217407
3.9236791133880615 5.281902313232422 -0.0986495390534401
3.915191173553467 5.293514728546143 -0.09838762879371643
3.8941843509674072 5.288579940795898 -0.09806632250547409
3.8875908851623535 5.302764892578125 -0.09777745604515076
3.8676400184631348 5.298576354980469 -0.09722664207220078
3.851494789123535 5.300069332122803 -0.09702830761671066
3.8363075256347656 5.302400588989258 -0.09652461856603622
3.824709415435791 5.309536457061768 -0.09618564695119858
3.807943344116211 5.3100152015686035 -0.09597238898277283
3.7962727546691895 5.317134380340576 -0.0955590084195137
3.7689714431762695 5.302684307098389 -0.09483254700899124
3.765970468521118 5.32181453704834 -0.09495998173952103
3.7422337532043457 5.311744213104248 -0.0942438468337059
3.730337381362915 5.3188252449035645 -0.09390680491924286
3.714951753616333 5.320469379425049 -0.09372389316558838
3.7033193111419678 5.3278913497924805 -0.09332001209259033
3.682542085647583 5.321529388427734 -0.09275384247303009
3.6790640354156494 5.340283393859863 -0.09287253767251968
3.6598525047302246 5.336632251739502 -0.09213009476661682
3.6368839740753174 5.32680606842041 -0.09150975942611694
3.6284916400909424 5.3384013175964355 -0.09118445217609406
3.612916946411133 5.33985710144043 -0.09100408852100372
3.5980124473571777 5.341678619384766 -0.09058818221092224
3.5855934619903564 5.347860336303711 -0.09017020463943481
3.5665767192840576 5.343438148498535 -0.08989699929952621
3.5592575073242188 5.356512546539307 -0.0896734893321991
3.5478098392486572 5.364108085632324 -0.08928096294403076
3.5319392681121826 5.3642730712890625 -0.08908764272928238
3.5180842876434326 5.367447853088379 -0.08870087563991547
3.5068211555480957 5.375275135040283 -0.08831439912319183
3.482754707336426 5.362670421600342 -0.0879143476486206
3.4608047008514404 5.378324031829834 -0.08722429722547531
3.447561740875244 5.382256507873535 -0.08709905296564102
3.434779405593872 5.387605667114258 -0.08674979209899902
3.4135637283325195 5.378921031951904 -0.08610652387142181
3.3982012271881104 5.379355430603027 -0.08561144769191742
3.3812615871429443 5.3779497146606445 -0.08540060371160507
3.3679914474487305 5.381595134735107 -0.08503317832946777
3.3610143661499023 5.396045684814453 -0.08476047962903976
3.347768783569336 5.399717330932617 -0.08463507890701294
3.332632064819336 5.400294780731201 -0.0842210203409195
3.318734884262085 5.40356969833374 -0.08362975716590881
3.305781841278076 5.407611846923828 -0.08319921046495438
3.2829837799072266 5.395445823669434 -0.0829048752784729
3.2705280780792236 5.400923728942871 -0.0824965089559555
3.26149582862854 5.41132116317749 -0.0821676105260849
3.2542080879211426 5.4246602058410645 -0.08226656168699265
3.2340500354766846 5.417257308959961 -0.0816650539636612
3.2278153896331787 5.432395935058594 -0.08140617609024048
3.2071821689605713 5.423880100250244 -0.08086342364549637
3.1975841522216797 5.433494567871094 -0.08083400130271912
3.1814377307891846 5.431814193725586 -0.08032720535993576
3.164205551147461 5.428810119628906 -0.07987192273139954
3.1497955322265625 5.430100440979004 -0.07941057533025742
3.1330208778381348 5.427097797393799 -0.07919949293136597
8.050292015075684 4.820250988006592 -0.12056346237659454
7.983762741088867 4.84885835647583 -0.11945444345474243
7.896295547485352 4.863948822021484 -0.11803388595581055
7.826770782470703 4.866710662841797 -0.11673559248447418
7.743539333343506 4.882726192474365 -0.11538922786712646
7.672296524047852 4.905481815338135 -0.11378045380115509
7.589935302734375 4.920314788818359 -0.1124623715877533
6.937844276428223 5.033527374267578 -0.10091212391853333
6.856028079986572 5.04025936126709 -0.09923812001943588
6.7851762771606445 5.054187774658203 -0.09815483540296555
6.746479034423828 5.069678783416748 -0.0973874032497406
6.716680526733398 5.069129467010498 -0.09678737074136734
6.687167644500732 5.091201305389404 -0.09615719318389893
6.654601097106934 5.088254928588867 -0.09584097564220428
6.6117353439331055 5.0997467041015625 -0.09502128511667252
6.589645862579346 5.104553699493408 -0.09434771537780762
6.547031879425049 5.115805625915527 -0.09353775531053543
6.512946605682373 5.1109747886657715 -0.09320205450057983
6.464966297149658 5.117463111877441 -0.09231943637132645
6.442903995513916 5.1223039627075195 -0.09175091981887817
6.405248641967773 5.1360182762146 -0.09101773053407669
5.941636562347412 5.232884407043457 -0.08263760060071945
5.873003959655762 5.2383646965026855 -0.081178680062294
5.810335159301758 5.2485456466674805 -0.0802898034453392
5.758478164672852 5.245791435241699 -0.07931244373321533
5.736602783203125 5.247808456420898 -0.07877608388662338
5.701874732971191 5.26019811630249 -0.07812833786010742
5.681026458740234 5.262950897216797 -0.0779929906129837
5.642005920410156 5.271007537841797 -0.07728922367095947
5.617109298706055 5.269740581512451 -0.07671621441841125
5.598383903503418 5.27458381652832 -0.0765257477760315
5.579564094543457 5.278872966766357 -0.07603777199983597
5.5746073722839355 5.296149730682373 -0.07565036416053772
5.5489020347595215 5.294206142425537 -0.07545416057109833
5.5366129875183105 5.304594039916992 -0.07496931403875351
5.507208824157715 5.2989115715026855 -0.07472345978021622
5.497060298919678 5.311159133911133 -0.07426850497722626
5.4713029861450195 5.308392524719238 -0.07398299872875214
5.446246147155762 5.30659294128418 -0.07341936975717545
5.427064895629883 5.309902667999268 -0.07322225719690323
5.388594150543213 5.316864013671875 -0.07254258543252945
5.368555068969727 5.319124221801758 -0.07204653322696686
5.331333160400391 5.326925754547119 -0.07138746976852417
5.270438194274902 5.332711696624756 -0.07010407745838165
5.044495105743408 5.368233680725098 -0.06581463664770126
5.007476329803467 5.396422386169434 -0.06487379968166351
4.934831142425537 5.385645866394043 -0.06384045630693436
4.893919944763184 5.408873558044434 -0.0628591924905777
4.854746341705322 5.411211967468262 -0.06220461428165436
4.836210250854492 5.413107395172119 -0.06166780740022659
4.7974371910095215 5.415441036224365 -0.0610220767557621
4.7833967208862305 5.422220230102539 -0.060545433312654495
4.755253791809082 5.413043975830078 -0.06024914234876633
4.747992992401123 5.427996635437012 -0.05994563549757004
4.737442970275879 5.438669204711914 -0.0595146007835865
4.717585563659668 5.4392900466918945 -0.05941091105341911
4.694881439208984 5.4358625411987305 -0.058828696608543396
4.6802873611450195 5.441751480102539 -0.05870471149682999
4.660287380218506 5.441969871520996 -0.058244410902261734
4.650619983673096 5.453547954559326 -0.057827360928058624
4.62104606628418 5.442373275756836 -0.057604387402534485
4.607980251312256 5.4498677253723145 -0.05714667588472366
4.592947006225586 5.455007553100586 -0.056664980947971344
4.581410884857178 5.4649577140808105 -0.056666553020477295
4.5573320388793945 5.4592061042785645 -0.056074753403663635
4.533235549926758 5.453305244445801 -0.055835988372564316
4.521198749542236 5.462521553039551 -0.05548001453280449
4.512250900268555 5.474801063537598 -0.05507627874612808
4.492283821105957 5.473679065704346 -0.05497099459171295
4.476663589477539 5.4784698486328125 -0.05449127405881882
4.457947254180908 5.478729724884033 -0.054320648312568665
4.419663906097412 5.4786505699157715 -0.053356509655714035
4.415431976318359 5.496706485748291 -0.05336187779903412
4.379539966583252 5.499300956726074 -0.05234932154417038
4.361538887023926 5.5000810623168945 -0.05218978226184845
4.321489334106445 5.496970176696777 -0.05121389031410217
4.312847137451172 5.510032653808594 -0.05116968974471092
4.252574443817139 5.503970623016357 -0.05009494349360466
4.220369338989258 5.510096073150635 -0.04948493838310242
4.183164119720459 5.533236026763916 -0.04860901087522507
4.124731540679932 5.527843475341797 -0.047490574419498444
4.080761909484863 5.541390895843506 -0.046545352786779404
4.046922206878662 5.544054985046387 -0.04566553235054016
4.032195568084717 5.548154354095459 -0.045551054179668427
3.999398946762085 5.55190896987915 -0.0446869358420372
3.9966886043548584 5.572628974914551 -0.04462880641222
3.971080780029297 5.561256408691406 -0.04405462369322777
3.949718952178955 5.556265354156494 -0.043610475957393646
3.936185836791992 5.561767101287842 -0.0435108058154583
3.9195363521575928 5.563271999359131 -0.04304204881191254
3.9114890098571777 5.57639217376709 -0.04274328425526619
3.895538330078125 5.578376293182373 -0.04261743277311325
3.875264883041382 5.574540138244629 -0.042110878974199295
3.8694849014282227 5.591081619262695 -0.04183844104409218
3.8402230739593506 5.573482990264893 -0.04156879708170891
3.8346400260925293 5.590767860412598 -0.04122296720743179
3.8138279914855957 5.585376262664795 -0.040789611637592316
3.8088231086730957 5.603575706481934 -0.04078538343310356
3.7864737510681152 5.59563684463501 -0.0402575246989727
3.7719686031341553 5.599338054656982 -0.03981554135680199
3.755108118057251 5.599950790405273 -0.039763279259204865
3.739193916320801 5.601311683654785 -0.03930654004216194
3.721477508544922 5.600043773651123 -0.03883245214819908
3.7117767333984375 5.611273765563965 -0.038522638380527496
3.6937050819396973 5.60921573638916 -0.03837854415178299
3.680821180343628 5.615731239318848 -0.037959083914756775
3.66312313079834 5.61410665512085 -0.03756480664014816
3.6577587127685547 5.631527423858643 -0.037553027272224426
3.636491060256958 5.624910354614258 -0.037048351019620895
3.618718147277832 5.622978210449219 -0.03650097921490669
3.600351095199585 5.620174407958984 -0.03635714575648308
3.594021797180176 5.636626243591309 -0.0360829122364521
3.5712063312530518 5.626566410064697 -0.0355643704533577
3.5609500408172607 5.636369705200195 -0.03517204523086548
3.5512568950653076 5.647564888000488 -0.0351184606552124
3.539424419403076 5.654754638671875 -0.034787289798259735
3.511396646499634 5.636715412139893 -0.03422381356358528
3.5004796981811523 5.645260334014893 -0.03415529429912567
3.4719717502593994 5.652297019958496 -0.033376049250364304
3.454529285430908 5.650157928466797 -0.03324367105960846
3.443927049636841 5.659950256347656 -0.0329301580786705
3.427036762237549 5.658602237701416 -0.03247760608792305
3.41922664642334 5.672237396240234 -0.032110631465911865
3.395265579223633 5.659797668457031 -0.03199860826134682
3.387698173522949 5.67384147644043 -0.03163519874215126
3.362767219543457 5.658731937408447 -0.031110499054193497
3.35715651512146 5.6768693923950195 -0.03109491802752018
3.338930130004883 5.672885417938232 -0.030708620324730873
3.328062057495117 5.681357383728027 -0.030315129086375237
3.3073649406433105 5.673781871795654 -0.02983665280044079
3.303478479385376 5.694241046905518 -0.02990793064236641
3.2808871269226074 5.683236122131348 -0.02941250056028366
3.2636144161224365 5.680508613586426 -0.028812233358621597
3.2461023330688477 5.67726993560791 -0.028437526896595955
3.2334909439086914 5.683355808258057 -0.028358306735754013
3.2186903953552246 5.684755325317383 -0.02793395146727562
3.2100634574890137 5.697060585021973 -0.027637789025902748
3.190164089202881 5.690132141113281 -0.027172386646270752
3.183828115463257 5.7065606117248535 -0.027144012972712517
3.164440155029297 5.6995768547058105 -0.026681385934352875
3.1540212631225586 5.709516525268555 -0.02637360990047455
3.1389174461364746 5.710139751434326 -0.026270924136042595
3.1267716884613037 5.716784477233887 -0.02587291970849037
3.107607841491699 5.710016250610352 -0.02549097128212452
3.0958099365234375 5.716560363769531 -0.02509530819952488
3.0739712715148926 5.7051496505737305 -0.02494366280734539
13.812941551208496 1.165508508682251 -0.2766224443912506
13.800949096679688 1.1940391063690186 -0.2764318585395813
13.787379264831543 1.221695899963379 -0.27551892399787903
13.789603233337402 1.2515878677368164 -0.27530911564826965
13.789834022521973 1.2804665565490723 -0.27536481618881226
13.772126197814941 1.3078086376190186 -0.27506622672080994
13.747209548950195 1.3349263668060303 -0.2746228873729706
13.726480484008789 1.3616728782653809 -0.2742646634578705
13.717477798461914 1.3896870613098145 -0.2741415500640869
13.709394454956055 1.4183070659637451 -0.274040162563324
13.705739974975586 1.4466816186904907 -0.2740267515182495
13.671449661254883 1.4725996255874634 -0.2734014391899109
13.648667335510254 1.4988044500350952 -0.2730052173137665
13.65114974975586 1.527908444404602 -0.27311939001083374
13.636275291442871 1.5555915832519531 -0.27288830280303955
13.629730224609375 1.5835041999816895 -0.2728215456008911
13.619573593139648 1.611818790435791 -0.2726875841617584
13.62198543548584 1.6407756805419922 -0.27280277013778687
13.615900039672852 1.668715238571167 -0.27206575870513916
13.596380233764648 1.6958119869232178 -0.27174603939056396
13.56607437133789 1.7206298112869263 -0.27121081948280334
13.567831993103027 1.7494690418243408 -0.27131742238998413
13.549283981323242 1.7765111923217773 -0.27102282643318176
13.530536651611328 1.8026221990585327 -0.27072134613990784
13.499356269836426 1.856361746788025 -0.270250141620636
13.486270904541016 1.8830863237380981 -0.2693871259689331
13.480550765991211 1.9116554260253906 -0.2688278555870056
13.453015327453613 1.936238169670105 -0.2683578431606293
13.444456100463867 1.9928346872329712 -0.26835182309150696
13.425402641296387 2.018491744995117 -0.2680543065071106
13.389765739440918 2.070835590362549 -0.2675142288208008
13.387097358703613 2.098877191543579 -0.26754748821258545
13.367620468139648 2.125091791152954 -0.2672486901283264
13.336856842041016 2.1485865116119385 -0.2667214274406433
13.339677810668945 2.177605390548706 -0.2668679356575012
13.316132545471191 2.20282244682312 -0.2664893865585327
13.316123962402344 2.2312204837799072 -0.2664299011230469
13.303129196166992 2.258270502090454 -0.2662659287452698
13.292673110961914 2.2848849296569824 -0.2661502957344055
13.289358139038086 2.312718152999878 -0.26618024706840515
13.260305404663086 2.3368582725524902 -0.2656967341899872
13.26283073425293 2.3656914234161377 -0.2658454179763794
13.24876880645752 2.391716480255127 -0.2656625211238861
13.229912757873535 2.4173526763916016 -0.26538577675819397
13.22303581237793 2.4444634914398193 -0.2653498649597168
13.192964553833008 2.46806263923645 -0.26418277621269226
13.192191123962402 2.496263265609741 -0.26427069306373596
13.16448974609375 2.5194835662841797 -0.2631533741950989
13.1599702835083 2.547619104385376 -0.2628057599067688
13.142301559448242 2.572505235671997 -0.2625587582588196
13.109207153320312 2.5944387912750244 -0.26200544834136963
13.113954544067383 2.6243486404418945 -0.26221123337745667
13.098896980285645 2.649618625640869 -0.2620195746421814
13.10349178314209 2.6796979904174805 -0.26207423210144043
13.079813003540039 2.7031455039978027 -0.2617122530937195
13.065155029296875 2.7285537719726562 -0.2615323066711426
13.048745155334473 2.7823736667633057 -0.26143544912338257
13.016122817993164 2.8045005798339844 -0.2609012722969055
13.020036697387695 2.833630323410034 -0.2610970735549927
13.002924919128418 2.858180284500122 -0.2608722746372223
12.983221054077148 2.8829386234283447 -0.26059994101524353
12.97714900970459 2.9098610877990723 -0.25993725657463074
12.941763877868652 2.9592247009277344 -0.25932547450065613
12.947973251342773 2.9889326095581055 -0.25957363843917847
12.936553955078125 3.0154190063476562 -0.2594732642173767
12.924076080322266 3.0408010482788086 -0.25934895873069763
12.883310317993164 3.0885276794433594 -0.25878962874412537
12.877540588378906 3.115417957305908 -0.2588030695915222
12.867904663085938 3.1705093383789062 -0.25800788402557373
12.858837127685547 3.19659423828125 -0.2572985589504242
12.828407287597656 3.2181434631347656 -0.2568281292915344
12.837274551391602 3.2486987113952637 -0.2571389675140381
12.795024871826172 3.2664291858673096 -0.25643131136894226
12.7843017578125 3.2926430702209473 -0.2563561499118805
12.775360107421875 3.3186252117156982 -0.2561635971069336
12.757322311401367 3.3430471420288086 -0.2559449374675751
12.720357894897461 3.361586093902588 -0.2553429901599884
12.71500301361084 3.3884153366088867 -0.2553744912147522
12.69154167175293 3.411217451095581 -0.2543967366218567
12.687952995300293 3.4385008811950684 -0.25446540117263794
12.687580108642578 3.4668328762054443 -0.2546033263206482
12.671024322509766 3.491260290145874 -0.25442036986351013
12.667820930480957 3.5186784267425537 -0.25450026988983154
12.642345428466797 3.5407097339630127 -0.25399401783943176
12.65565299987793 3.5727765560150146 -0.25440704822540283
12.646942138671875 3.5988259315490723 -0.2543849050998688
12.616713523864746 3.6192214488983154 -0.2539321780204773
12.571698188781738 3.6345605850219727 -0.25252649188041687
12.560820579528809 3.659832715988159 -0.25246167182922363
12.491990089416504 3.668592929840088 -0.25123339891433716
12.441535949707031 3.681837797164917 -0.2502249777317047
12.393017768859863 3.6956210136413574 -0.24811993539333344
12.347591400146484 3.710662603378296 -0.24795182049274445
12.280000686645508 3.7183053493499756 -0.24675148725509644
12.230588912963867 3.7317328453063965 -0.24591830372810364
12.189568519592285 3.746885061264038 -0.24524834752082825
12.11439037322998 3.751460552215576 -0.24326138198375702
12.052509307861328 3.7603816986083984 -0.2421804666519165
12.00355339050293 3.7724595069885254 -0.2412111461162567
11.961517333984375 3.787343978881836 -0.2405250072479248
11.89395523071289 3.7931265830993652 -0.2393277883529663
11.833305358886719 3.800856351852417 -0.23826836049556732
11.788095474243164 3.8141345977783203 -0.2369038611650467
11.741570472717285 3.8260159492492676 -0.23612534999847412
11.638835906982422 3.846834897994995 -0.23424337804317474
11.547431945800781 3.870643377304077 -0.23273351788520813
11.48557186126709 3.8764398097991943 -0.23164600133895874
11.387601852416992 3.896871566772461 -0.22940269112586975
11.355735778808594 3.9123106002807617 -0.228784441947937
11.261728286743164 3.9330577850341797 -0.22722209990024567
11.208620071411133 3.9406259059906006 -0.22572451829910278
11.162703514099121 3.9512972831726074 -0.22465147078037262
11.092342376708984 3.952312707901001 -0.2234044373035431
11.073701858520508 3.9717307090759277 -0.2231946885585785
11.020095825195312 3.978952646255493 -0.2221486121416092
10.977745056152344 3.989431381225586 -0.22145897150039673
10.936273574829102 4.000828742980957 -0.2207932472229004
10.88649845123291 4.008254051208496 -0.21938364207744598
10.832651138305664 4.013975143432617 -0.21846532821655273
10.789606094360352 4.024259090423584 -0.21764002740383148
10.737653732299805 4.030284404754639 -0.21675999462604523
10.70039176940918 4.041790962219238 -0.21617662906646729
10.650976181030273 4.049007415771484 -0.21478748321533203
10.610432624816895 4.058815002441406 -0.21413668990135193
10.564580917358398 4.067167282104492 -0.21325814723968506
10.520395278930664 4.075244903564453 -0.21253575384616852
10.471799850463867 4.081569671630859 -0.21172860264778137
10.4423189163208 4.095659255981445 -0.2107469141483307
10.381986618041992 4.096875190734863 -0.20970305800437927
10.33327579498291 4.102592468261719 -0.20876526832580566
10.29437255859375 4.112490653991699 -0.20815500617027283
10.261270523071289 4.123979568481445 -0.2076602280139923
10.219207763671875 4.131862640380859 -0.20698131620883942
10.174915313720703 4.139130592346191 -0.2057163268327713
10.130169868469238 4.145583629608154 -0.20486018061637878
10.086482048034668 4.152749538421631 -0.20403435826301575
10.049240112304688 4.1618266105651855 -0.20278945565223694
10.014424324035645 4.171907901763916 -0.2022593915462494
9.979843139648438 4.18241024017334 -0.2017393410205841
9.929798126220703 4.185683727264404 -0.2009056955575943
9.892765998840332 4.194984436035156 -0.19980299472808838
9.852340698242188 4.201984882354736 -0.19903916120529175
9.784773826599121 4.221959590911865 -0.19803328812122345
9.735769271850586 4.224801540374756 -0.19721756875514984
9.666045188903809 4.243007659912109 -0.19551989436149597
9.57601547241211 4.2516770362854 -0.19405889511108398
9.55388069152832 4.265605926513672 -0.1931525617837906
9.484718322753906 4.282723426818848 -0.1921166181564331
9.438581466674805 4.28549337387085 -0.19136057794094086
9.384936332702637 4.308899879455566 -0.1900070607662201
9.340974807739258 4.312208652496338 -0.18930041790008545
9.301823616027832 4.318264007568359 -0.1886918693780899
9.268941879272461 4.32640266418457 -0.18809163570404053
9.239156723022461 4.336000919342041 -0.18715989589691162
9.200357437133789 4.341670989990234 -0.1864437460899353
9.161349296569824 4.346531391143799 -0.18583810329437256
9.115652084350586 4.34873104095459 -0.18510037660598755
9.080440521240234 4.355088233947754 -0.1839538812637329
9.060579299926758 4.368713855743408 -0.18373292684555054
9.021218299865723 4.373510837554932 -0.18312464654445648
8.994499206542969 4.383633136749268 -0.18276546895503998
8.953121185302734 4.386608600616455 -0.1815023571252823
8.919719696044922 4.393771171569824 -0.18101336061954498
8.88595962524414 4.400079250335693 -0.1805143505334854
8.844090461730957 4.402896881103516 -0.17985595762729645
8.808667182922363 4.408095836639404 -0.17871887981891632
8.790767669677734 4.422098159790039 -0.1785399317741394
8.739992141723633 4.419851779937744 -0.17770132422447205
8.730377197265625 4.437764644622803 -0.17768995463848114
8.688992500305176 4.4395670890808105 -0.1764407753944397
8.659523010253906 4.4477386474609375 -0.17603424191474915
8.620368003845215 4.450260639190674 -0.17542624473571777
8.580611228942871 4.4524359703063965 -0.17469659447669983
8.568878173828125 4.469483375549316 -0.17416848242282867
8.521092414855957 4.467200756072998 -0.17338846623897552
8.494426727294922 4.476256847381592 -0.17303906381130219
8.467606544494629 4.484599590301514 -0.17257043719291687
8.445136070251465 4.495287895202637 -0.1718304306268692
8.391528129577637 4.48966121673584 -0.1707175374031067
8.373821258544922 4.502563953399658 -0.17054544389247894
8.340085983276367 4.507419109344482 -0.16958355903625488
8.305215835571289 4.510867118835449 -0.16895677149295807
8.272442817687988 4.515323638916016 -0.1684802770614624
8.245076179504395 4.523273468017578 -0.1676531732082367
8.22109603881836 4.532338619232178 -0.16724884510040283
8.158842086791992 4.5429253578186035 -0.16636982560157776
8.12751579284668 4.547604084014893 -0.1654602736234665
8.109445571899414 4.560267448425293 -0.1651841700077057
8.084425926208496 4.568305492401123 -0.1648678481578827
8.02703857421875 4.580583572387695 -0.16352196037769318
7.9767537117004395 4.573858737945557 -0.16269326210021973
7.923589706420898 4.587823867797852 -0.16144287586212158
7.9083685874938965 4.600950241088867 -0.1613268256187439
7.8542561531066895 4.591953277587891 -0.16042275726795197
7.837456226348877 4.603981971740723 -0.15971927344799042
7.813065052032471 4.611608028411865 -0.15941692888736725
7.782474994659424 4.615879058837891 -0.15899205207824707
7.77309513092041 4.632147312164307 -0.1585438996553421
7.732190132141113 4.629662036895752 -0.1582544893026352
7.71548318862915 4.641958713531494 -0.1573600172996521
7.670269966125488 4.636462688446045 -0.15663529932498932
7.648703098297119 4.645764350891113 -0.15639644861221313
7.634414196014404 4.6588006019592285 -0.1558552086353302
7.606446266174316 4.663424491882324 -0.15538299083709717
7.572369575500488 4.66481876373291 -0.15488822758197784
7.547112464904785 4.670891761779785 -0.15412917733192444
7.522011756896973 4.6770920753479 -0.15371546149253845
7.491301536560059 4.680098056793213 -0.15329031646251678
7.46425199508667 4.684762477874756 -0.15249742567539215
7.434020042419434 4.687954902648926 -0.1519848257303238
7.413139820098877 4.696316719055176 -0.15175634622573853
7.386259078979492 4.700913429260254 -0.1514078825712204
7.3556694984436035 4.703435897827148 -0.1504514515399933
7.347830295562744 4.719934463500977 -0.15049006044864655
7.307445526123047 4.715560436248779 -0.14986538887023926
7.281247615814209 4.720599174499512 -0.14900410175323486
7.246607780456543 4.719529151916504 -0.14849402010440826
7.243173599243164 4.739359378814697 -0.14863073825836182
7.214193820953369 4.741806983947754 -0.14771033823490143
7.1795854568481445 4.740541934967041 -0.14720475673675537
7.148736476898193 4.742015361785889 -0.1467806100845337
7.131839752197266 4.75214958190918 -0.14611069858074188
7.118387222290039 4.765174865722656 -0.14604254066944122
7.079560279846191 4.760488033294678 -0.14506115019321442
7.061264514923096 4.76949405670166 -0.14446529746055603
7.036960124969482 4.77500057220459 -0.14408014714717865
7.011351585388184 4.778902530670166 -0.1437578797340393
6.976639270782471 4.776477336883545 -0.14282968640327454
6.956138610839844 4.784298896789551 -0.14252272248268127
6.941976547241211 4.795809745788574 -0.1424359679222107
6.879059314727783 4.795266151428223 -0.1410466432571411
6.859495639801025 4.802811145782471 -0.1408497840166092
6.846142292022705 4.815288543701172 -0.14036960899829865
6.822903633117676 4.820137977600098 -0.14000365138053894
6.764135837554932 4.821452617645264 -0.13880079984664917
6.761310577392578 4.840629577636719 -0.13885323703289032
6.697153091430664 4.837488174438477 -0.13744929432868958
6.670441150665283 4.839289665222168 -0.13710659742355347
6.644594192504883 4.842236518859863 -0.136378675699234
6.630348205566406 4.8529534339904785 -0.1361999362707138
6.595376491546631 4.848523139953613 -0.13568910956382751
6.577810764312744 4.857174396514893 -0.1351335644721985
6.556199073791504 4.862272262573242 -0.1348036676645279
6.537684440612793 4.870223045349121 -0.13463617861270905
6.515271186828613 4.874582290649414 -0.13379383087158203
6.49155330657959 4.8778815269470215 -0.13351406157016754
6.460381507873535 4.876086711883545 -0.1329949051141739
6.461220741271973 4.897799968719482 -0.13281820714473724
6.431816101074219 4.896559715270996 -0.13233055174350739
6.399467468261719 4.893561840057373 -0.13187995553016663
6.386107444763184 4.904381275177002 -0.13141395151615143
6.358283519744873 4.904138565063477 -0.13096024096012115
6.329268932342529 4.903244495391846 -0.13017944991588593
6.318934440612793 4.916255950927734 -0.13017645478248596
6.303765296936035 4.9261064529418945 -0.12998898327350616
6.279013633728027 4.927785396575928 -0.12929287552833557
6.257371425628662 4.931933879852295 -0.12896831333637238
6.216104507446289 4.920858383178711 -0.127939373254776
6.2118024826049805 4.938455581665039 -0.1280611753463745
6.1940460205078125 4.945467948913574 -0.1278175711631775
6.171328544616699 4.948838710784912 -0.12717270851135254
6.143378257751465 4.94740629196167 -0.1267181932926178
6.123073101043701 4.9526543617248535 -0.1261262446641922
6.113183498382568 4.965676307678223 -0.12613403797149658
6.094309329986572 4.971487998962402 -0.1258690357208252
6.071451663970947 4.974365234375 -0.12522508203983307
6.033206939697266 4.963991165161133 -0.12455982714891434
6.014491558074951 4.9701762199401855 -0.12400501221418381
6.006475448608398 4.984564781188965 -0.1240522712469101
5.984240531921387 4.987119197845459 -0.12342007458209991
5.969852447509766 4.9967780113220215 -0.12325415760278702
5.942984104156494 4.995298385620117 -0.12252777069807053
5.916576385498047 4.994091033935547 -0.12210877239704132
5.887449741363525 4.991082191467285 -0.12172771990299225
5.873076915740967 4.999880790710449 -0.12117376923561096
5.830210208892822 5.005888938903809 -0.1203414648771286
5.806765556335449 5.006730556488037 -0.11998451501131058
5.801280975341797 5.023647308349609 -0.12009255588054657
5.774108409881592 5.021122932434082 -0.11927807331085205
5.732234477996826 5.027261734008789 -0.1184706911444664
5.707056045532227 5.026170253753662 -0.11807938665151596
5.682125091552734 5.046862602233887 -0.11753837019205093
5.646147727966309 5.035906791687012 -0.11701056361198425
5.634278297424316 5.046972751617432 -0.1165255606174469
5.610544204711914 5.046736717224121 -0.11625103652477264
5.592953681945801 5.051950931549072 -0.11572986841201782
5.57572078704834 5.0580549240112305 -0.11551046371459961
5.555780410766602 5.061024188995361 -0.11531408131122589
5.531987190246582 5.061015605926514 -0.11421424150466919
5.513215065002441 5.064898490905762 -0.1140437200665474
5.492835998535156 5.067236423492432 -0.11383995413780212
5.4699273109436035 5.067774295806885 -0.11313385516405106
5.4527082443237305 5.072889804840088 -0.11299555748701096
5.435819625854492 5.078261852264404 -0.11240948736667633
5.414209842681885 5.07977819442749 -0.11218653619289398
5.398853302001953 5.086476802825928 -0.11163365840911865
5.372246265411377 5.082611560821533 -0.11130273342132568
5.356834888458252 5.089644908905029 -0.11112312227487564
5.345921516418457 5.10042667388916 -0.11074885725975037
5.326145648956299 5.103337287902832 -0.11056482791900635
5.296025276184082 5.095599174499512 -0.10971113294363022
5.28878116607666 5.109923362731934 -0.10978084057569504
5.26823616027832 5.111762046813965 -0.10913137346506119
5.246252536773682 5.1116108894348145 -0.10889582335948944
5.228916645050049 5.116031646728516 -0.10831049829721451
5.210644721984863 5.119869709014893 -0.10815690457820892
5.192812919616699 5.12357234954834 -0.10756225883960724
5.188093185424805 5.140323162078857 -0.10768602788448334
5.155995845794678 5.130277156829834 -0.1071634516119957
5.15048885345459 5.14611291885376 -0.10690888017416
5.122564315795898 5.140125751495361 -0.10655680298805237
5.1002197265625 5.138989448547363 -0.10587185621261597
5.079794883728027 5.139815330505371 -0.10531201213598251
5.069241046905518 5.150982856750488 -0.10479606688022614
5.041700839996338 5.144308567047119 -0.10436487197875977
5.037679672241211 5.1622185707092285 -0.1045096144080162
5.002218246459961 5.147207260131836 -0.10355759412050247
4.995611190795898 5.161797523498535 -0.10364238917827606
4.977133750915527 5.164737701416016 -0.10313187539577484
4.960912704467773 5.1693315505981445 -0.10293596982955933
4.941512107849121 5.170551300048828 -0.1024005264043808
4.919297695159912 5.169371128082275 -0.10208763182163239
4.907218933105469 5.178153991699219 -0.10170531272888184
4.8845977783203125 5.176386833190918 -0.10138443112373352
4.869011402130127 5.181368827819824 -0.10093167424201965
4.855621814727783 5.188653945922852 -0.10079526156187057
4.835200309753418 5.189006805419922 -0.10024958848953247
4.821080207824707 5.195428371429443 -0.10009877383708954
4.784356117248535 5.199600696563721 -0.09935833513736725
4.763294219970703 5.198318958282471 -0.09879550337791443
4.731217384338379 5.207170009613037 -0.09815488755702972
4.712970733642578 5.20876407623291 -0.0979200080037117
4.693685054779053 5.20977783203125 -0.09740207344293594
4.682742595672607 5.219371795654297 -0.09731967747211456
4.654268264770508 5.209342002868652 -0.09660613536834717
4.651690483093262 5.228895664215088 -0.09643639624118805
4.638805866241455 5.2362542152404785 -0.09639457613229752
4.615680694580078 5.232627868652344 -0.09606608748435974
4.595953941345215 5.23211145401001 -0.09553591907024384
4.571346759796143 5.225930213928223 -0.09517092257738113
4.560344696044922 5.235881805419922 -0.09482982754707336
4.548210144042969 5.243882179260254 -0.09472379088401794
4.532196044921875 5.247378349304199 -0.09427311271429062
4.516040802001953 5.251309871673584 -0.09409026801586151
4.493368148803711 5.246931076049805 -0.09350280463695526
4.4789652824401855 5.252256870269775 -0.09335184097290039
4.461813449859619 5.254716873168945 -0.09288475662469864
4.451894283294678 5.265141487121582 -0.09282644838094711
4.425941467285156 5.257184028625488 -0.09217941761016846
4.414278984069824 5.265471458435059 -0.09174339473247528
4.390259265899658 5.259069919586182 -0.09147237986326218
4.3824896812438965 5.272495269775391 -0.09146559238433838
4.363369464874268 5.2717084884643555 -0.09095519036054611
4.355719566345215 5.284878730773926 -0.09060660004615784
4.335180759429932 5.282788276672363 -0.09041325747966766
4.318408966064453 5.284676551818848 -0.08987537026405334
4.295769214630127 5.279415607452393 -0.08963347971439362
4.289011001586914 5.294047832489014 -0.08931085467338562
4.268794059753418 5.291506290435791 -0.08870373666286469
4.252571105957031 5.294501781463623 -0.08842106908559799
4.240535736083984 5.302014350891113 -0.08839787542819977
4.217794895172119 5.296200275421143 -0.08774115145206451
4.20085334777832 5.297989368438721 -0.08762301504611969
4.189872741699219 5.3067240715026855 -0.08721107989549637
4.176235198974609 5.312747001647949 -0.08708483725786209
4.1703572273254395 5.327989101409912 -0.08685702830553055
4.142324924468994 5.314862251281738 -0.08642496168613434
4.117346286773682 5.306152820587158 -0.08580871671438217
4.110309600830078 5.319841384887695 -0.08581384271383286
4.095533847808838 5.323514461517334 -0.08540328592061996
4.078113555908203 5.324368000030518 -0.08520156145095825
4.0597944259643555 5.323297500610352 -0.08471627533435822
4.030276775360107 5.3310065269470215 -0.08416138589382172
4.0168561935424805 5.336236953735352 -0.08403411507606506
4.008103847503662 5.348350524902344 -0.08368172496557236
3.9914326667785645 5.3491997718811035 -0.08323418349027634
3.963900566101074 5.359244346618652 -0.08272287249565125
3.9358177185058594 5.344438076019287 -0.08229417353868484
3.9176127910614014 5.366908073425293 -0.08197810500860214
3.8954920768737793 5.359926223754883 -0.08109059184789658
3.863577365875244 5.363363742828369 -0.08049257099628448
3.855071544647217 5.3750410079956055 -0.08054830133914948
3.835390567779541 5.371792793273926 -0.07997310906648636
3.823439121246338 5.378622055053711 -0.07995650917291641
3.8047103881835938 5.3759942054748535 -0.0793977752327919
3.7857747077941895 5.373414993286133 -0.07924125343561172
3.7760889530181885 5.383359909057617 -0.07886859029531479
3.763718605041504 5.390180587768555 -0.07845008373260498
3.7279226779937744 5.362588882446289 -0.07793686538934708
3.7209997177124023 5.376400947570801 -0.07762563228607178
3.7132797241210938 5.389815330505371 -0.07770364731550217
3.696135997772217 5.388834476470947 -0.0771823599934578
3.679067611694336 5.387885093688965 -0.07705764472484589
3.674266815185547 5.405614376068115 -0.07679784297943115
3.6546976566314697 5.400897979736328 -0.07655086368322372
3.639620065689087 5.402872085571289 -0.07614806294441223
3.6217191219329834 5.401028633117676 -0.07561648637056351
3.6082921028137207 5.405220985412598 -0.07557064294815063
3.5986897945404053 5.41585636138916 -0.07521411031484604
3.583570957183838 5.417458534240723 -0.07505722343921661
3.559993028640747 5.40629768371582 -0.07447940856218338
3.55800724029541 5.4283576011657715 -0.07460236549377441
3.5454463958740234 5.433754920959473 -0.07393232733011246
3.5278372764587402 5.4314985275268555 -0.0734071284532547
3.4987359046936035 5.411831855773926 -0.07296773791313171
3.4942471981048584 5.429568290710449 -0.07271616160869598
3.471872091293335 5.419617652893066 -0.07248429208993912
3.4718430042266846 5.445008277893066 -0.07232916355133057
3.450038194656372 5.435661315917969 -0.07211010903120041
3.4435465335845947 5.451137065887451 -0.07182448357343674
3.419257640838623 5.43764591217041 -0.0711592584848404
3.3937644958496094 5.447884559631348 -0.07071533054113388
3.373415470123291 5.440342426300049 -0.07052881270647049
3.3551206588745117 5.4367356300354 -0.06999813765287399
3.353861093521118 5.460014820098877 -0.0701325386762619
3.3397879600524902 5.462489128112793 -0.06975892931222916
3.3221800327301025 5.459863662719727 -0.06924325227737427
3.304527759552002 5.4563188552856445 -0.06911195814609528
3.3002731800079346 5.474903106689453 -0.06887004524469376
3.2874486446380615 5.4800705909729 -0.06877347081899643
3.2691256999969482 5.475251197814941 -0.0683128833770752
3.2397027015686035 5.478257656097412 -0.06779104471206665
3.228343963623047 5.484997749328613 -0.06740184128284454
3.212186336517334 5.484313011169434 -0.06723672151565552
3.1909947395324707 5.474148273468018 -0.06671614944934845
3.179133892059326 5.4799065589904785 -0.06617416441440582
3.1653542518615723 5.483107089996338 -0.06574404239654541
15.933456420898438 1.8166632652282715 -0.18784354627132416
15.905494689941406 1.846919059753418 -0.18755868077278137
15.917312622070312 1.8827612400054932 -0.1869455873966217
15.908447265625 1.9151959419250488 -0.18671034276485443
15.876782417297363 1.9449975490570068 -0.186381995677948
15.874866485595703 1.9790128469467163 -0.18641075491905212
15.850263595581055 2.0093579292297363 -0.18616923689842224
15.824504852294922 2.040450096130371 -0.18591870367527008
15.829573631286621 2.0745081901550293 -0.1860264241695404
15.804089546203613 2.1045374870300293 -0.18577878177165985
15.77861499786377 2.1354594230651855 -0.18553327023983002
15.763389587402344 2.166719675064087 -0.18540552258491516
15.741018295288086 2.1971163749694824 -0.18519562482833862
15.715513229370117 2.2276132106781006 -0.18495014309883118
15.734596252441406 2.263636589050293 -0.18523071706295013
15.694762229919434 2.29213809967041 -0.1846400946378708
15.669492721557617 2.3216683864593506 -0.18439806997776031
15.652998924255371 2.3866357803344727 -0.1843205988407135
15.656033515930176 2.420353651046753 -0.18441562354564667
15.602301597595215 2.479369640350342 -0.1831137239933014
15.5733642578125 2.50791597366333 -0.18283750116825104
