VERSION .7
FIELDS x y z
SIZE 4 4 4
TYPE F F F
COUNT 1 1 1
WIDTH 855
HEIGHT 1
VIEWPOINT 0 0 0 1 0 0 0
POINTS 855
DATA ascii
9.824161529541016 7.157050132751465 0.14735716581344604
9.777368545532227 7.154526710510254 0.14687348902225494
9.68759822845459 7.15121603012085 0.14559221267700195
9.666607856750488 7.167220592498779 0.14551381766796112
9.621099472045898 7.164467811584473 0.14504128694534302
9.572039604187012 7.159772872924805 0.14417536556720734
9.521535873413086 7.152858734130859 0.14327579736709595
9.493293762207031 7.162960052490234 0.14308080077171326
9.449899673461914 7.161498546600342 0.14228269457817078
9.409563064575195 7.161719799041748 0.1419016420841217
9.362086296081543 7.156764984130859 0.1414087861776352
9.333910942077637 7.1664204597473145 0.1412157416343689
9.28056526184082 7.156123161315918 0.14062654972076416
9.249096870422363 7.162961483001709 0.14001038670539856
9.168048858642578 7.162163734436035 0.13889262080192566
9.04854965209961 7.16086483001709 0.13776904344558716
8.934341430664062 7.162283897399902 0.13600337505340576
8.405279159545898 7.184410572052002 0.13000403344631195
8.301444053649902 7.186463356018066 0.12842479348182678
8.188562393188477 7.179294586181641 0.12703652679920197
8.092119216918945 7.185214042663574 0.12589064240455627
8.035026550292969 7.19526481628418 0.12548384070396423
7.9944844245910645 7.188910484313965 0.12475340068340302
7.970367431640625 7.197638511657715 0.12461037933826447
7.929675102233887 7.191260814666748 0.12421927601099014
7.898242473602295 7.192681312561035 0.12362909317016602
7.864152908325195 7.191991806030273 0.12333621084690094
7.828968048095703 7.190142631530762 0.12268708646297455
7.800312519073486 7.194167613983154 0.12248951941728592
7.767086029052734 7.193845748901367 0.12155097723007202
7.737750053405762 7.196563720703125 0.12132561206817627
7.7078633308410645 7.199100494384766 0.12109285593032837
7.661620140075684 7.1861724853515625 0.12060302495956421
7.630960464477539 7.187240123748779 0.12003536522388458
7.593597888946533 7.1827239990234375 0.11968860775232315
7.570069789886475 7.190293312072754 0.11956074833869934
7.5413899421691895 7.192878723144531 0.1190146803855896
7.518687725067139 7.201961517333984 0.118900366127491
7.468240737915039 7.183418273925781 0.11835114657878876
7.42183780670166 7.1992034912109375 0.11776424944400787
7.389825820922852 7.197976112365723 0.11749538779258728
7.324594497680664 7.194799423217773 0.11663749814033508
7.287927150726318 7.188559532165527 0.11597532033920288
7.2346391677856445 7.196361541748047 0.11561504006385803
7.211612701416016 7.203289985656738 0.11546991765499115
7.138794422149658 7.1908698081970215 0.1144862174987793
6.886300086975098 7.204163551330566 0.1116795763373375
6.798125267028809 7.202023506164551 0.11038669943809509
6.711592674255371 7.20050048828125 0.1097184270620346
6.635241508483887 7.208922386169434 0.10889048874378204
6.592148303985596 7.191998481750488 0.1084260568022728
6.582110404968262 7.211916923522949 0.10822178423404694
6.543440818786621 7.199496746063232 0.10784998536109924
6.5246734619140625 7.2088470458984375 0.10747399926185608
6.486354827880859 7.197354316711426 0.10710540413856506
6.467684745788574 7.206652641296387 0.10703206062316895
6.437254905700684 7.202759742736816 0.10677830874919891
6.4120988845825195 7.205533981323242 0.10662283003330231
6.377316474914551 7.196464538574219 0.10599072277545929
6.3614349365234375 7.209511756896973 0.10570021718740463
6.329460620880127 7.203351020812988 0.10512305796146393
6.308074951171875 7.209128379821777 0.10501338541507721
6.275832176208496 7.203273773193359 0.10472816973924637
6.25030517578125 7.204102993011475 0.10455438494682312
6.227621078491211 7.208563804626465 0.10442908108234406
6.207241058349609 7.215635299682617 0.10405463725328445
6.172361850738525 7.205278396606445 0.10341784358024597
6.156547546386719 7.21796989440918 0.10341573506593704
6.125412940979004 7.211725234985352 0.1031537726521492
6.102499961853027 7.215040683746338 0.10300818085670471
6.07158088684082 7.209664344787598 0.1024586409330368
6.047263145446777 7.211106300354004 0.1023048609495163
6.020849227905273 7.2099456787109375 0.10211648046970367
6.002010345458984 7.2186737060546875 0.10205405205488205
5.967963218688965 7.208100318908691 0.10143916308879852
5.945915222167969 7.212331295013428 0.10104657709598541
5.913463592529297 7.203823089599609 0.10074429959058762
5.892703056335449 7.208985328674316 0.10064718127250671
5.811858177185059 7.202010154724121 0.10003545880317688
5.736979961395264 7.201837062835693 0.0986839085817337
5.667281150817871 7.206846237182617 0.09826935082674026
5.626009941101074 7.216707229614258 0.09779402613639832
5.560083866119385 7.2253618240356445 0.09714935719966888
5.478200912475586 7.21231746673584 0.0962430015206337
5.4120330810546875 7.219438552856445 0.09560583531856537
5.388565540313721 7.219301223754883 0.09545785188674927
5.3653106689453125 7.2198076248168945 0.09502226114273071
5.339973449707031 7.217411994934082 0.09485569596290588
5.325637340545654 7.229364395141602 0.09486664086580276
5.292018890380859 7.215493202209473 0.09452809393405914
5.2755231857299805 7.224856376647949 0.09450210630893707
5.247428894042969 7.217784404754639 0.09400521963834763
5.225351333618164 7.219326019287109 0.09361182153224945
5.200307846069336 7.2166748046875 0.09342683851718903
5.182080268859863 7.223398208618164 0.09339110553264618
5.162107467651367 7.227645397186279 0.09303118288516998
5.13884973526001 7.226741790771484 0.09286905080080032
5.104426860809326 7.210431098937988 0.09252700209617615
5.098714828491211 7.234621047973633 0.09243612736463547
5.070712089538574 7.2271552085876465 0.09220410883426666
5.049698829650879 7.229065895080566 0.09182111918926239
5.017875671386719 7.215831279754639 0.09151963144540787
4.999463081359863 7.221745491027832 0.09146721661090851
4.983441352844238 7.230617523193359 0.09144148230552673
4.960695266723633 7.230153560638428 0.0912940502166748
4.928860187530518 7.216277122497559 0.0907246321439743
4.919963359832764 7.235922813415527 0.09084242582321167
4.88709831237793 7.219764709472656 0.09023872017860413
4.872622489929199 7.231130599975586 0.09025947749614716
4.839756011962891 7.215096950531006 0.0899401307106018
4.827822685241699 7.230166912078857 0.0897270143032074
4.779891014099121 7.223601341247559 0.08940260112285614
4.760307312011719 7.227024078369141 0.08932049572467804
4.713115692138672 7.220921516418457 0.08873039484024048
4.689579010009766 7.218018531799316 0.08831793069839478
4.652815818786621 7.22788143157959 0.08792877197265625
4.6284637451171875 7.2229413986206055 0.08774715662002563
4.5835371017456055 7.219582557678223 0.08747559040784836
4.541861534118652 7.2209672927856445 0.08699223399162292
4.522125244140625 7.222803115844727 0.08665009588003159
4.485110282897949 7.231213569641113 0.08652029931545258
4.454634666442871 7.215465545654297 0.08622422814369202
4.422698497772217 7.231692314147949 0.08592565357685089
4.3995361328125 7.227473258972168 0.08577800542116165
4.382318496704102 7.233936309814453 0.08574226498603821
4.360806465148926 7.232250213623047 0.08561407029628754
4.335362434387207 7.223910331726074 0.08515067398548126
4.319218635559082 7.231980800628662 0.08488880842924118
4.292666435241699 7.221522331237793 0.08466003835201263
4.279956817626953 7.234786033630371 0.08469802141189575
4.246753692626953 7.2132744789123535 0.0843423455953598
4.236698150634766 7.230471611022949 0.08444812893867493
4.218016624450684 7.233470916748047 0.08412311971187592
4.194653511047363 7.228337287902832 0.08394807577133179
4.166597366333008 7.2149457931518555 0.08369380235671997
4.159836769104004 7.238389492034912 0.0836186408996582
4.132506370544434 7.225499629974365 0.08336982131004333
4.120669364929199 7.240139484405518 0.08343449980020523
4.0899658203125 7.22152042388916 0.08311542868614197
4.077364444732666 7.2342376708984375 0.08266117423772812
4.055864334106445 7.232168197631836 0.08254162967205048
4.036924362182617 7.233538627624512 0.0824601873755455
4.0131402015686035 7.226119041442871 0.08227695524692535
3.998230457305908 7.2356462478637695 0.08228535950183868
3.9805660247802734 7.2391252517700195 0.08222746849060059
3.9614932537078857 7.240511894226074 0.08190150558948517
3.9378154277801514 7.233363151550293 0.08173723518848419
3.9161691665649414 7.22928524017334 0.08159889280796051
3.8889288902282715 7.215762138366699 0.0813385397195816
12.593460083007812 6.875849723815918 0.13448770344257355
12.40306282043457 6.8734636306762695 0.13203980028629303
11.959962844848633 6.892792701721191 0.12687301635742188
11.798482894897461 6.898897647857666 0.12561854720115662
11.622624397277832 6.894481182098389 0.12338857352733612
9.7021484375 6.9469685554504395 0.10207386314868927
9.620031356811523 6.94964075088501 0.10113340616226196
9.575075149536133 6.947448253631592 0.10081909596920013
9.494288444519043 6.9500532150268555 0.0995415598154068
9.457674980163574 6.953442573547363 0.09933733195066452
9.374672889709473 6.953428745269775 0.09805387258529663
9.327203750610352 6.948269844055176 0.09769291430711746
9.242351531982422 6.945775032043457 0.09748043119907379
9.138404846191406 6.957981109619141 0.09614953398704529
9.013028144836426 6.952462196350098 0.09495049715042114
8.89576530456543 6.9516448974609375 0.0934874415397644
8.788351058959961 6.957134246826172 0.09213734418153763
8.696407318115234 6.973725318908691 0.09126676619052887
7.936278343200684 6.989866256713867 0.08270201086997986
7.833700656890869 6.987459182739258 0.08144877851009369
7.747820854187012 6.999242782592773 0.08037136495113373
7.65305233001709 7.001506805419922 0.07920952886343002
7.590049743652344 7.002382278442383 0.07916631549596786
7.567781448364258 7.011397838592529 0.07909737527370453
7.496838092803955 7.004141807556152 0.07803305983543396
7.46096658706665 7.000112533569336 0.0778089165687561
7.426705360412598 6.997002601623535 0.07729172706604004
7.394230842590332 6.995854377746582 0.07711172848939896
7.372681617736816 7.00494909286499 0.07673925906419754
7.341686248779297 7.004545211791992 0.07624611258506775
7.311108112335205 7.005267143249512 0.07608519494533539
7.278783798217773 7.003325462341309 0.07589846849441528
7.245734214782715 7.000541687011719 0.07510115206241608
7.224167823791504 7.009603500366211 0.07501822710037231
7.184256076812744 6.999880790710449 0.07444830983877182
7.161022186279297 7.006696701049805 0.07435142993927002
7.097712516784668 7.003076076507568 0.07339982688426971
7.069478988647461 7.004655838012695 0.07324211299419403
7.013426780700684 7.00789737701416 0.07237054407596588
6.97535514831543 6.998844146728516 0.07213343679904938
6.919209957122803 7.00123405456543 0.07124939560890198
6.891915321350098 7.002622127532959 0.07142099738121033
6.838747024536133 7.00738525390625 0.07087694108486176
6.7623796463012695 7.016849040985107 0.06994974613189697
6.68025541305542 7.019420623779297 0.06895677745342255
6.202837944030762 7.031499862670898 0.06357444077730179
6.166558265686035 7.019682884216309 0.06334981322288513
6.12179708480835 7.028205394744873 0.06262879073619843
6.098317623138428 7.030654430389404 0.06253572553396225
6.044771194458008 7.028504371643066 0.062002018094062805
6.016582489013672 7.025164604187012 0.06128953769803047
5.962606430053711 7.021780967712402 0.06103963777422905
5.9453535079956055 7.030983924865723 0.06073582172393799
5.9160990715026855 7.026777744293213 0.0603153333067894
5.898767471313477 7.035775184631348 0.06029193103313446
5.874917984008789 7.036938667297363 0.05991259962320328
5.846164703369141 7.03298282623291 0.05950876697897911
5.823986530303955 7.035952568054199 0.05941994488239288
5.7946882247924805 7.030207633972168 0.05898392200469971
5.7759294509887695 7.038027763366699 0.05893980339169502
5.7520294189453125 7.038640022277832 0.05828139930963516
5.723945617675781 7.034014701843262 0.058154620230197906
5.710597038269043 7.048313140869141 0.058171842247247696
5.672952175140381 7.031633377075195 0.057378120720386505
5.650713920593262 7.034328937530518 0.05757608264684677
5.625619888305664 7.033372402191162 0.05748407542705536
5.602482795715332 7.034320831298828 0.056839436292648315
5.574700832366943 7.0302042961120605 0.05670982599258423
5.553753852844238 7.033720970153809 0.05637449771165848
5.530102729797363 7.033729553222656 0.05628819763660431
5.510617733001709 7.039845943450928 0.05596664547920227
5.479939937591553 7.030665397644043 0.055530522018671036
5.437222957611084 7.03678035736084 0.05539831519126892
5.424178123474121 7.050088882446289 0.054873913526535034
5.369535446166992 7.040217399597168 0.054604195058345795
5.346212387084961 7.039885997772217 0.05397970229387283
5.298104286193848 7.037880897521973 0.05353040248155594
5.279963493347168 7.0441575050354 0.05348915234208107
5.2372236251831055 7.048797607421875 0.05282171070575714
5.208355903625488 7.040864944458008 0.052678003907203674
5.166821002960205 7.046144485473633 0.052022919058799744
5.144344806671143 7.046558856964111 0.05194634944200516
5.103326797485352 7.052099227905273 0.051567740738391876
5.080051898956299 7.051149368286133 0.05121840164065361
4.893526554107666 7.038384437561035 0.04920470714569092
4.839678764343262 7.055154800415039 0.048598166555166245
4.798372268676758 7.0584821701049805 0.047948431223630905
4.767090797424316 7.043862342834473 0.047782961279153824
4.722426891326904 7.041573524475098 0.04737253859639168
4.711002826690674 7.056148529052734 0.04715276136994362
4.688419342041016 7.054446697235107 0.047069478780031204
4.665138244628906 7.051581382751465 0.04672655835747719
4.640213966369629 7.046106338500977 0.04637151211500168
4.629456520080566 7.0616302490234375 0.04640659689903259
4.600759506225586 7.050188064575195 0.04600518196821213
4.5861921310424805 7.060306549072266 0.045761361718177795
4.560368537902832 7.052545070648193 0.04563627392053604
4.542095184326172 7.056830406188965 0.04561324045062065
4.522461891174316 7.0589447021484375 0.045297637581825256
4.5037102699279785 7.0623698234558105 0.04500036686658859
4.477931022644043 7.054670810699463 0.044904958456754684
4.459428787231445 7.057849884033203 0.044607020914554596
4.431109428405762 7.045840263366699 0.04422048479318619
4.417745113372803 7.057523727416992 0.043976351618766785
4.388660430908203 7.043517112731934 0.04381556063890457
4.373671531677246 7.052504539489746 0.04383615404367447
4.350593566894531 7.048386573791504 0.04324217885732651
4.336679458618164 7.0585761070251465 0.043259166181087494
4.310833930969238 7.049746036529541 0.04313928633928299
4.291090965270996 7.050775527954102 0.042584825307130814
4.268979072570801 7.047816276550293 0.04252085089683533
4.252954483032227 7.054354667663574 0.042252667248249054
4.231235027313232 7.051870346069336 0.04217994958162308
4.215494155883789 7.059286117553711 0.04191751405596733
4.18986701965332 7.049563884735107 0.04156045615673065
4.1753621101379395 7.059452056884766 0.04156866669654846
4.14576530456543 7.042725563049316 0.04116325080394745
4.126163482666016 7.043309211730957 0.040860019624233246
4.111568450927734 7.052402496337891 0.04086209833621979
4.0933837890625 7.054818153381348 0.04058331251144409
4.0713887214660645 7.051074028015137 0.04051792621612549
12.64873218536377 7.359846591949463 0.2541869580745697
12.350756645202637 7.361092567443848 0.2488296627998352
12.17408275604248 7.3599090576171875 0.2457999438047409
12.015514373779297 7.367585182189941 0.2426638901233673
9.635622024536133 7.368199825286865 0.20038193464279175
9.501031875610352 7.360395908355713 0.19781088829040527
9.466072082519531 7.364795684814453 0.19702288508415222
9.430231094360352 7.369304656982422 0.19661086797714233
9.382360458374023 7.363306999206543 0.19592735171318054
9.339841842651367 7.361309051513672 0.19463016092777252
9.308614730834961 7.368990421295166 0.19431844353675842
9.256393432617188 7.35894775390625 0.19390267133712769
9.175861358642578 7.358205318450928 0.19252920150756836
9.128548622131348 7.351442337036133 0.19186252355575562
9.018573760986328 7.356819152832031 0.18979212641716003
8.909116744995117 7.361289978027344 0.18775491416454315
8.788519859313965 7.355101585388184 0.18547406792640686
8.684954643249512 7.36176061630249 0.18391653895378113
7.815159797668457 7.362529277801514 0.16882948577404022
7.719382286071777 7.364896774291992 0.16710111498832703
7.631242752075195 7.373003959655762 0.16554570198059082
7.5320587158203125 7.369288921356201 0.16440355777740479
7.470270156860352 7.370214462280273 0.16341577470302582
7.439645767211914 7.3709821701049805 0.16276127099990845
7.369545936584473 7.362836837768555 0.16188937425613403
7.343588829040527 7.367868423461914 0.1610148549079895
7.309427738189697 7.364543914794922 0.16062107682228088
7.28514289855957 7.371057510375977 0.16042326390743256
7.248603820800781 7.364592552185059 0.1596393883228302
7.221810340881348 7.368340015411377 0.1590799242258072
7.191362380981445 7.36824893951416 0.15875259041786194
7.166190147399902 7.3730058670043945 0.15821799635887146
7.127056121826172 7.363701343536377 0.15738575160503387
7.096279621124268 7.362866401672363 0.15704357624053955
7.070014953613281 7.366147994995117 0.1564953476190567
7.047571659088135 7.373779296875 0.15634021162986755
7.008184432983398 7.363550186157227 0.1554819643497467
6.989245414733887 7.374683856964111 0.1551060825586319
6.897548198699951 7.370181560516357 0.15348021686077118
6.800127029418945 7.358263969421387 0.1523359715938568
6.719359397888184 7.3632001876831055 0.1506500542163849
6.640582084655762 7.369389533996582 0.14931078255176544
6.554020881652832 7.365920066833496 0.1477855145931244
6.151859283447266 7.368656158447266 0.1415446400642395
6.074918746948242 7.370187282562256 0.1399652659893036
5.996039390563965 7.368385314941406 0.13863421976566315
5.968343257904053 7.365518569946289 0.1383351981639862
5.915645599365234 7.363669395446777 0.13725638389587402
5.896678447723389 7.371336936950684 0.13716307282447815
5.837850570678711 7.361137390136719 0.13624024391174316
5.815665245056152 7.36496639251709 0.13578960299491882
5.7974395751953125 7.373754978179932 0.13544338941574097
5.764888763427734 7.363752841949463 0.13503611087799072
5.742319107055664 7.366830825805664 0.1348722279071808
5.718194484710693 7.367824554443359 0.13410097360610962
5.696406841278076 7.371283054351807 0.1339527666568756
5.660531044006348 7.357288360595703 0.133466899394989
5.650172710418701 7.375443935394287 0.1330258995294571
5.620338439941406 7.36812162399292 0.1326790452003479
5.599638938903809 7.373598098754883 0.1322767734527588
5.563926696777344 7.358225345611572 0.1317896544933319
5.541684150695801 7.3605122566223145 0.13163232803344727
5.516561508178711 7.359809875488281 0.13111673295497894
5.501226425170898 7.3711748123168945 0.13112789392471313
5.467496871948242 7.357785701751709 0.1304064691066742
5.45227575302124 7.3701372146606445 0.13013693690299988
5.429293632507324 7.371014595031738 0.1299518346786499
5.4043169021606445 7.370025157928467 0.1291811764240265
5.371416091918945 7.357123374938965 0.12874096632003784
5.357659339904785 7.370349884033203 0.12878599762916565
5.332601070404053 7.368924140930176 0.12828248739242554
5.304295539855957 7.3619279861450195 0.1276826113462448
5.280340194702148 7.360839366912842 0.12748101353645325
5.235934257507324 7.364221572875977 0.12660668790340424
5.214593887329102 7.36652946472168 0.1261921525001526
5.170621395111084 7.370033264160156 0.1258755922317505
5.140279769897461 7.359220027923584 0.12495321780443192
5.109032154083252 7.380500793457031 0.12494777143001556
5.079061031341553 7.370317459106445 0.12403777986764908
5.035066604614258 7.372256278991699 0.1234479546546936
5.007530689239502 7.365190505981445 0.12342946976423264
4.957645416259766 7.3582763671875 0.1224190890789032
4.897041320800781 7.367860794067383 0.12152586877346039
4.825790882110596 7.360621452331543 0.12036104500293732
4.770110130310059 7.376907825469971 0.119590625166893
4.714214324951172 7.357748031616211 0.1186961829662323
4.6989054679870605 7.367964744567871 0.11816472560167313
4.648911476135254 7.357241630554199 0.11769042909145355
4.63197135925293 7.3647308349609375 0.11738298833370209
4.58836555480957 7.36353063583374 0.11652879416942596
4.563139915466309 7.357521057128906 0.11628378927707672
4.528302192687988 7.369962215423584 0.11564391851425171
4.505640983581543 7.367819786071777 0.11546154320240021
4.478410720825195 7.357553482055664 0.1151537150144577
4.461839199066162 7.365201950073242 0.11486604809761047
4.439953804016113 7.364023208618164 0.11470110714435577
4.421935081481934 7.369184494018555 0.11437680572271347
4.393025875091553 7.35556173324585 0.11374925822019577
4.379988670349121 7.3689374923706055 0.11356443166732788
4.353693962097168 7.3599395751953125 0.11327573657035828
4.333826065063477 7.361684322357178 0.11288782954216003
4.310502052307129 7.357458114624023 0.11243363469839096
4.289018630981445 7.355743885040283 0.11227304488420486
4.26579475402832 7.35144567489624 0.112066850066185
4.2479753494262695 7.356377601623535 0.1114802360534668
4.227844715118408 7.356727600097656 0.11135715246200562
4.210161209106445 7.3617963790893555 0.11103865504264832
4.18597936630249 7.355410575866699 0.11056183278560638
4.16082763671875 7.346637725830078 0.11029277741909027
4.146431922912598 7.357306480407715 0.1100652813911438
4.126154899597168 7.357504844665527 0.10993800312280655
4.100409507751465 7.347294807434082 0.10940158367156982
4.091696739196777 7.368100643157959 0.10933038592338562
4.0631208419799805 7.353079319000244 0.10897746682167053
4.047027587890625 7.359994411468506 0.108440101146698
4.028066635131836 7.362720489501953 0.10834971815347672
4.0093488693237305 7.364762306213379 0.1082635149359703
3.98232364654541 7.3519439697265625 0.10769651085138321
3.954688549041748 7.337777614593506 0.10737413167953491
29.81887435913086 0.010919999331235886 0.5451914072036743
29.795581817626953 0.13639432191848755 0.5447783470153809
29.747817993164062 0.26055747270584106 0.543933629989624
29.732711791992188 0.3230365514755249 0.5436629056930542
29.727294921875 0.38558700680732727 0.5435833930969238
29.692235946655273 0.44766467809677124 0.5447617769241333
29.690156936645508 0.509262204170227 0.5447397232055664
29.703285217285156 0.5720579028129578 0.5441023707389832
29.744304656982422 0.6355035901069641 0.5448638200759888
29.65428924560547 1.006721019744873 0.5425448417663574
29.592472076416016 1.0670173168182373 0.5414518117904663
29.560447692871094 1.128188967704773 0.5409004092216492
29.54290771484375 1.1889210939407349 0.540625810623169
29.528118133544922 1.2515124082565308 0.5404008626937866
29.517364501953125 1.3124265670776367 0.5393668413162231
29.50069236755371 1.3730316162109375 0.5391107797622681
29.491363525390625 1.4357407093048096 0.538993239402771
29.47418975830078 1.496220588684082 0.537830114364624
29.44845199584961 1.6192808151245117 0.5374876856803894
29.44085693359375 1.6801505088806152 0.5374162197113037
29.389087677001953 1.7401902675628662 0.5365360975265503
29.408405303955078 1.8025838136672974 0.5369614362716675
29.390872955322266 1.8627381324768066 0.5367042422294617
29.397375106811523 1.9262104034423828 0.5369054079055786
29.356891632080078 1.9847490787506104 0.5362426042556763
29.35684585571289 2.1089816093444824 0.5363900661468506
29.343093872070312 2.1692097187042236 0.5362306237220764
29.312763214111328 2.2911298274993896 0.5349478125572205
29.26565933227539 2.4726479053497314 0.5343637466430664
29.240514755249023 2.5945916175842285 0.53321373462677
29.232250213623047 2.6550097465515137 0.5331662893295288
29.224124908447266 2.717228651046753 0.5331363081932068
29.218416213989258 2.7778677940368652 0.5322356224060059
29.203529357910156 2.837615728378296 0.5320620536804199
29.183292388916016 2.8985931873321533 0.5318084955215454
29.174785614013672 2.9589014053344727 0.5308802127838135
29.158971786499023 3.0193519592285156 0.5307152271270752
29.119731903076172 3.0772688388824463 0.5301051735877991
29.120342254638672 3.1384520530700684 0.5302299857139587
29.041851043701172 3.2537779808044434 0.5281492471694946
28.96123695373535 3.3683042526245117 0.5269328355789185
28.92193603515625 3.4245786666870117 0.526347279548645
28.88666534423828 3.481203317642212 0.5258344411849976
28.841224670410156 3.5382494926452637 0.5251471400260925
28.724376678466797 3.707355260848999 0.5225788354873657
28.70294761657715 3.765162467956543 0.5214394927024841
28.67279052734375 3.8235297203063965 0.5210438966751099
28.638004302978516 3.879394292831421 0.5205472111701965
28.605789184570312 3.9363980293273926 0.5201181173324585
28.57532501220703 3.993525505065918 0.5188461542129517
28.55449104309082 4.051044940948486 0.5186262130737305
28.511932373046875 4.107159614562988 0.518014669418335
28.47861099243164 4.162703514099121 0.516675591468811
28.4598388671875 4.220298767089844 0.5165016651153564
28.42940902709961 4.277873516082764 0.5161117315292358
28.401527404785156 4.333970069885254 0.5149037837982178
28.362850189208984 4.389213562011719 0.5143793821334839
28.34454917907715 4.447504997253418 0.5142083168029785
28.322582244873047 4.504300594329834 0.5130981802940369
28.275123596191406 4.557830333709717 0.5124236345291138
28.250150680541992 4.614846229553223 0.512148916721344
28.236753463745117 4.67283821105957 0.5120849609375
28.195077896118164 4.72784423828125 0.5097908973693848
28.168455123901367 4.783499717712402 0.5094925165176392
28.139101028442383 4.838613986968994 0.5091426372528076
28.099586486816406 4.893644332885742 0.5086188912391663
28.05057144165039 4.945106029510498 0.5070332288742065
27.98488998413086 5.055136680603027 0.5053826570510864
27.947063446044922 5.10821533203125 0.5048938989639282
27.906940460205078 5.16251277923584 0.5043644309043884
27.882465362548828 5.2178497314453125 0.5032444000244141
27.815616607666016 5.326682090759277 0.5015974044799805
27.789295196533203 5.381448268890381 0.5013211965560913
27.732078552246094 5.491639137268066 0.5007142424583435
27.689008712768555 5.542848587036133 0.499272882938385
27.669105529785156 5.600366592407227 0.4991260766983032
27.62641143798828 5.651429653167725 0.49773111939430237
27.592655181884766 5.705100059509277 0.4973461627960205
27.56064224243164 5.759006500244141 0.4969850182533264
27.535484313964844 5.813412666320801 0.49587762355804443
27.496774673461914 5.865764617919922 0.49540644884109497
27.467775344848633 5.920060157775879 0.4942701458930969
27.42784309387207 5.971042633056641 0.4937813878059387
27.387222290039062 6.023506164550781 0.49161458015441895
27.378877639770508 6.081263065338135 0.49168092012405396
27.333175659179688 6.130659103393555 0.4910954535007477
27.308330535888672 6.18638801574707 0.49089014530181885
27.262332916259766 6.235474586486816 0.48946717381477356
27.24808120727539 6.292640686035156 0.48857706785202026
27.202411651611328 6.342439651489258 0.4880037009716034
27.183944702148438 6.397641181945801 0.4879137873649597
27.15267562866211 6.450675010681152 0.48760372400283813
27.127174377441406 6.5049729347229 0.48655998706817627
27.054786682128906 6.547910213470459 0.4846231937408447
27.038862228393555 6.604338645935059 0.4845998287200928
27.00719451904297 6.656022548675537 0.484281063079834
27.005950927734375 6.716088771820068 0.4845268726348877
26.970081329345703 6.767483711242676 0.4824478030204773
26.889450073242188 6.806595802307129 0.4812406301498413
26.767120361328125 6.836507797241211 0.4792630672454834
26.682750701904297 6.873974800109863 0.47794094681739807
26.563217163085938 6.901994228363037 0.4751738905906677
26.41970443725586 6.92498779296875 0.4719840884208679
26.255420684814453 6.940187454223633 0.46928131580352783
26.087642669677734 6.954648971557617 0.4665246903896332
25.912067413330078 6.966309547424316 0.46364492177963257
25.718090057373047 6.971418857574463 0.4587991237640381
25.5247802734375 6.976755142211914 0.45401984453201294
25.34914779663086 6.986142158508301 0.45036157965660095
25.16804313659668 6.992458343505859 0.44741058349609375
24.980697631835938 6.997925758361816 0.443548321723938
24.810882568359375 7.005914688110352 0.4399915039539337
24.45792007446289 7.017597198486328 0.43426018953323364
24.28079605102539 7.021343231201172 0.4306132197380066
23.937705993652344 7.0315070152282715 0.42429953813552856
23.573843002319336 7.0326056480407715 0.4183751940727234
23.425527572631836 7.0413312911987305 0.41525381803512573
23.098735809326172 7.049305438995361 0.4092333912849426
22.934940338134766 7.05137825012207 0.406596302986145
22.782947540283203 7.057953357696533 0.4034520387649536
22.62545394897461 7.060655117034912 0.4001842737197876
22.470848083496094 7.063613414764404 0.3976968824863434
22.33075714111328 7.072029113769531 0.3954809010028839
22.2014102935791 7.081791877746582 0.3927403390407562
22.05308723449707 7.0856828689575195 0.38966086506843567
21.922626495361328 7.094722747802734 0.3876074552536011
21.77136993408203 7.095717430114746 0.38519811630249023
21.636051177978516 7.102053642272949 0.3803078532218933
21.516429901123047 7.113006114959717 0.37777769565582275
21.386070251464844 7.119175434112549 0.3757428824901581
21.233905792236328 7.118945121765137 0.37265345454216003
21.103839874267578 7.12408971786499 0.3706169128417969
20.9633846282959 7.125170707702637 0.36774444580078125
20.844440460205078 7.134451389312744 0.36591947078704834
20.715110778808594 7.13824462890625 0.3632408678531647
20.578723907470703 7.139764785766602 0.3611140251159668
20.439311981201172 7.139646053314209 0.3582800626754761
20.32107162475586 7.145693778991699 0.3564620018005371
20.175777435302734 7.142380714416504 0.35351020097732544
20.023204803466797 7.135846138000488 0.35109633207321167
19.89457130432129 7.137257099151611 0.3484482765197754
19.79265594482422 7.147768020629883 0.34630000591278076
19.658023834228516 7.145297050476074 0.34420374035835266
19.534618377685547 7.147049903869629 0.3423059582710266
19.421836853027344 7.152189254760742 0.3399668335914612
19.3037109375 7.1542158126831055 0.33753180503845215
19.17507553100586 7.153167724609375 0.3355447053909302
19.041271209716797 7.148300647735596 0.33345359563827515
18.91889190673828 7.147186756134033 0.3303260803222656
18.810585021972656 7.152227401733398 0.32870614528656006
18.688840866088867 7.150361061096191 0.3268192410469055
18.586856842041016 7.156249046325684 0.3234926164150238
18.480010986328125 7.159825801849365 0.3212927579879761
18.368541717529297 7.160514831542969 0.3190258741378784
18.284997940063477 7.1723432540893555 0.31784433126449585
18.17729377746582 7.174293518066406 0.31564921140670776
18.07061767578125 7.175567626953125 0.31346094608306885
17.958843231201172 7.175634384155273 0.3118109405040741
17.869089126586914 7.182809829711914 0.3105003237724304
17.667163848876953 7.188215255737305 0.3063632845878601
17.56129264831543 7.18765115737915 0.30478113889694214
17.359779357910156 7.190679550170898 0.30124104022979736
17.080379486083984 7.201078414916992 0.2960219383239746
16.906200408935547 7.211648941040039 0.29241204261779785
16.812023162841797 7.2127485275268555 0.29103749990463257
16.621654510498047 7.214111328125 0.2877071499824524
16.522279739379883 7.211764335632324 0.2857024669647217
16.448657989501953 7.221500873565674 0.2846798896789551
16.343677520751953 7.2159013748168945 0.28149324655532837
16.259910583496094 7.219874382019043 0.27979180216789246
16.170703887939453 7.2210612297058105 0.2785065174102783
16.09769058227539 7.228560924530029 0.27750134468078613
15.990900039672852 7.22111177444458 0.2753797769546509
15.908977508544922 7.224483489990234 0.2737056016921997
15.820672988891602 7.224020957946777 0.27244436740875244
15.731781005859375 7.223508358001709 0.2706433832645416
15.660682678222656 7.230826377868652 0.26916393637657166
15.570056915283203 7.228219032287598 0.2678544819355011
15.481704711914062 7.227443218231201 0.26607489585876465
15.398374557495117 7.2274980545043945 0.2649068236351013
15.296379089355469 7.218973636627197 0.2628972828388214
15.216680526733398 7.220574378967285 0.2612573504447937
15.133567810058594 7.2196502685546875 0.26009368896484375
15.050498962402344 7.21897029876709 0.2584402859210968
14.967676162719727 7.218047142028809 0.25676190853118896
14.874370574951172 7.211699962615967 0.2554163336753845
14.78860092163086 7.208057403564453 0.25420260429382324
14.716833114624023 7.211463928222656 0.2522357106208801
14.63377857208252 7.209022521972656 0.25105375051498413
14.56527328491211 7.213424205780029 0.2501501441001892
14.477327346801758 7.207319259643555 0.24789778888225555
14.398905754089355 7.2061567306518555 0.24682070314884186
14.319482803344727 7.204148292541504 0.24523550271987915
14.251760482788086 7.20717716217041 0.24386045336723328
14.177037239074707 7.207461357116699 0.24284440279006958
14.099119186401367 7.204708099365234 0.2412814497947693
14.030174255371094 7.206779479980469 0.2398863434791565
13.95366096496582 7.204648494720459 0.2388511598110199
13.896892547607422 7.211904048919678 0.2376437485218048
13.810688018798828 7.204126358032227 0.23595856130123138
13.747916221618652 7.208243370056152 0.23514989018440247
13.68525505065918 7.211636543273926 0.2338382601737976
13.564229965209961 7.221011161804199 0.2313685119152069
13.415800094604492 7.214668273925781 0.22888612747192383
13.352678298950195 7.216485977172852 0.22760620713233948
13.2337646484375 7.224395275115967 0.2261049449443817
13.17953109741211 7.230330467224121 0.22449767589569092
13.05752944946289 7.235106468200684 0.22295671701431274
12.856693267822266 7.229835510253906 0.21939736604690552
12.726766586303711 7.227487564086914 0.2168194055557251
12.668105125427246 7.228981971740723 0.215620756149292
12.551542282104492 7.232707977294922 0.2137216329574585
12.484857559204102 7.229349136352539 0.21196314692497253
12.421611785888672 7.227690696716309 0.21114669740200043
12.368741989135742 7.231326103210449 0.21050995588302612
12.318880081176758 7.237030029296875 0.20904541015625
12.271142959594727 7.243780136108398 0.20849229395389557
12.213583946228027 7.244022369384766 0.20776265859603882
12.153441429138184 7.24299430847168 0.20613333582878113
12.099215507507324 7.245241641998291 0.205470472574234
12.033468246459961 7.239839553833008 0.2041628509759903
11.989673614501953 7.2479248046875 0.20325976610183716
11.931075096130371 7.246844291687012 0.20253273844718933
11.869531631469727 7.243727684020996 0.20131823420524597
11.813314437866211 7.243598461151123 0.20018373429775238
11.760589599609375 7.2448930740356445 0.19956552982330322
11.700508117675781 7.241918563842773 0.19836707413196564
11.645956039428711 7.242110729217529 0.1972866952419281
11.59128189086914 7.241510391235352 0.19618511199951172
11.531937599182129 7.238245964050293 0.1954503357410431
11.479536056518555 7.2390899658203125 0.1943998634815216
11.425191879272461 7.238495826721191 0.19332093000411987
11.371881484985352 7.237834930419922 0.1926567554473877
11.32729721069336 7.243014335632324 0.19134823977947235
11.265218734741211 7.236787796020508 0.19054590165615082
11.215282440185547 7.23811149597168 0.18955478072166443
11.161002159118652 7.235932350158691 0.1884949803352356
11.102581977844238 7.231313228607178 0.18735748529434204
11.05078411102295 7.2307586669921875 0.18673402070999146
11.001794815063477 7.231838703155518 0.18575775623321533
10.949970245361328 7.230834484100342 0.18474093079566956
10.90229606628418 7.231887340545654 0.18418803811073303
10.803009033203125 7.23172664642334 0.18222011625766754
10.744101524353027 7.2246246337890625 0.18148735165596008
10.649471282958984 7.226306915283203 0.17960935831069946
10.603622436523438 7.227376937866211 0.17868879437446594
10.51385498046875 7.231227874755859 0.17729860544204712
10.422870635986328 7.233499526977539 0.1754942685365677
10.361176490783691 7.222586154937744 0.1747080683708191
10.26987361907959 7.223397254943848 0.17291554808616638
10.22844409942627 7.226030349731445 0.1720866560935974
10.134220123291016 7.223637580871582 0.17062735557556152
10.076702117919922 7.214690208435059 0.16916364431381226
10.0016450881958 7.22438907623291 0.16840383410453796
9.955194473266602 7.2227888107299805 0.16712817549705505
9.907916069030762 7.220376968383789 0.16658610105514526
9.869579315185547 7.223845481872559 0.16581442952156067
9.821622848510742 7.220558166503906 0.16488566994667053
9.77964973449707 7.221469879150391 0.16445213556289673
9.726517677307129 7.213474273681641 0.16307000815868378
9.687311172485352 7.216525554656982 0.16266636550426483
9.65307903289795 7.222221374511719 0.16196739673614502
9.60934829711914 7.221116542816162 0.16112877428531647
9.56557559967041 7.219786167144775 0.16028378903865814
9.526274681091309 7.221202850341797 0.15986847877502441
9.49220085144043 7.226901054382324 0.15919330716133118
9.449789047241211 7.226090431213379 0.1583830714225769
9.402364730834961 7.220797061920166 0.15747307240962982
9.357589721679688 7.217789649963379 0.1566060185432434
9.319108963012695 7.219454288482666 0.15621978044509888
9.289012908935547 7.227035045623779 0.1552385687828064
9.236515045166016 7.217917442321777 0.1546230912208557
9.196281433105469 7.2172651290893555 0.1541929841041565
9.152765274047852 7.2143120765686035 0.15336847305297852
9.126079559326172 7.224483013153076 0.15281637012958527
9.069239616394043 7.210151672363281 0.15175774693489075
9.038030624389648 7.21645450592041 0.15112900733947754
8.999664306640625 7.2169036865234375 0.1507457196712494
8.954998016357422 7.212122917175293 0.14954498410224915
8.917996406555176 7.212883949279785 0.14917610585689545
8.875033378601074 7.209098815917969 0.1483643352985382
8.83135986328125 7.204545974731445 0.1475405991077423
8.801283836364746 7.2109270095825195 0.14728054404258728
8.757088661193848 7.205141067504883 0.14609844982624054
8.731048583984375 7.214603424072266 0.14592716097831726
8.683279037475586 7.205950736999512 0.14468342065811157
8.65186882019043 7.2102556228637695 0.14441972970962524
8.614728927612305 7.210544109344482 0.1437140703201294
8.591069221496582 7.221112251281738 0.14322525262832642
8.520337104797363 7.223111152648926 0.14188151061534882
8.484882354736328 7.223369598388672 0.14154064655303955
8.411890029907227 7.222550868988037 0.14015129208564758
8.382734298706055 7.2277913093566895 0.13957878947257996
8.309671401977539 7.226031303405762 0.13819622993469238
8.272876739501953 7.224239349365234 0.13749417662620544
8.236677169799805 7.223697662353516 0.13715240359306335
8.189254760742188 7.212227821350098 0.13594338297843933
8.132511138916016 7.223294734954834 0.13484907150268555
8.095373153686523 7.220417499542236 0.1344798505306244
8.027799606323242 7.221081256866455 0.13319635391235352
7.992317199707031 7.2192254066467285 0.13285961747169495
7.9253106117248535 7.219541549682617 0.13159358501434326
7.895772933959961 7.223118782043457 0.13102632761001587
7.853139877319336 7.214548110961914 0.13024593889713287
7.818661689758301 7.212850570678711 0.12960365414619446
7.792380332946777 7.2190399169921875 0.1290891170501709
7.768129825592041 7.227026462554932 0.12861646711826324
7.721179008483887 7.213294982910156 0.1280890703201294
7.68266487121582 7.207674980163574 0.12705479562282562
7.661337852478027 7.21805477142334 0.1269547939300537
7.623013973236084 7.2118682861328125 0.12593209743499756
7.589374542236328 7.21082878112793 0.1256263107061386
7.556293487548828 7.209293365478516 0.12532490491867065
7.52567195892334 7.210413932800293 0.1244339570403099
7.495445251464844 7.211783409118652 0.12418076395988464
7.470537185668945 7.217731475830078 0.12338635325431824
7.441693305969238 7.220226287841797 0.12314720451831818
7.40424919128418 7.214223861694336 0.12215658277273178
7.37606954574585 7.216666221618652 0.12194506078958511
7.341554164886475 7.21321964263916 0.12098942697048187
7.308709144592285 7.211255073547363 0.12069913744926453
7.275698184967041 7.2085418701171875 0.11977595090866089
7.243144989013672 7.2070159912109375 0.1194954589009285
7.220311164855957 7.214176654815674 0.11905383318662643
7.183318138122559 7.207508563995361 0.11838135123252869
7.152390956878662 7.206760883331299 0.11781071871519089
7.118114471435547 7.202054977416992 0.11718647927045822
7.095574855804443 7.2095537185668945 0.1167527288198471
7.071394443511963 7.215310096740723 0.11630459874868393
7.034702301025391 7.208174705505371 0.11594987660646439
7.003920078277588 7.2064924240112305 0.11537531763315201
6.972338676452637 7.204283714294434 0.11480569839477539
6.948946475982666 7.210437774658203 0.11435920000076294
6.913741111755371 7.204202651977539 0.11371998488903046
6.890506744384766 7.209882736206055 0.11327950656414032
6.85932731628418 7.207585334777832 0.11271294951438904
6.827336311340332 7.204283714294434 0.11213505268096924
6.791611671447754 7.196439266204834 0.11178749799728394
6.769789695739746 7.204085350036621 0.11107844114303589
6.743288993835449 7.205791473388672 0.11060059815645218
6.680527687072754 7.199258804321289 0.10946057736873627
6.660768508911133 7.207907199859619 0.10908064246177673
6.597546577453613 7.2000908851623535 0.1079421117901802
6.5747528076171875 7.205176830291748 0.1075270026922226
6.515883922576904 7.201340675354004 0.10645602643489838
6.487676620483398 7.200142860412598 0.10594648122787476
6.428894996643066 7.195612907409668 0.1049003154039383
6.376554489135742 7.197813987731934 0.10394129902124405
6.348841190338135 7.196562767028809 0.10373452305793762
6.320786476135254 7.195250034332275 0.10293902456760406
6.295904159545898 7.197432518005371 0.10277825593948364
6.265483856201172 7.192721366882324 0.10194326937198639
6.2362470626831055 7.189672470092773 0.10171350836753845
6.213960647583008 7.194525718688965 0.10131771862506866
6.18204402923584 7.188117980957031 0.1007423996925354
6.162989616394043 7.1961164474487305 0.10038276761770248
6.137438774108887 7.196898460388184 0.09993107616901398
6.1064772605896 7.191210746765137 0.09938056766986847
6.091012001037598 7.203684329986572 0.0988035649061203
6.058298110961914 7.195224761962891 0.09822070598602295
6.028858661651611 7.190942764282227 0.09770514070987701
6.007667541503906 7.1963887214660645 0.09732523560523987
5.987204551696777 7.202204704284668 0.09694303572177887
5.963383197784424 7.204802513122559 0.09652644395828247
5.931249618530273 7.19633150100708 0.09597105532884598
5.906888961791992 7.197605133056641 0.09552755951881409
5.880600452423096 7.196416854858398 0.0953468382358551
5.850778579711914 7.1903228759765625 0.09454354643821716
5.831945419311523 7.198089599609375 0.09447972476482391
5.81049919128418 7.202570915222168 0.09381186217069626
5.774136066436768 7.1879682540893555 0.09346529841423035
5.752814769744873 7.192397117614746 0.09280256927013397
5.7261061668396 7.189988136291504 0.09261318296194077
5.702376365661621 7.190762042999268 0.09218904376029968
5.683795928955078 7.198866844177246 0.09187134355306625
5.658052444458008 7.196918487548828 0.09141711890697479
5.623194217681885 7.183664798736572 0.09081386774778366
5.607230186462402 7.194428443908691 0.0905209332704544
5.590732574462891 7.204044342041016 0.09021380543708801
5.556430339813232 7.19105863571167 0.08963106572628021
5.535334587097168 7.195016860961914 0.0892561674118042
5.517364501953125 7.2025370597839355 0.08892261981964111
5.476345062255859 7.18026065826416 0.08796083927154541
5.465485572814941 7.197400093078613 0.08776123821735382
5.411362171173096 7.18833065032959 0.08681593835353851
5.386331558227539 7.186521530151367 0.08638221025466919
5.338281631469727 7.185269355773926 0.08554013073444366
5.321160793304443 7.193359375 0.08524319529533386
5.270691871643066 7.188255310058594 0.08437170088291168
5.248537063598633 7.189278602600098 0.08399567008018494
5.227016448974609 7.192010402679443 0.08388826996088028
5.204621315002441 7.192534446716309 0.08323514461517334
5.150622844696045 7.181399345397949 0.0823039710521698
5.136120796203613 7.192647933959961 0.08204586803913116
5.087597846984863 7.18851900100708 0.08121434599161148
5.060863494873047 7.182306289672852 0.08075721561908722
5.014070987701416 7.179928779602051 0.08022680878639221
4.9920654296875 7.180113792419434 0.07957495748996735
4.966854095458984 7.176512718200684 0.07941633462905884
4.942102909088135 7.172512054443359 0.07873363792896271
4.927700042724609 7.183943748474121 0.07847487926483154
4.912271499633789 7.193875312805176 0.0779479593038559
4.883625030517578 7.183890342712402 0.07745510339736938
4.864590167999268 7.188403129577637 0.07712849974632263
4.839224815368652 7.18345832824707 0.07669620215892792
4.8234734535217285 7.192243576049805 0.07669110596179962
4.79307746887207 7.179558277130127 0.07591775059700012
4.777188301086426 7.188487529754639 0.07591447234153748
4.752012252807617 7.183375358581543 0.07522661983966827
4.733734130859375 7.188116073608398 0.07517562061548233
4.707101821899414 7.180544853210449 0.07445825636386871
4.68702507019043 7.182863235473633 0.07438410818576813
4.667034149169922 7.185238361358643 0.0737866759300232
4.645904541015625 7.185305595397949 0.07367764413356781
4.619589328765869 7.177712917327881 0.07298470288515091
4.596425533294678 7.174872398376465 0.07286085188388824
4.569777488708496 7.165971755981445 0.07241395115852356
4.55991268157959 7.184309959411621 0.07197065651416779
4.5323896408081055 7.1738080978393555 0.07178118824958801
4.510723114013672 7.172922134399414 0.07115451991558075
4.489058017730713 7.171935081481934 0.07105639576911926
4.471280097961426 7.176604270935059 0.07048620283603668
4.447643756866455 7.172276496887207 0.0703618973493576
4.429535865783691 7.176768779754639 0.06979314982891083
4.408246994018555 7.175551414489746 0.06943544000387192
4.388173580169678 7.176717758178711 0.06909531354904175
4.3638458251953125 7.170812606811523 0.06869594752788544
4.348371982574463 7.178889274597168 0.06818285584449768
4.326767444610596 7.177286624908447 0.06807377934455872
4.300963878631592 7.168576240539551 0.06739906966686249
4.276803016662598 7.1624531745910645 0.06724702566862106
4.261448860168457 7.1709980964660645 0.0667424201965332
4.23844051361084 7.166100978851318 0.06660304218530655
4.214603424072266 7.160167694091797 0.0662141740322113
4.200749397277832 7.1711273193359375 0.06598344445228577
4.176257133483887 7.163360595703125 0.06558346748352051
4.130490303039551 7.153931617736816 0.0648333951830864
24.21380615234375 -9.418719291687012 0.46785104274749756
24.46756362915039 -9.398984909057617 0.47198501229286194
24.579578399658203 -9.383525848388672 0.47457361221313477
24.82489013671875 -9.357583999633789 0.4793534278869629
24.946533203125 -9.34435749053955 0.4813268780708313
29.29941177368164 -8.715372085571289 0.5588209629058838
29.568145751953125 -8.593366622924805 0.5599943399429321
29.65740203857422 -8.552606582641602 0.5613278746604919
29.756385803222656 -8.513311386108398 0.5638002157211304
29.86634635925293 -8.409865379333496 0.565187394618988
29.87950897216797 -8.344721794128418 0.5651010870933533
29.920989990234375 -8.289410591125488 0.5664867162704468
29.914752960205078 -8.220878601074219 0.5660395622253418
29.929798126220703 -8.156288146972656 0.5659905672073364
29.964641571044922 -8.099020004272461 0.5663352012634277
29.971439361572266 -8.033153533935547 0.5661485195159912
30.013914108276367 -7.910205841064453 0.5672905445098877
30.035072326660156 -7.848161697387695 0.5673808455467224
30.034587860107422 -7.714053153991699 0.567689836025238
30.099145889282227 -7.528258323669434 0.5680034160614014
30.132972717285156 -7.335746765136719 0.5677581429481506
30.173139572143555 -7.144900321960449 0.565701961517334
22.431747436523438 -4.424264907836914 0.41862624883651733
22.738908767700195 -4.286911487579346 0.42301613092422485
22.850393295288086 -4.258121490478516 0.424915075302124
22.97770881652832 -4.182520866394043 0.4269602298736572
23.308082580566406 -4.19196891784668 0.4329253137111664
23.432422637939453 -4.164150238037109 0.4358011484146118
23.440797805786133 -4.114748954772949 0.43572354316711426
