VERSION .7
FIELDS x y z
SIZE 4 4 4
TYPE F F F
COUNT 1 1 1
WIDTH 851
HEIGHT 1
VIEWPOINT 0 0 0 1 0 0 0
POINTS 851
DATA ascii
31.62230682373047 -4.054516792297363 0.44862982630729675
31.565814971923828 -3.9807090759277344 0.4477066695690155
31.521175384521484 -3.9066903591156006 0.446957528591156
31.47075653076172 -3.8341474533081055 0.4461285471916199
31.428173065185547 -3.7621898651123047 0.44541266560554504
31.365604400634766 -3.687349796295166 0.4438197612762451
31.285106658935547 -3.6120829582214355 0.4425724148750305
31.22530746459961 -3.5376009941101074 0.4416208863258362
31.189085006713867 -3.4679577350616455 0.4410136938095093
31.135879516601562 -3.3966448307037354 0.4401603937149048
31.0723876953125 -3.322566509246826 0.4460550844669342
31.005714416503906 -3.250373363494873 0.4449978768825531
30.951412200927734 -3.1791718006134033 0.4435426890850067
30.90340805053711 -3.1081275939941406 0.44275617599487305
30.856258392333984 -3.0387182235717773 0.4419899582862854
30.82071876525879 -2.9687533378601074 0.4413924813270569
30.760618209838867 -2.898550510406494 0.44044333696365356
30.719667434692383 -2.829807996749878 0.43977293372154236
30.654617309570312 -2.7583670616149902 0.43875592947006226
30.59793472290039 -2.68926739692688 0.43786561489105225
30.548927307128906 -2.6205105781555176 0.4370869994163513
30.49205780029297 -2.5506017208099365 0.43619510531425476
30.461864471435547 -2.4844305515289307 0.4356876015663147
30.419246673583984 -2.41684627532959 0.43500638008117676
30.353214263916016 -2.3469324111938477 0.43398553133010864
30.34097671508789 -2.2820844650268555 0.4337471127510071
30.21962547302246 -2.1455764770507812 0.4306057095527649
30.159547805786133 -2.0778515338897705 0.4296838939189911
30.008703231811523 -1.8779897689819336 0.42679834365844727
29.88391876220703 -1.7438665628433228 0.42491692304611206
29.859201431274414 -1.6802568435668945 0.4318189024925232
29.784385681152344 -1.550243854522705 0.42882049083709717
29.772480010986328 -1.4876797199249268 0.4286055266857147
29.746166229248047 -1.4226680994033813 0.4281807243824005
29.695152282714844 -1.3584702014923096 0.4274042546749115
29.641307830810547 -1.230936884880066 0.42654949426651
29.60611343383789 -1.167936086654663 0.42600640654563904
29.56407928466797 -1.0415971279144287 0.42533814907073975
29.51039695739746 -0.9771428108215332 0.4245331585407257
29.483169555664062 -0.914444088935852 0.4241110682487488
29.45977783203125 -0.8525288105010986 0.423750102519989
29.436691284179688 -0.7894784212112427 0.42339199781417847
29.392738342285156 -0.7267141342163086 0.42273861169815063
29.37058448791504 -0.6651824712753296 0.42184996604919434
29.30792236328125 -0.601672887802124 0.419689804315567
29.30640411376953 -0.5402549505233765 0.41965338587760925
29.288265228271484 -0.47912317514419556 0.41937440633773804
29.26473617553711 -0.4162074625492096 0.41902387142181396
29.241432189941406 -0.35518378019332886 0.4186824560165405
29.23863983154297 -0.2926816940307617 0.4186328649520874
29.189085006713867 -0.23160770535469055 0.41791415214538574
29.14740753173828 -0.17078754305839539 0.42210379242897034
29.105934143066406 -0.10836610198020935 0.4215015769004822
29.065479278564453 -0.04789847880601883 0.420911580324173
28.258480072021484 1.127515196800232 0.34383463859558105
28.183847427368164 1.2434412240982056 0.3429870009422302
28.059036254882812 1.4147264957427979 0.3415675759315491
27.98318099975586 1.5290749073028564 0.3407244384288788
26.50883674621582 3.356248617172241 0.3145563006401062
26.401952743530273 3.51149320602417 0.31191596388816833
26.327665328979492 3.6145143508911133 0.31121739745140076
26.283344268798828 3.6640172004699707 0.30703815817832947
26.2219295501709 3.7681000232696533 0.3053889572620392
26.113750457763672 3.9202661514282227 0.3039083480834961
24.835697174072266 5.236111640930176 0.2817293405532837
24.42668342590332 5.257417678833008 0.27734124660491943
24.224929809570312 5.266617774963379 0.2751742899417877
23.822586059570312 5.284311294555664 0.2703956961631775
23.64200210571289 5.295754432678223 0.2674481272697449
23.269237518310547 5.315267086029053 0.2634822428226471
23.078262329101562 5.322057247161865 0.2610001266002655
22.70752716064453 5.337377548217773 0.2570594847202301
22.206859588623047 5.3672356605529785 0.25080427527427673
21.682876586914062 5.38508939743042 0.24253502488136292
18.57488441467285 5.535604953765869 0.2044866383075714
18.334278106689453 5.548078536987305 0.20128244161605835
18.212528228759766 5.552517414093018 0.1997140645980835
17.979740142822266 5.564412593841553 0.19741402566432953
17.846084594726562 5.563654899597168 0.1952858865261078
17.645854949951172 5.5828776359558105 0.1933460384607315
17.532978057861328 5.587218284606934 0.1918908953666687
17.317398071289062 5.598964214324951 0.18978843092918396
17.221298217773438 5.607393741607666 0.1880960911512375
17.00270652770996 5.615525245666504 0.18562915921211243
16.67932891845703 5.625259876251221 0.1817394495010376
16.390880584716797 5.643332004547119 0.17865270376205444
14.523956298828125 5.727965354919434 0.156429260969162
14.282485961914062 5.736746788024902 0.1532767415046692
14.057694435119629 5.750045299530029 0.1512499451637268
13.958528518676758 5.74332332611084 0.14967414736747742
13.90141487121582 5.7538909912109375 0.14919006824493408
13.815862655639648 5.752776145935059 0.1481233388185501
13.743046760559082 5.7559494972229 0.1474703550338745
13.668828964233398 5.758538246154785 0.1468021273612976
13.600064277648926 5.763506889343262 0.1455707997083664
13.525102615356445 5.765176773071289 0.14489415287971497
13.459009170532227 5.770712375640869 0.1440424770116806
13.372636795043945 5.766561508178711 0.14324402809143066
13.309059143066406 5.772225379943848 0.14269451797008514
13.167137145996094 5.776677131652832 0.1405545175075531
12.96070671081543 5.783542633056641 0.1381380259990692
12.770978927612305 5.795425891876221 0.1362362504005432
11.820512771606445 5.8197102546691895 0.12557584047317505
11.646984100341797 5.825527667999268 0.12356670200824738
11.477591514587402 5.831294059753418 0.12191421538591385
11.377099990844727 5.84065055847168 0.12056496739387512
11.319904327392578 5.841606616973877 0.11985373497009277
11.212204933166504 5.845350742340088 0.11896924674510956
11.162055969238281 5.84929895401001 0.1180330291390419
11.103384017944336 5.848219394683838 0.11730921268463135
11.049567222595215 5.8491973876953125 0.11686842143535614
10.995624542236328 5.850482940673828 0.11642758548259735
10.946199417114258 5.853627681732178 0.11603426933288574
10.887022972106934 5.851662635803223 0.1155376061797142
10.833242416381836 5.852025985717773 0.11509795486927032
10.79294204711914 5.859221935272217 0.11427761614322662
10.726484298706055 5.852583885192871 0.11347803473472595
10.687765121459961 5.860533714294434 0.1131962314248085
10.541979789733887 5.867093563079834 0.11130236089229584
10.3956937789917 5.871577262878418 0.10963885486125946
9.689403533935547 5.882593631744385 0.10180781036615372
9.615898132324219 5.893534183502197 0.10108201205730438
9.58407974243164 5.901427745819092 0.10039801895618439
9.494844436645508 5.901771545410156 0.09951555728912354
9.447973251342773 5.8998541831970215 0.09915176033973694
9.360538482666016 5.90019416809082 0.09781821072101593
9.320619583129883 5.902093410491943 0.09752771258354187
9.291259765625 5.911346912384033 0.0973535031080246
9.245996475219727 5.909539222717285 0.09654311090707779
9.193883895874023 5.903689861297607 0.09592476487159729
9.159566879272461 5.908778190612793 0.09569555521011353
9.121326446533203 5.910950660705566 0.09542423486709595
9.077957153320312 5.910419940948486 0.09464550018310547
9.03946590423584 5.912106037139893 0.09416919946670532
9.010351181030273 5.919796943664551 0.09399376809597015
8.965008735656738 5.917464256286621 0.09365221858024597
8.926097869873047 5.918410301208496 0.09291977435350418
8.879064559936523 5.914331436157227 0.09236109256744385
8.846515655517578 5.919429779052734 0.0921509638428688
8.802903175354004 5.916731357574463 0.09117710590362549
8.775845527648926 5.925800800323486 0.09102670848369598
8.728846549987793 5.920475482940674 0.09066715091466904
8.613646507263184 5.921740531921387 0.08921892940998077
8.496635437011719 5.9203009605407715 0.08776012808084488
8.00424861907959 5.934442043304443 0.08242754638195038
7.988507270812988 5.948501110076904 0.08197115361690521
7.9172163009643555 5.947409152984619 0.08052137494087219
7.876018524169922 5.9420695304870605 0.0798088014125824
7.814042091369629 5.947114944458008 0.07943495362997055
7.784738540649414 5.950366497039795 0.07907899469137192
7.740016460418701 5.94242000579834 0.07834028452634811
7.71484899520874 5.948585510253906 0.07820834964513779
7.672418117523193 5.942046165466309 0.07790841907262802
7.641115188598633 5.943211078643799 0.0775345042347908
7.621376991271973 5.953283309936523 0.07705031335353851
7.582250595092773 5.948844909667969 0.07678329199552536
7.561247825622559 5.957758903503418 0.07651387155056
7.52170467376709 5.95194149017334 0.0758337751030922
7.502742767333984 5.963044166564941 0.07577160745859146
7.459931373596191 5.954320430755615 0.07546353340148926
7.440796375274658 5.964596748352051 0.07521693408489227
7.404540538787842 5.961331844329834 0.07457534968852997
7.383926868438721 5.970032691955566 0.07449273765087128
7.335607528686523 5.956925392150879 0.07395725697278976
7.3170576095581055 5.96710205078125 0.07389505207538605
7.27890682220459 5.961182594299316 0.0732349306344986
7.252458572387695 5.965453147888184 0.07309725880622864
7.2143964767456055 5.959288597106934 0.07266388833522797
7.115756034851074 5.953458786010742 0.07052174210548401
7.025331497192383 5.95350980758667 0.06943388283252716
6.813010215759277 5.972912788391113 0.06703940033912659
6.721836090087891 5.96864128112793 0.06613203883171082
6.646303176879883 5.976719379425049 0.06559073179960251
6.628453254699707 5.985593795776367 0.06499108672142029
6.594394207000732 5.9804606437683105 0.06478235125541687
6.559610366821289 5.973771095275879 0.0645633339881897
6.527065753936768 5.969182014465332 0.06399137526750565
6.51262903213501 5.981353282928467 0.06272770464420319
6.486026763916016 5.98178243637085 0.06259074807167053
6.454233169555664 5.977517604827881 0.062405750155448914
6.435159683227539 5.985217094421387 0.06180628389120102
6.412911415100098 5.989393711090088 0.06171106547117233
6.374774932861328 5.979322910308838 0.0614677369594574
6.35551118850708 5.9860944747924805 0.06123891472816467
6.332941055297852 5.989909648895264 0.06077272444963455
6.296351909637451 5.980614185333252 0.06054266542196274
6.271046161651611 5.981380462646484 0.06042008846998215
6.247682571411133 5.984129428863525 0.060153257101774216
6.224157810211182 5.9869208335876465 0.05968218669295311
6.197528839111328 5.986115455627441 0.05954636633396149
6.165708541870117 5.980893135070801 0.05920270085334778
6.139252662658691 5.980008125305176 0.05870483070611954
6.127147674560547 5.9932708740234375 0.05870731920003891
6.101794242858887 5.993806838989258 0.05858679115772247
6.07212495803833 5.98947286605835 0.05790213868021965
6.051781177520752 5.9944586753845215 0.05782594159245491
6.018901348114014 5.987194061279297 0.0576336607336998
5.989651679992676 5.9831013679504395 0.05731521174311638
5.939461708068848 5.982926368713379 0.05671791732311249
5.923133850097656 5.991519451141357 0.05652342736721039
5.848204612731934 5.990586280822754 0.05479009076952934
5.797956466674805 5.989371299743652 0.05404684692621231
5.730319023132324 5.9944539070129395 0.0532604344189167
5.662325859069824 5.998373985290527 0.052823908627033234
5.616061210632324 5.999782562255859 0.05227787047624588
5.5886054039001465 5.995848178863525 0.051988184452056885
5.555813312530518 6.010714530944824 0.05156892538070679
5.522307395935059 5.999904155731201 0.051376331597566605
5.5050554275512695 6.006351947784424 0.05117964744567871
5.477872848510742 6.002160549163818 0.05070190131664276
5.458621978759766 6.006052494049072 0.05063817650079727
5.4368767738342285 6.007349967956543 0.05040159821510315
5.405793190002441 5.998486518859863 0.049889519810676575
5.381525039672852 5.99653434753418 0.04977985844016075
5.368113040924072 6.0068440437316895 0.0496213361620903
5.337856292724609 5.998504161834717 0.04862934723496437
5.31637716293335 5.999617099761963 0.04839836806058884
5.302448272705078 6.009486198425293 0.04804766923189163
5.281321048736572 6.010638236999512 0.04796866700053215
5.251399040222168 6.001882076263428 0.047662701457738876
5.2370805740356445 6.011155605316162 0.047311022877693176
5.219395160675049 6.016017436981201 0.047262758016586304
5.199542999267578 6.018548011779785 0.04719702899456024
5.164667129516602 6.00383186340332 0.04684798792004585
5.150452136993408 6.012725830078125 0.04649677500128746
5.128199100494385 6.011953830718994 0.04640933871269226
5.106466770172119 6.012215614318848 0.04618079587817192
5.081167697906494 6.007879257202148 0.04606515169143677
5.062469482421875 6.011542797088623 0.04567725956439972
5.031781196594238 6.000556468963623 0.04551534354686737
5.0227532386779785 6.01509952545166 0.045399170368909836
4.996160507202148 6.00907039642334 0.044942744076251984
4.981085777282715 6.01652193069458 0.044919710606336594
4.9370527267456055 6.0147247314453125 0.04427604377269745
4.911909103393555 6.009477615356445 0.044161923229694366
4.870884895324707 6.01077127456665 0.043876949697732925
4.860169410705566 6.02305793762207 0.04356522485613823
4.8112568855285645 6.014092445373535 0.04273921251296997
4.755131244659424 6.021146297454834 0.042250022292137146
4.710529327392578 6.0165910720825195 0.04193644970655441
4.694240570068359 6.021488666534424 0.04157795384526253
4.664964199066162 6.010370254516602 0.041292041540145874
4.646755218505859 6.012628555297852 0.04124099388718605
4.62863302230835 6.015462875366211 0.04087233915925026
4.614542007446289 6.023202896118164 0.04085683077573776
4.577766418457031 6.000955104827881 0.04050286114215851
4.575615882873535 6.0245490074157715 0.040595829486846924
4.554221153259277 6.022519588470459 0.04019829258322716
4.534194469451904 6.0225019454956055 0.03999252989888191
4.517056465148926 6.0259552001953125 0.039952632039785385
4.497365951538086 6.025701999664307 0.03957115113735199
4.482593536376953 6.0325164794921875 0.03941287845373154
4.460309982299805 6.0288567543029785 0.039326827973127365
4.440229415893555 6.027836799621582 0.03925982117652893
4.418919563293457 6.025586128234863 0.03886864334344864
4.402475833892822 6.029598236083984 0.038694724440574646
4.384547233581543 6.031820774078369 0.038649626076221466
4.357486724853516 6.021061897277832 0.03806840255856514
4.340372085571289 6.023692607879639 0.03802858293056488
4.319449424743652 6.021498680114746 0.03795642405748367
4.302516937255859 6.0244879722595215 0.03746562451124191
4.2805867195129395 6.020155906677246 0.0373842716217041
4.263509750366211 6.023344039916992 0.037347834557294846
4.2462992668151855 6.025507926940918 0.03699326142668724
4.232241630554199 6.032105445861816 0.03684190288186073
4.207799434661865 6.024600982666016 0.03674152493476868
4.189915657043457 6.025593280792236 0.03669513761997223
4.1730828285217285 6.028580665588379 0.03621211647987366
4.156116485595703 6.031015396118164 0.036174848675727844
4.132082939147949 6.022852897644043 0.036073312163352966
4.122430801391602 6.036386489868164 0.035654645413160324
4.104896545410156 6.037574768066406 0.03561154007911682
4.0664143562316895 6.035485744476318 0.03549768775701523
4.0466766357421875 6.033170700073242 0.0349910706281662
4.007526874542236 6.029539108276367 0.034873247146606445
3.994948387145996 6.037755966186523 0.03443065658211708
3.9735662937164307 6.033407688140869 0.034357063472270966
3.9581289291381836 6.037204742431641 0.03433150425553322
3.9187417030334473 6.032381534576416 0.03377170115709305
3.900554895401001 6.031748294830322 0.03372277691960335
3.882134437561035 6.031481742858887 0.033674657344818115
3.863490343093872 6.029973983764648 0.033184342086315155
3.8496475219726562 6.035906791687012 0.033172860741615295
3.8311967849731445 6.035377025604248 0.03312503546476364
3.8179407119750977 6.042170524597168 0.032985277473926544
3.800574779510498 6.042985916137695 0.032643672078847885
3.7791121006011963 6.036871910095215 0.03256615623831749
3.7539567947387695 6.024449348449707 0.032459188252687454
3.744126319885254 6.0373687744140625 0.03205154463648796
3.7200088500976562 6.026365280151367 0.031952064484357834
3.7128353118896484 6.043337821960449 0.031998954713344574
3.6923980712890625 6.038383483886719 0.031799670308828354
3.67899227142334 6.044607639312744 0.03149200975894928
3.650304079055786 6.026168346405029 0.03135743737220764
3.6373281478881836 6.033218860626221 0.03135446086525917
3.624760866165161 6.040687561035156 0.03092365525662899
3.6056056022644043 6.037963390350342 0.03086981177330017
3.5922651290893555 6.0440826416015625 0.0308627150952816
3.5741000175476074 6.0422892570495605 0.03038652613759041
3.5550265312194824 6.039192199707031 0.03033372014760971
3.541238307952881 6.044426441192627 0.030322719365358353
3.521225929260254 6.0398125648498535 0.030261650681495667
3.495197296142578 6.023862361907959 0.03001617267727852
3.485949993133545 6.036748886108398 0.030043398961424828
34.62282180786133 2.2545418739318848 0.7091138362884521
34.4299430847168 2.459439754486084 0.7013857364654541
34.251670837402344 2.663233757019043 0.6966303586959839
34.06591033935547 2.7931694984436035 0.6930913925170898
33.85781478881836 2.9905028343200684 0.6892259120941162
33.59126281738281 3.179905652999878 0.6821258068084717
31.990154266357422 4.732592582702637 0.6432638764381409
31.820816040039062 4.912158966064453 0.6398537755012512
31.630966186523438 5.086641788482666 0.6353194713592529
31.525306701660156 5.205943584442139 0.6336309313774109
31.47003936767578 5.263927459716797 0.6327398419380188
31.344036102294922 5.378645420074463 0.6248271465301514
31.181224822998047 5.5527238845825195 0.621665358543396
31.00775909423828 5.7231764793396 0.6175850629806519
25.65271759033203 6.142105579376221 0.5064663887023926
25.244861602783203 6.156977653503418 0.4989194869995117
25.035953521728516 6.161099433898926 0.4939548969268799
24.612546920776367 6.1669487953186035 0.48611190915107727
24.41673469543457 6.171765327453613 0.4820200800895691
24.010517120361328 6.176780700683594 0.47451263666152954
23.811580657958984 6.178314208984375 0.46979641914367676
23.428173065185547 6.184257507324219 0.46274179220199585
22.895000457763672 6.197736740112305 0.4525238871574402
22.348554611206055 6.200863838195801 0.4386726915836334
18.824329376220703 6.26051139831543 0.3683212399482727
18.44882583618164 6.264707088470459 0.361372172832489
18.345457077026367 6.272098064422607 0.35959798097610474
18.092802047729492 6.270944595336914 0.3543519079685211
17.98931884765625 6.276923179626465 0.35222047567367554
17.851730346679688 6.271725177764893 0.3497886657714844
17.761058807373047 6.281307697296143 0.34826740622520447
17.634538650512695 6.27776575088501 0.3452490568161011
17.540258407592773 6.286452293395996 0.34366798400878906
17.41193199157715 6.281266689300537 0.34105658531188965
17.107736587524414 6.293354034423828 0.33509519696235657
16.78583526611328 6.295382022857666 0.32922735810279846
14.835794448852539 6.322800159454346 0.2915373146533966
14.57446575164795 6.31998348236084 0.2862076461315155
14.321611404418945 6.3183183670043945 0.281066358089447
14.177803039550781 6.325619220733643 0.2787579298019409
14.095559120178223 6.324747562408447 0.27740222215652466
14.012521743774414 6.322452545166016 0.27602988481521606
13.933270454406738 6.322554588317871 0.27408379316329956
13.86612606048584 6.326818466186523 0.27273625135421753
13.766491889953613 6.316218852996826 0.2710360288619995
13.704084396362305 6.322745323181152 0.27007177472114563
13.635271072387695 6.325349807739258 0.2689708173274994
13.556001663208008 6.3231048583984375 0.2667558789253235
13.483772277832031 6.324211597442627 0.26559674739837646
13.414714813232422 6.326125144958496 0.2644963562488556
13.194480895996094 6.323965072631836 0.26003947854042053
12.978320121765137 6.320998668670654 0.25594985485076904
12.00423526763916 6.321767330169678 0.23863458633422852
11.830741882324219 6.325720310211182 0.2351522445678711
11.653032302856445 6.325222969055176 0.2315954864025116
11.52540397644043 6.318929672241211 0.2295863926410675
11.48845386505127 6.330347061157227 0.22856071591377258
11.41263198852539 6.319756507873535 0.22707116603851318
11.368118286132812 6.3259687423706055 0.2264477014541626
11.30807113647461 6.323950290679932 0.22551661729812622
11.262022018432617 6.329192161560059 0.2248588502407074
11.201224327087402 6.32627010345459 0.22312943637371063
11.152647972106934 6.329397201538086 0.22242315113544464
11.086787223815918 6.322748184204102 0.22137293219566345
11.039060592651367 6.326544761657715 0.22068586945533752
10.98403549194336 6.325601100921631 0.21985021233558655
10.930124282836914 6.324795246124268 0.21903610229492188
10.881021499633789 6.327174186706543 0.21778622269630432
10.831783294677734 6.328930854797363 0.21682961285114288
10.729454040527344 6.32963228225708 0.2153114378452301
10.677252769470215 6.329011917114258 0.2137708216905594
10.564152717590332 6.322244644165039 0.21203675866127014
10.530420303344727 6.331773281097412 0.2116222381591797
9.688477516174316 6.335736274719238 0.19583675265312195
9.576395988464355 6.320178031921387 0.1938926875591278
9.547452926635742 6.329558372497559 0.19357340037822723
9.505849838256836 6.3312506675720215 0.19252006709575653
9.457748413085938 6.327585220336914 0.1915973424911499
9.415274620056152 6.327492713928223 0.19100186228752136
9.370210647583008 6.32630729675293 0.19036103785037994
9.340642929077148 6.334603309631348 0.18954887986183167
9.287927627563477 6.327607154846191 0.18854105472564697
9.245762825012207 6.327267646789551 0.18795444071292877
9.21109390258789 6.331649303436279 0.18751470744609833
9.166911125183105 6.330156326293945 0.18641695380210876
9.121889114379883 6.327062606811523 0.18556252121925354
9.076807022094727 6.324301719665527 0.18491891026496887
9.041831970214844 6.328097820281982 0.18447397649288177
8.999521255493164 6.32634973526001 0.18320755660533905
8.954203605651855 6.322865962982178 0.1825568974018097
8.921773910522461 6.328004837036133 0.1821649968624115
8.873298645019531 6.3213396072387695 0.18098148703575134
8.837567329406738 6.324388027191162 0.18032526969909668
8.79966926574707 6.324921131134033 0.17961642146110535
8.720620155334473 6.323973178863525 0.17809005081653595
8.692633628845215 6.3312458992004395 0.1777852177619934
8.621047019958496 6.334843158721924 0.17621248960494995
8.559504508972168 6.317017078399658 0.17522093653678894
8.055126190185547 6.319056510925293 0.16613180935382843
7.98145866394043 6.315745830535889 0.16496782004833221
7.967090606689453 6.331306457519531 0.1641298532485962
7.919781684875488 6.3205695152282715 0.1629963517189026
7.895074844360352 6.328507423400879 0.16276420652866364
7.856785297393799 6.324639797210693 0.16205820441246033
7.8279571533203125 6.328248977661133 0.16173425316810608
7.783844947814941 6.320130825042725 0.1606767773628235
7.7508697509765625 6.320090293884277 0.16026797890663147
7.722890377044678 6.324790954589844 0.15978021919727325
7.70152473449707 6.334041595458984 0.15918603539466858
7.656310081481934 6.323535442352295 0.1585233211517334
7.621735095977783 6.322414875030518 0.1579028218984604
7.6010589599609375 6.33193826675415 0.1577444076538086
7.563127517700195 6.327516555786133 0.15681810677051544
7.525203227996826 6.3226213455200195 0.15630510449409485
7.506354331970215 6.333404064178467 0.1560036540031433
7.458800792694092 6.3206071853637695 0.1548818200826645
7.439316749572754 6.330667972564697 0.1547478437423706
7.388975620269775 6.314311981201172 0.15379393100738525
7.369096755981445 6.324613094329834 0.15366044640541077
7.3265838623046875 6.314577102661133 0.15263685584068298
7.311768531799316 6.328538417816162 0.15260404348373413
7.268644332885742 6.318183898925781 0.1518029272556305
7.251611709594727 6.329846382141113 0.1513131558895111
7.1876020431518555 6.3275041580200195 0.14936256408691406
7.145334243774414 6.316661834716797 0.14857804775238037
7.077714443206787 6.310184955596924 0.14732198417186737
7.061314582824707 6.322151184082031 0.1470792293548584
6.8297553062438965 6.325066089630127 0.14331573247909546
6.737590312957764 6.3188581466674805 0.1416490077972412
6.684957027435303 6.322085380554199 0.140703946352005
6.661098480224609 6.326296806335449 0.14031106233596802
6.609655857086182 6.330596923828125 0.13978812098503113
6.567670822143555 6.316567897796631 0.138621523976326
6.509907245635986 6.3140034675598145 0.13796275854110718
6.499317169189453 6.329960346221924 0.13673852384090424
6.463315010070801 6.321320533752441 0.13587605953216553
6.443568706512451 6.328759670257568 0.1357429027557373
6.412948131561279 6.324885368347168 0.13537241518497467
6.381450653076172 6.3202338218688965 0.13482046127319336
6.3502516746521 6.316027641296387 0.13406294584274292
6.338875770568848 6.330934047698975 0.13410042226314545
6.306935787200928 6.326004981994629 0.13354350626468658
6.285156726837158 6.330379009246826 0.1329815834760666
6.245434761047363 6.316769599914551 0.13242202997207642
6.230640411376953 6.328554153442383 0.13222599029541016
6.200122833251953 6.3239898681640625 0.131858691573143
6.172806739807129 6.3228559494018555 0.13118837773799896
6.141357421875 6.316812992095947 0.13079765439033508
6.119514465332031 6.320773124694824 0.13044962286949158
6.087723255157471 6.314638614654541 0.12968461215496063
6.077016353607178 6.329769134521484 0.12973658740520477
6.050282955169678 6.328393936157227 0.12928549945354462
6.024163246154785 6.327845573425293 0.12901237607002258
5.989151954650879 6.317505359649658 0.12817791104316711
5.948840141296387 6.327911376953125 0.12771821022033691
5.917011737823486 6.320522308349609 0.1269531548023224
5.871639251708984 6.325002193450928 0.1253325343132019
5.840283393859863 6.3177032470703125 0.12494528293609619
5.796154499053955 6.323183536529541 0.12420578300952911
5.715740203857422 6.314699649810791 0.12281257659196854
5.678310394287109 6.32669734954834 0.12205864489078522
5.642370700836182 6.313498020172119 0.12157437205314636
5.596590995788574 6.315065860748291 0.12099739909172058
5.57889461517334 6.322017192840576 0.12054572999477386
5.538155555725098 6.328839302062988 0.12007638812065125
5.505407333374023 6.318364143371582 0.1193036213517189
5.490952491760254 6.328479766845703 0.11927533894777298
5.461640357971191 6.321690559387207 0.11877267062664032
5.438876152038574 6.321812629699707 0.11856424808502197
5.420895576477051 6.327664375305176 0.1181061640381813
5.396237373352051 6.3259453773498535 0.11770480126142502
5.361344337463379 6.311520576477051 0.11723054945468903
5.345242023468018 6.319334030151367 0.11681641638278961
5.322971343994141 6.32009744644165 0.11662181466817856
5.291612148284912 6.309630870819092 0.11521926522254944
5.275661468505859 6.317191123962402 0.11500301957130432
5.257899761199951 6.323089599609375 0.11490640044212341
5.231117248535156 6.317742824554443 0.11426375806331635
5.211400032043457 6.321131706237793 0.11412492394447327
5.187067031860352 6.318525791168213 0.11372855305671692
5.1706647872924805 6.325264930725098 0.1133095920085907
5.140039443969727 6.315044403076172 0.11293254792690277
5.119569778442383 6.316864967346191 0.1126212477684021
5.103763580322266 6.324695587158203 0.11256735026836395
5.078741073608398 6.320479869842529 0.11196155101060867
5.048223972320557 6.309513092041016 0.11142842471599579
5.034700393676758 6.319997787475586 0.11142504960298538
5.007362365722656 6.312758922576904 0.11077083647251129
4.996884346008301 6.326470375061035 0.11082983762025833
4.9633612632751465 6.311459064483643 0.11023183166980743
4.947889804840088 6.3189697265625 0.11018238961696625
4.899806022644043 6.31190299987793 0.10921193659305573
4.878519058227539 6.3117218017578125 0.10903169959783554
4.844760417938232 6.322899341583252 0.1083851158618927
4.82485294342041 6.324058532714844 0.10823304206132889
4.781257152557373 6.3219499588012695 0.1070326641201973
4.733010768890381 6.313246250152588 0.10639922320842743
4.718589782714844 6.321300029754639 0.10636945068836212
4.672822952270508 6.315296649932861 0.10545662045478821
4.656514644622803 6.321208477020264 0.10539016127586365
4.6131510734558105 6.317327499389648 0.10452736914157867
4.592416763305664 6.316976547241211 0.10435883700847626
4.572600364685059 6.317488193511963 0.10421042144298553
4.547001838684082 6.309647560119629 0.10359584540128708
4.532259464263916 6.317350387573242 0.10341928899288177
4.508988380432129 6.312779426574707 0.10318863391876221
4.495647430419922 6.322365760803223 0.10286063700914383
4.4662251472473145 6.30891752243042 0.10234683007001877
4.446733474731445 6.30910587310791 0.10219918191432953
4.431719779968262 6.316164970397949 0.10216094553470612
4.420968055725098 6.328985691070557 0.10174611955881119
4.395136833190918 6.319901943206787 0.10145348310470581
4.3743062019348145 6.318703651428223 0.10128387808799744
4.351945400238037 6.314362525939941 0.10074518620967865
4.342707633972168 6.32902717590332 0.10069136321544647
4.313868045806885 6.315875053405762 0.10033557564020157
4.293572902679443 6.31425666809082 0.09970267862081528
4.272771835327148 6.312371730804443 0.0995291918516159
4.262392520904541 6.325529098510742 0.09959494322538376
4.237171649932861 6.316346645355225 0.09884770214557648
4.216311454772949 6.314364433288574 0.09867643564939499
4.196907997131348 6.3136372566223145 0.09852764010429382
4.173932075500488 6.308006286621094 0.09830170124769211
4.158909797668457 6.313991546630859 0.09779755771160126
4.138224124908447 6.3110575675964355 0.09761921316385269
4.115887641906738 6.3060736656188965 0.0974072590470314
4.102754592895508 6.314801216125488 0.0969497337937355
4.08494758605957 6.316044807434082 0.09683801978826523
4.0700860023498535 6.3226447105407715 0.09680554270744324
4.039132118225098 6.303261756896973 0.09624099731445312
4.010143280029297 6.316423416137695 0.09586615115404129
3.993473768234253 6.319109916687012 0.09577984362840652
3.966740608215332 6.306600570678711 0.095007985830307
3.9572947025299072 6.320648193359375 0.09509493410587311
3.9370741844177246 6.317461967468262 0.09492408484220505
3.9206113815307617 6.321087837219238 0.09439738094806671
3.8995091915130615 6.316291332244873 0.0942055955529213
3.8653433322906494 6.320343017578125 0.09402220696210861
3.8532233238220215 6.330000877380371 0.09359461814165115
3.8257088661193848 6.315135478973389 0.0932532548904419
3.8107194900512695 6.319949626922607 0.09320825338363647
3.7910139560699463 6.317481994628906 0.09260337799787521
3.772980213165283 6.317374229431152 0.09248650074005127
3.7510504722595215 6.310365676879883 0.09226877987384796
3.741770029067993 6.325209617614746 0.09223224967718124
3.7224044799804688 6.3226470947265625 0.09176988899707794
3.7003188133239746 6.3150715827941895 0.09154918789863586
3.6844773292541504 6.318944931030273 0.09149139374494553
3.6687917709350586 6.322157859802246 0.0909809023141861
3.6463282108306885 6.314209938049316 0.09075437486171722
3.6307647228240967 6.317769527435303 0.09069694578647614
3.613043785095215 6.317242622375488 0.09044545888900757
3.5971972942352295 6.320829391479492 0.09007877111434937
3.5709574222564697 6.305123329162598 0.08974868059158325
3.5647642612457275 6.324760437011719 0.0897870808839798
3.5376858711242676 6.3081841468811035 0.08913800120353699
3.533832550048828 6.3320770263671875 0.0893704891204834
3.505521774291992 6.312094211578369 0.08885200321674347
3.492605209350586 6.3206095695495605 0.08856061846017838
3.473984718322754 6.317848205566406 0.08841980993747711
3.458098888397217 6.320901870727539 0.08835907280445099
3.442079544067383 6.322746276855469 0.08828509598970413
3.4174234867095947 6.308596134185791 0.08785522729158401
3.4023303985595703 6.312897682189941 0.08781352639198303
37.519676208496094 -0.8672212362289429 0.7785341143608093
36.93492126464844 -0.2336130142211914 0.7646492123603821
31.94198226928711 0.015004696324467659 0.567909836769104
31.886573791503906 0.08174066245555878 0.566925585269928
31.84319305419922 0.14906494319438934 0.5655725002288818
31.77694320678711 0.21528899669647217 0.5643970370292664
31.743871688842773 0.28094369173049927 0.5638250708580017
31.679250717163086 0.3474653959274292 0.5626844763755798
31.595027923583984 0.41270267963409424 0.5625482201576233
31.576587677001953 0.4780024290084839 0.5622389316558838
31.54144287109375 0.5442831516265869 0.5616273880004883
31.523944854736328 0.6100059747695923 0.5613424777984619
31.518966674804688 0.6753448247909546 0.5612707138061523
31.587902069091797 0.7443351149559021 0.56252521276474
31.261821746826172 1.1300694942474365 0.5563692450523376
31.101856231689453 1.2554619312286377 0.5522761344909668
31.06584358215332 1.3185863494873047 0.5516858100891113
30.977251052856445 1.4455437660217285 0.550214946269989
30.952198028564453 1.508752703666687 0.5498259663581848
30.914531707763672 1.573121190071106 0.5486461520195007
30.867847442626953 1.6349750757217407 0.5478765368461609
30.772628784179688 1.8239973783493042 0.5463792681694031
30.735361099243164 1.8871146440505981 0.5444749593734741
30.701040267944336 1.949536681175232 0.5459890365600586
30.65973663330078 2.0108039379119873 0.545322060585022
30.543155670166016 2.068127155303955 0.5420181155204773
30.508270263671875 2.1299426555633545 0.541488528251648
30.42229461669922 2.187389373779297 0.540031373500824
30.374357223510742 2.2491745948791504 0.5392654538154602
30.316204071044922 2.3081352710723877 0.5383238792419434
30.278961181640625 2.36850905418396 0.5377461314201355
30.226993560791016 2.4294214248657227 0.5363526344299316
30.178312301635742 2.4885501861572266 0.5355808734893799
30.11656379699707 2.5476815700531006 0.5345771312713623
30.04327392578125 2.6048450469970703 0.5320830941200256
30.005695343017578 2.6643340587615967 0.5315255522727966
29.957176208496094 2.7245383262634277 0.5307718515396118
29.90359878540039 2.7822465896606445 0.5299245715141296
29.860183715820312 2.842003345489502 0.5292584896087646
29.808059692382812 2.900028944015503 0.5278882384300232
29.75527572631836 2.9572386741638184 0.5270602107048035
29.719085693359375 3.0172150135040283 0.5265357494354248
29.688499450683594 3.0769214630126953 0.5248303413391113
29.639652252197266 3.1340413093566895 0.5240843296051025
29.58091926574707 3.191743850708008 0.5231611132621765
29.540451049804688 3.2494072914123535 0.5225638151168823
29.483802795410156 3.305114984512329 0.5216843485832214
29.462326049804688 3.366452217102051 0.5221525430679321
29.422807693481445 3.4238064289093018 0.5215712785720825
29.37636947631836 3.4814724922180176 0.5190666317939758
29.347206115722656 3.5403385162353516 0.5186900496482849
29.296167373657227 3.595876932144165 0.5179224014282227
29.251678466796875 3.653862953186035 0.5172674655914307
29.211496353149414 3.7104249000549316 0.5166926383972168
29.163124084472656 3.7657928466796875 0.515975296497345
29.12333869934082 3.8239245414733887 0.5154168605804443
29.085512161254883 3.880373477935791 0.5136343240737915
29.047061920166016 3.936612129211426 0.5125608444213867
28.999889373779297 3.9933252334594727 0.5118767023086548
28.960716247558594 4.049187660217285 0.5113369822502136
28.882179260253906 4.162293434143066 0.5102541446685791
28.82571792602539 4.215236663818359 0.5094084143638611
28.79283332824707 4.273271083831787 0.507211446762085
28.759075164794922 4.329275131225586 0.5067825317382812
28.667789459228516 4.439080238342285 0.5054954290390015
28.646610260009766 4.496693134307861 0.5052918791770935
28.538055419921875 4.602882385253906 0.5019495487213135
28.527427673339844 4.661928653717041 0.5019230246543884
28.499622344970703 4.719913959503174 0.5028479695320129
28.426607131958008 4.768451690673828 0.501198410987854
28.407596588134766 4.825894355773926 0.5010455846786499
28.378345489501953 4.883319854736328 0.5007156133651733
28.34143829345703 4.9375457763671875 0.4990139603614807
28.282970428466797 4.98909854888916 0.49817004799842834
28.254060745239258 5.045015811920166 0.4978441894054413
28.205120086669922 5.096696853637695 0.49664485454559326
28.18767547607422 5.155214786529541 0.4965340495109558
28.13153076171875 5.205835342407227 0.494509220123291
28.094867706298828 5.259373664855957 0.4940565824508667
28.031879425048828 5.309587001800537 0.49315395951271057
27.984973907470703 5.360884189605713 0.4925152063369751
27.958072662353516 5.415903091430664 0.4917178750038147
27.93993377685547 5.474340915679932 0.49159306287765503
27.873703002929688 5.521451950073242 0.48942723870277405
27.763328552246094 5.560718536376953 0.48769786953926086
27.504749298095703 5.56884765625 0.4833626449108124
27.30091094970703 5.586578369140625 0.4799831807613373
27.067232131958008 5.5990309715271 0.4755755066871643
26.8278865814209 5.607601165771484 0.47040367126464844
26.613327026367188 5.6216044425964355 0.4668470025062561
26.426008224487305 5.639855861663818 0.46376967430114746
26.175092697143555 5.643122673034668 0.45956510305404663
25.97457504272461 5.6574859619140625 0.4562535285949707
25.768508911132812 5.669137477874756 0.4528370797634125
25.575185775756836 5.682274341583252 0.4491630792617798
25.3485164642334 5.68876314163208 0.44428175687789917
25.15221405029297 5.699558734893799 0.4410431981086731
24.942455291748047 5.706470966339111 0.4375777840614319
24.73233413696289 5.714024543762207 0.43410056829452515
24.541057586669922 5.723505020141602 0.4304868280887604
24.126754760742188 5.734121322631836 0.4225740432739258
23.945688247680664 5.743612766265869 0.4196116030216217
23.57051658630371 5.7587080001831055 0.41300731897354126
23.3713321685791 5.7614641189575195 0.4086989164352417
23.177913665771484 5.766334056854248 0.4055311679840088
23.005126953125 5.774067401885986 0.40270596742630005
22.818340301513672 5.777547836303711 0.3996512293815613
22.648550033569336 5.786069393157959 0.3964613974094391
22.46881866455078 5.789849758148193 0.39253711700439453
22.135190963745117 5.803398132324219 0.3871309757232666
21.94464874267578 5.802138805389404 0.38400861620903015
21.798315048217773 5.813298225402832 0.38028788566589355
21.629549026489258 5.816394805908203 0.3775535821914673
21.466957092285156 5.82144832611084 0.37669461965560913
21.315292358398438 5.8282575607299805 0.37384331226348877
21.162555694580078 5.833720684051514 0.37044018507003784
21.0128173828125 5.840353488922119 0.36803770065307617
20.837310791015625 5.838596343994141 0.3651750087738037
20.691574096679688 5.8440985679626465 0.36283326148986816
20.552927017211914 5.8523759841918945 0.3593115210533142
20.39276885986328 5.852549076080322 0.3567260801792145
20.25179672241211 5.857606410980225 0.35447677969932556
20.113510131835938 5.864199638366699 0.3522707521915436
19.981658935546875 5.87077522277832 0.3489009141921997
19.829381942749023 5.871682167053223 0.34645646810531616
19.686738967895508 5.874303817749023 0.3441762924194336
19.573516845703125 5.884781837463379 0.34240996837615967
19.438831329345703 5.8892059326171875 0.3402840197086334
19.307266235351562 5.89350700378418 0.3369583785533905
19.169925689697266 5.895099639892578 0.33477047085762024
19.038896560668945 5.899353981018066 0.33270013332366943
18.915590286254883 5.904196739196777 0.33075952529907227
18.804595947265625 5.912404537200928 0.32782888412475586
18.685558319091797 5.918869972229004 0.32597121596336365
18.564189910888672 5.922842025756836 0.3240746259689331
18.418418884277344 5.919338226318359 0.32174181938171387
18.3115234375 5.927312850952148 0.3189203143119812
18.185548782348633 5.928256034851074 0.3188115656375885
18.081119537353516 5.936973571777344 0.3172045052051544
17.95977783203125 5.938446044921875 0.315291166305542
17.85564422607422 5.945992469787598 0.31333810091018677
17.74013328552246 5.948816299438477 0.3107289671897888
17.625999450683594 5.951262474060059 0.30894735455513
17.514083862304688 5.954824447631836 0.3072066009044647
17.42555046081543 5.965452194213867 0.30553188920021057
17.315093994140625 5.967811107635498 0.3030322194099426
17.191160202026367 5.966212749481201 0.30108189582824707
17.093963623046875 5.972254753112793 0.2996000051498413
16.985143661499023 5.973814487457275 0.2968043386936188
16.883697509765625 5.978694915771484 0.2952539920806885
16.771026611328125 5.977992534637451 0.29350146651268005
16.56886863708496 5.984697341918945 0.28932255506515503
16.48564338684082 5.9933390617370605 0.28808271884918213
16.280820846557617 5.996623516082764 0.28462496399879456
16.190879821777344 6.001682281494141 0.2825322151184082
16.101530075073242 6.007715702056885 0.2812045216560364
16.008363723754883 6.010828971862793 0.2797934412956238
15.903231620788574 6.009037971496582 0.27785244584083557
15.806055068969727 6.010937690734863 0.2756648063659668
15.711727142333984 6.012414455413818 0.2769109606742859
15.540773391723633 6.02215051651001 0.2733198404312134
15.438497543334961 6.019397258758545 0.2717452049255371
15.364505767822266 6.028391361236572 0.27036210894584656
15.27678108215332 6.03058385848999 0.2683439254760742
15.171184539794922 6.025318145751953 0.2667021155357361
15.071720123291016 6.023122310638428 0.2651790976524353
15.01744270324707 6.037602424621582 0.263455867767334
14.919191360473633 6.034834861755371 0.2619566321372986
14.847360610961914 6.041982650756836 0.2609158158302307
14.767168045043945 6.045097827911377 0.25875401496887207
14.68665885925293 6.04880428314209 0.2575710415840149
14.61141586303711 6.053310871124268 0.25646939873695374
14.525066375732422 6.052883148193359 0.2551729083061218
14.441542625427246 6.054317474365234 0.2529779076576233
14.355239868164062 6.053193092346191 0.25167927145957947
14.273171424865723 6.053504467010498 0.2504648268222809
14.177932739257812 6.048879146575928 0.2480713427066803
14.117820739746094 6.0578932762146 0.24724481999874115
14.046014785766602 6.062336444854736 0.2462117075920105
13.967035293579102 6.062970161437988 0.24504825472831726
13.88531494140625 6.061771869659424 0.24290858209133148
13.805705070495605 6.062163352966309 0.24286025762557983
13.74094009399414 6.067768573760986 0.24258238077163696
13.658651351928711 6.065333366394043 0.24107301235198975
13.587520599365234 6.068530082702637 0.23941537737846375
13.504217147827148 6.064970016479492 0.23816540837287903
13.442615509033203 6.070857048034668 0.23729988932609558
13.372613906860352 6.073670387268066 0.236019566655159
13.300853729248047 6.074404716491699 0.23435360193252563
13.224325180053711 6.073334217071533 0.23323434591293335
13.163131713867188 6.0786356925964355 0.232109934091568
13.10127067565918 6.083086013793945 0.23062671720981598
13.028322219848633 6.083080291748047 0.22957095503807068
12.950584411621094 6.079549312591553 0.22815531492233276
12.890271186828613 6.08458137512207 0.22671453654766083
12.817240715026855 6.0829572677612305 0.22565311193466187
12.752510070800781 6.084693431854248 0.22447265684604645
12.673174858093262 6.0801100730896 0.22270727157592773
12.6163969039917 6.085109710693359 0.22193029522895813
12.554069519042969 6.087192535400391 0.22079643607139587
12.489749908447266 6.08899450302124 0.2193032056093216
12.420402526855469 6.087119102478027 0.21830734610557556
12.359600067138672 6.0891618728637695 0.21746017038822174
12.295796394348145 6.090404033660889 0.2157285213470459
12.234556198120117 6.091721057891846 0.2148742377758026
12.117777824401855 6.097395896911621 0.2146061360836029
12.051502227783203 6.095420837402344 0.2136552482843399
11.993350982666016 6.09821891784668 0.21260394155979156
11.933211326599121 6.098838806152344 0.21119283139705658
11.863926887512207 6.094513416290283 0.21018913388252258
11.811779975891113 6.099650859832764 0.20925025641918182
11.750868797302246 6.099117755889893 0.20783236622810364
11.686762809753418 6.096663475036621 0.2069210708141327
11.636699676513672 6.102206230163574 0.2060195803642273
11.57480525970459 6.100407600402832 0.2045937478542328
11.518270492553711 6.101813316345215 0.20382119715213776
11.454009056091309 6.098517417907715 0.20266854763031006
11.420742988586426 6.111258029937744 0.20175528526306152
11.345294952392578 6.102097034454346 0.20065203309059143
11.309043884277344 6.112890243530273 0.19999796152114868
11.244688034057617 6.108909606933594 0.1985422819852829
11.179457664489746 6.103822231292725 0.1976156234741211
11.132140159606934 6.108008861541748 0.1962275207042694
11.0796480178833 6.110037803649902 0.19553163647651672
11.029816627502441 6.1124420166015625 0.19487740099430084
10.98775577545166 6.118971824645996 0.1935894787311554
10.928475379943848 6.116581916809082 0.19277429580688477
10.876049995422363 6.11691427230835 0.19207285344600677
10.831939697265625 6.121728420257568 0.1914532333612442
10.772382736206055 6.118468761444092 0.19168323278427124
10.71506118774414 6.115355491638184 0.1903643012046814
10.661855697631836 6.114958763122559 0.18942059576511383
10.623457908630371 6.122531414031982 0.18844544887542725
10.563775062561035 6.117372512817383 0.18738439679145813
10.510594367980957 6.116596698760986 0.18667247891426086
10.470186233520508 6.122201919555664 0.18566320836544037
10.426647186279297 6.125814437866211 0.18489216268062592
10.373302459716797 6.124319553375244 0.18417757749557495
10.33747673034668 6.132133483886719 0.18325704336166382
10.285795211791992 6.130368232727051 0.18234485387802124
10.236857414245605 6.130875110626221 0.1817086935043335
10.1860990524292 6.129230976104736 0.1805286705493927
10.14081859588623 6.1306843757629395 0.17973151803016663
10.088926315307617 6.128780841827393 0.1785406470298767
10.025696754455566 6.118888854980469 0.17742589116096497
10.009718894958496 6.138524055480957 0.1773766577243805
9.95318603515625 6.1323137283325195 0.17610305547714233
9.896069526672363 6.125491619110107 0.17510083317756653
9.855108261108398 6.129293918609619 0.1746075302362442
9.817893981933594 6.134441375732422 0.17368149757385254
9.737546920776367 6.141408920288086 0.1720140129327774
9.688081741333008 6.138349533081055 0.1715773493051529
9.632366180419922 6.131925106048584 0.17130763828754425
9.6033935546875 6.1415228843688965 0.1708071529865265
9.555563926696777 6.138912200927734 0.16969864070415497
9.51101016998291 6.139032363891602 0.16914129257202148
9.460145950317383 6.134049415588379 0.16825193166732788
9.433027267456055 6.144308090209961 0.1675199270248413
9.381169319152832 6.139112949371338 0.16683019697666168
9.339201927185059 6.13936710357666 0.1656278371810913
9.254193305969238 6.1394548416137695 0.16437086462974548
9.22597599029541 6.148345947265625 0.16362550854682922
9.17943286895752 6.145687103271484 0.16303272545337677
9.147838592529297 6.152065277099609 0.1620262712240219
9.098230361938477 6.14616060256958 0.16137287020683289
9.071457862854004 6.156337738037109 0.16092681884765625
9.02214241027832 6.15025520324707 0.15981483459472656
8.989487648010254 6.155357360839844 0.1594618558883667
8.940559387207031 6.149949550628662 0.15862590074539185
8.909102439880371 6.155585765838623 0.1578328013420105
8.859780311584473 6.149267673492432 0.1571894735097885
8.828545570373535 6.155017375946045 0.15620644390583038
8.778276443481445 6.147082328796387 0.15554207563400269
8.758102416992188 6.160880088806152 0.15476396679878235
8.714515686035156 6.157292366027832 0.15441668033599854
8.671690940856934 6.154052734375 0.15413717925548553
8.631455421447754 6.153266429901123 0.15320546925067902
8.601191520690918 6.158651828765869 0.15289589762687683
8.565560340881348 6.160860538482666 0.15230011940002441
8.521955490112305 6.156371593475342 0.1513051837682724
8.485389709472656 6.156794548034668 0.15068677067756653
8.447525978088379 6.156909942626953 0.14980407059192657
8.414875030517578 6.159891605377197 0.14945104718208313
