VERSION .7
FIELDS x y z
SIZE 4 4 4
TYPE F F F
COUNT 1 1 1
WIDTH 836
HEIGHT 1
VIEWPOINT 0 0 0 1 0 0 0
POINTS 836
DATA ascii
3.455605983734131 6.012981414794922 0.01882828399538994
3.433724880218506 6.00425910949707 0.019203417003154755
3.4235944747924805 6.015782356262207 0.019214067608118057
3.4009947776794434 6.005025863647461 0.019159676507115364
3.3894362449645996 6.014239311218262 0.01931402087211609
3.372515916824341 6.013662815093994 0.019563553854823112
3.356158494949341 6.0137128829956055 0.019537484273314476
3.3440916538238525 6.022286891937256 0.019542062655091286
3.3258519172668457 6.018834114074707 0.01993045210838318
3.3102574348449707 6.020651817321777 0.019915111362934113
3.296144962310791 6.024874210357666 0.01990215852856636
3.2778828144073486 6.021134376525879 0.0201400313526392
3.2620229721069336 6.0226030349731445 0.02026936784386635
3.2450857162475586 6.0211358070373535 0.020510705187916756
17.79491424560547 -11.256122589111328 0.03060108795762062
18.596176147460938 -11.170793533325195 0.028025196865200996
18.814350128173828 -11.141494750976562 0.028250735253095627
22.468042373657227 -10.69964599609375 0.019555918872356415
22.77008819580078 -10.668396949768066 0.018226487562060356
23.06272315979004 -10.629207611083984 0.017953887581825256
23.360408782958984 -10.588865280151367 0.017121538519859314
23.560379028320312 -10.560127258300781 0.01667660102248192
25.932357788085938 -9.22158432006836 0.007815231569111347
25.72492218017578 -8.966050148010254 0.0060728928074240685
25.63736915588379 -8.634783744812012 0.007176765240728855
25.646774291992188 -8.578726768493652 0.005521073006093502
18.397607803344727 -5.939933776855469 0.003958703018724918
18.395458221435547 -5.811795234680176 0.0027723945677280426
18.336936950683594 -5.66677188873291 0.0027581006288528442
18.316787719726562 -5.534640789031982 0.0015819284599274397
18.239835739135742 -4.239500045776367 7.39388051442802e-05
18.67594337463379 -4.21729040145874 7.317645940929651e-05
19.680288314819336 -4.31423807144165 -0.000357575889211148
20.04509925842285 -4.2623186111450195 -0.0011720225447788835
22.96613883972168 -4.782330513000488 -0.0014934828504920006
22.806020736694336 -4.699618816375732 -0.0014999530976638198
22.869300842285156 -4.612353801727295 -0.001940468093380332
23.80489730834961 -4.749744415283203 -0.0029049927834421396
21.310630798339844 -4.158847332000732 -0.002565135480836034
21.28837776184082 -4.108663558959961 -0.0025604639668017626
21.27755355834961 -3.9679946899414062 -0.0025562539231032133
22.71127700805664 -2.480942726135254 -0.0027888650074601173
22.69247055053711 -2.431246280670166 -0.0027859301771968603
22.672714233398438 -2.332592010498047 -0.003691405290737748
22.642009735107422 -2.281958818435669 -0.004166878294199705
22.624469757080078 -2.1839826107025146 -0.004161920864135027
22.598596572875977 -2.1341614723205566 -0.004156337585300207
22.56967544555664 -2.0355701446533203 -0.0041494048200547695
22.536317825317383 -1.9854223728179932 -0.004142506048083305
22.493572235107422 -1.8862265348434448 -0.0032334786374121904
22.48194122314453 -1.8382766246795654 -0.003231083508580923
22.449087142944336 -1.740447998046875 -0.0037022563628852367
22.42919921875 -1.6920881271362305 -0.0036978409625589848
22.393115997314453 -1.5945518016815186 -0.003690620418637991
22.383167266845703 -1.5471662282943726 -0.0036894059740006924
22.340269088745117 -1.4496937990188599 -0.0036810371093451977
22.28973388671875 -1.305753231048584 -0.004561414942145348
14.149197578430176 4.544045925140381 -0.10153327137231827
13.58170223236084 4.614656925201416 -0.09743773937225342
13.372823715209961 4.637662887573242 -0.09614627063274384
11.23844051361084 4.9040422439575195 -0.0825447142124176
11.081204414367676 4.918586730957031 -0.08092037588357925
10.981704711914062 4.929887294769287 -0.08034436404705048
10.925593376159668 4.93196439743042 -0.08000878989696503
10.846996307373047 4.951579570770264 -0.07958512753248215
10.713130950927734 4.972090721130371 -0.0788307785987854
10.55422592163086 4.979220390319824 -0.07789020985364914
10.421182632446289 4.996789455413818 -0.0766824260354042
9.276334762573242 5.138704299926758 -0.06887742877006531
9.175155639648438 5.15830135345459 -0.06836508214473724
9.088737487792969 5.160209655761719 -0.06706009060144424
9.062848091125488 5.17041015625 -0.06717187166213989
8.977716445922852 5.1720781326293945 -0.06670303642749786
8.948022842407227 5.1797332763671875 -0.06656289845705032
8.873790740966797 5.186778545379639 -0.06595015525817871
8.842619895935059 5.193207740783691 -0.06539493799209595
8.785184860229492 5.209360599517822 -0.06512854993343353
8.732486724853516 5.202634811401367 -0.06482146680355072
8.667702674865723 5.213623523712158 -0.06449978053569794
8.56145191192627 5.223288059234619 -0.0639546662569046
8.45212173461914 5.229781627655029 -0.06316811591386795
8.353851318359375 5.242136478424072 -0.0622902438044548
7.760790824890137 5.312844753265381 -0.058088518679142
7.7003374099731445 5.318776607513428 -0.057798389345407486
7.677776336669922 5.327210426330566 -0.05771490931510925
7.618555068969727 5.333343505859375 -0.0574365109205246
7.579169750213623 5.329687595367432 -0.05702535808086395
7.549059867858887 5.3322062492370605 -0.05651691555976868
7.512578964233398 5.329840183258057 -0.055966634303331375
7.497992515563965 5.3433637619018555 -0.05593898892402649
7.46976375579834 5.346899032592773 -0.05581134557723999
7.431469917297363 5.343291759490967 -0.05561047047376633
7.410924434661865 5.351883888244629 -0.055178143084049225
7.376814842224121 5.350821018218994 -0.05501152575016022
7.353140830993652 5.357414245605469 -0.0549166277050972
7.318717002868652 5.355619430541992 -0.05474724993109703
7.265419006347656 5.36374568939209 -0.05431893840432167
7.236029148101807 5.365527153015137 -0.05417883023619652
7.189481735229492 5.377843379974365 -0.053997304290533066
7.158804416656494 5.378342628479004 -0.05385306477546692
7.112432479858398 5.390271186828613 -0.053320154547691345
7.078588485717773 5.388025760650635 -0.05315394699573517
7.0206146240234375 5.390745162963867 -0.05270009487867355
6.537604331970215 5.44736385345459 -0.049104854464530945
6.493582725524902 5.457180976867676 -0.04894720017910004
6.466721534729004 5.457544326782227 -0.048828620463609695
6.413388252258301 5.45894718170166 -0.048263680189847946
6.38916015625 5.46122932434082 -0.0479886494576931
6.366603851318359 5.465529441833496 -0.04790674149990082
6.334322929382324 5.460690498352051 -0.04774820804595947
6.319535255432129 5.471279144287109 -0.047724656760692596
6.285615921020508 5.46501350402832 -0.0475589856505394
6.2683868408203125 5.472917079925537 -0.04715050756931305
6.239026069641113 5.470575332641602 -0.046690188348293304
6.218142509460449 5.475369453430176 -0.046618830412626266
6.201445579528809 5.483556270599365 -0.04657919704914093
6.173891067504883 5.482497215270996 -0.046461071819067
6.15661096572876 5.490284442901611 -0.04641897231340408
6.122315883636475 5.482552528381348 -0.04606526717543602
6.100667953491211 5.486694812774658 -0.04599341005086899
6.08389949798584 5.494494915008545 -0.04594826698303223
6.058530807495117 5.494889259338379 -0.04552227258682251
6.034811019897461 5.496482849121094 -0.04543265327811241
6.010890960693359 5.497561454772949 -0.045336849987506866
5.991264343261719 5.502923011779785 -0.045275408774614334
5.968514442443848 5.505144119262695 -0.045018501579761505
5.94746208190918 5.508612155914307 -0.044944554567337036
5.924510955810547 5.5109148025512695 -0.04485978186130524
5.9056782722473145 5.516300678253174 -0.04480326920747757
5.836723327636719 5.521005630493164 -0.04422833025455475
5.769163131713867 5.526232719421387 -0.043803662061691284
5.4659423828125 5.553162097930908 -0.04160597547888756
5.448734760284424 5.558706283569336 -0.041563231498003006
5.411436080932617 5.567365646362305 -0.04145536571741104
5.3866167068481445 5.564889907836914 -0.04118601232767105
5.366203308105469 5.567112445831299 -0.040814146399497986
5.346533298492432 5.570231914520264 -0.040754061192274094
5.3264970779418945 5.572457790374756 -0.040690645575523376
5.305234909057617 5.574005126953125 -0.04061777889728546
5.282248497009277 5.572966575622559 -0.040531791746616364
5.261378288269043 5.574069976806641 -0.0402926504611969
5.247404098510742 5.583110809326172 -0.040276914834976196
5.220859050750732 5.578017711639404 -0.039696596562862396
5.201296806335449 5.580284118652344 -0.03963432461023331
5.186432838439941 5.588223934173584 -0.039611320942640305
5.161999702453613 5.585097789764404 -0.0393509604036808
5.149321556091309 5.5948710441589355 -0.03934304788708687
5.1213555335998535 5.588154315948486 -0.0392187163233757
5.110097885131836 5.599153518676758 -0.03922097384929657
5.083014965057373 5.593428134918213 -0.03881101310253143
5.061212062835693 5.592710971832275 -0.03873196989297867
5.04401159286499 5.597005844116211 -0.038688670843839645
5.030785083770752 5.606366157531738 -0.03851422667503357
5.007979393005371 5.604304313659668 -0.038429420441389084
4.984638214111328 5.601779937744141 -0.03834139555692673
4.967953681945801 5.606860160827637 -0.038302741944789886
4.955341815948486 5.616063594818115 -0.0379972904920578
4.9325852394104 5.613955497741699 -0.037916358560323715
4.90822696685791 5.610113143920898 -0.03765869140625
4.9013142585754395 5.625973224639893 -0.03769528493285179
4.855820655822754 5.621131420135498 -0.03752690553665161
4.8380913734436035 5.624405384063721 -0.03748074546456337
4.802196979522705 5.630221366882324 -0.036931656301021576
4.738698959350586 5.627286911010742 -0.03655935823917389
4.689523696899414 5.640481472015381 -0.03616257756948471
4.622058868408203 5.630972862243652 -0.03575768321752548
4.593448638916016 5.6444220542907715 -0.03572086617350578
4.57614803314209 5.647514343261719 -0.035392358899116516
4.539235591888428 5.649988651275635 -0.03528594598174095
4.52402400970459 5.6555070877075195 -0.035105980932712555
4.508686542510986 5.660624980926514 -0.03507868945598602
4.491253852844238 5.662813186645508 -0.03503520414233208
4.474759101867676 5.666585922241211 -0.03471412882208824
4.4536333084106445 5.664212226867676 -0.03464267775416374
4.446632385253906 5.679525375366211 -0.034523412585258484
4.421689510345459 5.672338008880615 -0.03442295640707016
4.404720306396484 5.675070762634277 -0.03438287600874901
4.384056568145752 5.673173904418945 -0.03431537374854088
4.363495826721191 5.670851707458496 -0.033964604139328
4.340373992919922 5.665340900421143 -0.03387707844376564
4.32612419128418 5.671544075012207 -0.03370463848114014
4.309891700744629 5.674900054931641 -0.033673323690891266
4.2989397048950195 5.685400009155273 -0.03368046507239342
4.271677494049072 5.673780918121338 -0.03340586647391319
4.256023406982422 5.677725791931152 -0.033095039427280426
4.244045734405518 5.686764240264893 -0.03309592977166176
4.23020601272583 5.692828178405762 -0.03307967260479927
4.211862564086914 5.693037986755371 -0.03302988037467003
4.195703029632568 5.69635009765625 -0.032843828201293945
4.174250602722168 5.6921820640563965 -0.032770294696092606
4.163642406463623 5.702493667602539 -0.03250160813331604
4.139164447784424 5.694212913513184 -0.0324045866727829
4.119815826416016 5.692654609680176 -0.032347727566957474
4.104434490203857 5.696725368499756 -0.032320186495780945
4.100012302398682 5.715819358825684 -0.03222687169909477
4.078357696533203 5.710615158081055 -0.03187362477183342
4.064058303833008 5.71611213684082 -0.03185543417930603
4.037713050842285 5.704346656799316 -0.03174234926700592
4.030162811279297 5.718809127807617 -0.03177593648433685
4.006122589111328 5.710301876068115 -0.0315324068069458
3.9894893169403076 5.712030410766602 -0.031494613736867905
3.9799399375915527 5.723623275756836 -0.031238678842782974
3.9532716274261475 5.711261749267578 -0.031125549226999283
3.9434142112731934 5.722359657287598 -0.03114207461476326
3.9072391986846924 5.721285820007324 -0.030622821301221848
3.89340877532959 5.726513862609863 -0.030456673353910446
3.858675718307495 5.727153778076172 -0.03037436679005623
3.821932315826416 5.724497318267822 -0.030002610757946968
3.8158206939697266 5.741106986999512 -0.02989908494055271
3.775789499282837 5.7331061363220215 -0.02977442741394043
3.7657833099365234 5.743826866149902 -0.029789229854941368
3.7417361736297607 5.733823776245117 -0.029427479952573776
3.724777936935425 5.733800411224365 -0.029238181188702583
3.711393117904663 5.739232063293457 -0.029227573424577713
3.698561191558838 5.746272087097168 -0.029222683981060982
3.6821889877319336 5.747006416320801 -0.02918778918683529
3.6614115238189697 5.741268157958984 -0.028850901871919632
3.651293992996216 5.75197172164917 -0.028718695044517517
3.6301066875457764 5.744909286499023 -0.028645500540733337
3.616428852081299 5.750153541564941 -0.02863375097513199
3.603623390197754 5.756540298461914 -0.028627213090658188
3.5919899940490723 5.764520645141602 -0.028361087664961815
3.568635940551758 5.754392623901367 -0.0281281266361475
3.556084632873535 5.760809898376465 -0.028124291449785233
3.537525177001953 5.757440567016602 -0.02780504897236824
3.5232362747192383 5.761744499206543 -0.0277884379029274
3.501974105834961 5.753766059875488 -0.02730313315987587
3.486964225769043 5.756478309631348 -0.0272817425429821
3.4831247329711914 5.77744197845459 -0.027346868067979813
3.468186140060425 5.779755115509033 -0.027323633432388306
3.44512677192688 5.769225120544434 -0.027238665148615837
3.4280834197998047 5.7678422927856445 -0.026790043339133263
3.4165658950805664 5.77571964263916 -0.02679155394434929
3.3967013359069824 5.770233631134033 -0.026733199134469032
3.3850977420806885 5.777915000915527 -0.026735801249742508
3.370241641998291 5.78083610534668 -0.026572775095701218
3.3508710861206055 5.775120258331299 -0.02625073865056038
3.3352723121643066 5.775815486907959 -0.026223089545965195
14.103798866271973 5.123807430267334 0.02112327516078949
13.55002212524414 5.1816792488098145 0.020992077887058258
11.353630065917969 5.38519287109375 0.01894920878112316
11.279905319213867 5.378925800323486 0.019831305369734764
11.194978713989258 5.396412372589111 0.01945335790514946
11.133105278015137 5.395087242126465 0.019365079700946808
11.03528881072998 5.405190467834473 0.019234267994761467
10.944243431091309 5.417863845825195 0.01911565102636814
10.89352035522461 5.420929431915283 0.019046643748879433
9.454028129577637 5.552285194396973 0.019129496067762375
9.328041076660156 5.557455062866211 0.018943486735224724
9.210761070251465 5.566335678100586 0.019201096147298813
9.16600227355957 5.565287113189697 0.019554542377591133
9.094677925109863 5.5745368003845215 0.01945074088871479
9.061753273010254 5.580260276794434 0.019827816635370255
9.030722618103027 5.58779239654541 0.019782638177275658
8.990765571594238 5.588903903961182 0.01972234807908535
8.956086158752441 5.593145370483398 0.019669171422719955
8.916598320007324 5.594997406005859 0.019609475508332253
8.87623405456543 5.595376491546631 0.019546356052160263
8.851242065429688 5.60532283782959 0.01951775886118412
8.774459838867188 5.608609199523926 0.019399050623178482
8.665863990783691 5.616244316101074 0.01986817643046379
7.868435859680176 5.681808948516846 0.020029418170452118
7.7694993019104 5.685018539428711 0.02045588381588459
7.682345390319824 5.69621467590332 0.020322665572166443
7.653549671173096 5.699515342712402 0.02027624472975731
7.620630264282227 5.699880599975586 0.020222321152687073
7.590338706970215 5.702293395996094 0.020172033458948135
7.561960220336914 5.705560207366943 0.02107933908700943
7.5403056144714355 5.714073181152344 0.021054519340395927
7.49245548248291 5.702794075012207 0.020954083651304245
7.46451473236084 5.706029891967773 0.020905274897813797
7.447009086608887 5.717427730560303 0.020893771201372147
7.412346839904785 5.715769290924072 0.02082671970129013
7.384746551513672 5.718963146209717 0.0207831934094429
7.318965911865234 5.717490196228027 0.021028827875852585
7.2990641593933105 5.726629734039307 0.021010346710681915
7.24002742767334 5.729479789733887 0.02110898867249489
7.213491439819336 5.733119010925293 0.021064894273877144
7.15626335144043 5.73697566986084 0.020967131480574608
7.131756782531738 5.741682052612305 0.020935215055942535
7.076357841491699 5.746366500854492 0.02103988081216812
6.99160099029541 5.750852584838867 0.021248135715723038
6.5946807861328125 5.781965255737305 0.02219517156481743
6.526792526245117 5.795418739318848 0.022085830569267273
6.450906753540039 5.800973415374756 0.021953536197543144
6.415724754333496 5.79346227645874 0.022400163114070892
6.395783424377441 5.800306797027588 0.022376514971256256
6.376433372497559 5.806919097900391 0.022348478436470032
6.3494181632995605 5.806926250457764 0.022297915071249008
6.317113399505615 5.801752090454102 0.02222694456577301
6.299715995788574 5.8099212646484375 0.022208280861377716
6.275069236755371 5.811793327331543 0.022533521056175232
6.245150566101074 5.808459758758545 0.022807428613305092
6.2207112312316895 5.80985164642334 0.022759338840842247
6.200061798095703 5.815162181854248 0.022733308374881744
6.185237407684326 5.82568359375 0.022720467299222946
6.1524553298950195 5.819407939910889 0.022828323766589165
6.121872901916504 5.814849376678467 0.02275764010846615
6.110382080078125 5.828104019165039 0.022763196378946304
6.0808024406433105 5.824496269226074 0.022696902975440025
6.056967735290527 5.826067924499512 0.022654719650745392
6.035268783569336 5.829356670379639 0.022947510704398155
6.011902332305908 5.831663608551025 0.022907212376594543
5.981689453125 5.826497554779053 0.02301896922290325
5.957926273345947 5.8274946212768555 0.022972924634814262
5.93082332611084 5.825827121734619 0.022915590554475784
5.914400100708008 5.833861351013184 0.022903311997652054
5.875247001647949 5.84426212310791 0.023169349879026413
5.851056098937988 5.844405174255371 0.023305529728531837
5.799829006195068 5.84223747253418 0.023193957284092903
5.779593467712402 5.846067905426025 0.02316005527973175
5.714360237121582 5.8532304763793945 0.023224104195833206
5.542587757110596 5.871992111206055 0.023593641817569733
5.470733165740967 5.869352340698242 0.023761846125125885
5.412574291229248 5.880646228790283 0.02384205348789692
5.396565914154053 5.887726783752441 0.023824673146009445
5.372464179992676 5.886162757873535 0.024086032062768936
5.344493389129639 5.880443572998047 0.024019790813326836
5.323176383972168 5.881464004516602 0.02397499792277813
5.306710243225098 5.888504981994629 0.023956481367349625
5.286280632019043 5.8903703689575195 0.02409364841878414
5.266341209411621 5.892707347869873 0.024058477953076363
5.244307994842529 5.893342971801758 0.02432425692677498
5.21937894821167 5.889895439147949 0.024266039952635765
5.199166774749756 5.8916730880737305 0.0243985615670681
5.183986186981201 5.8998260498046875 0.02455609291791916
5.162769317626953 5.900329113006592 0.024513866752386093
5.143321990966797 5.903034210205078 0.0244821235537529
5.120291233062744 5.901751518249512 0.024430163204669952
5.102557182312012 5.906027317047119 0.024406060576438904
5.079865455627441 5.905215263366699 0.02466128021478653
5.055466651916504 5.901580333709717 0.024771377444267273
5.037750244140625 5.905918121337891 0.02474517747759819
5.019921779632568 5.910284519195557 0.02471950463950634
4.999611854553223 5.911190032958984 0.02467850036919117
4.9764814376831055 5.909398555755615 0.024627145379781723
4.960142135620117 5.914864540100098 0.024912556633353233
4.940284252166748 5.916077136993408 0.025041308254003525
4.918035507202148 5.915071487426758 0.02499082311987877
4.90690803527832 5.926663398742676 0.024998478591442108
4.8871283531188965 5.928034782409668 0.024958308786153793
4.864286422729492 5.9258131980896 0.024907538667321205
4.842259883880615 5.924004077911377 0.024857835844159126
4.819824695587158 5.9218549728393555 0.025271520018577576
4.7837724685668945 5.928119659423828 0.02521437406539917
4.722927093505859 5.928860664367676 0.025251563638448715
4.671016693115234 5.939938545227051 0.025473324581980705
4.6369242668151855 5.947967529296875 0.02558637410402298
4.610205173492432 5.939069747924805 0.02550666034221649
4.5825934410095215 5.955106735229492 0.02578721195459366
4.524570941925049 5.956816673278809 0.025833822786808014
4.468761444091797 5.9607696533203125 0.026021283119916916
4.447495460510254 5.958615303039551 0.026133351027965546
4.425986289978027 5.955809593200684 0.026080820709466934
4.412286758422852 5.963675498962402 0.02607364021241665
4.388758659362793 5.9576921463012695 0.02600611001253128
4.374009132385254 5.963817596435547 0.0262858085334301
4.352433204650879 5.960789680480957 0.026391826570034027
4.3437581062316895 5.9749040603637695 0.0264148972928524
4.321512222290039 5.970585823059082 0.026353687047958374
4.3030242919921875 5.971588134765625 0.026318736374378204
4.276284694671631 5.960792064666748 0.026390155777335167
4.26392126083374 5.970172882080078 0.02668096125125885
4.249931812286377 5.976770401000977 0.02666986919939518
4.2279791831970215 5.97237491607666 0.0266110897064209
4.2088117599487305 5.972038269042969 0.026727911084890366
4.1963300704956055 5.980921268463135 0.02672821655869484
4.169857025146484 5.969498634338379 0.026638373732566833
4.1662139892578125 5.991231918334961 0.02698493003845215
4.14438009262085 5.986574172973633 0.02692243829369545
4.1336894035339355 5.997688293457031 0.02693510800600052
4.109462738037109 5.9896039962768555 0.027016017585992813
4.090514183044434 5.988866806030273 0.026975048705935478
4.0678486824035645 5.982806205749512 0.027192477136850357
4.063541889190674 6.003507614135742 0.027250345796346664
4.0411529541015625 5.9972028732299805 0.027181755751371384
4.025455474853516 6.0012526512146 0.027318637818098068
4.001764297485352 5.993058204650879 0.02724270522594452
3.9893994331359863 6.001470565795898 0.027528874576091766
3.973994255065918 6.005805015563965 0.027508307248353958
3.9567599296569824 6.007091522216797 0.027477502822875977
3.918431282043457 6.003790855407715 0.02754123881459236
3.902017116546631 6.005833625793457 0.027513254433870316
3.8690085411071777 6.010282516479492 0.027893822640180588
3.847360610961914 6.003992557525635 0.027828749269247055
3.830317974090576 6.005599498748779 0.02807755209505558
3.8187994956970215 6.015035152435303 0.028239749372005463
3.8024730682373047 6.016878128051758 0.028210382908582687
3.7793283462524414 6.008639335632324 0.028134364634752274
3.771573781967163 6.024011611938477 0.02816973626613617
3.7285830974578857 6.011487007141113 0.02846815064549446
3.7195985317230225 6.02487850189209 0.028495922684669495
3.6839799880981445 6.02379035949707 0.028418652713298798
3.668642997741699 6.02677583694458 0.028673650696873665
3.6560614109039307 6.035097122192383 0.028828628361225128
3.6373488903045654 6.0324201583862305 0.02877957932651043
3.6209793090820312 6.0335516929626465 0.028749980032444
3.5987470149993896 6.025642395019531 0.02867460995912552
3.5891029834747314 6.0379228591918945 0.028974877670407295
3.5757172107696533 6.044468402862549 0.029121730476617813
3.561048746109009 6.048578262329102 0.029105987399816513
3.5405519008636475 6.0424089431762695 0.029039770364761353
3.5264368057250977 6.0479021072387695 0.029030414298176765
3.5055294036865234 6.040820121765137 0.02923738956451416
3.4832398891448975 6.031755447387695 0.029308056458830833
3.475764274597168 6.04805850982666 0.029626641422510147
3.4611423015594482 6.051650047302246 0.02960837259888649
3.439713954925537 6.044106483459473 0.029686259105801582
3.4220995903015137 6.042289733886719 0.029915280640125275
3.409341335296631 6.049002647399902 0.029912644997239113
3.396178722381592 6.055856704711914 0.029912244528532028
3.3772025108337402 6.051420211791992 0.02985595166683197
3.360339403152466 6.0506768226623535 0.029967041686177254
3.3477487564086914 6.0584611892700195 0.030242525041103363
3.3350610733032227 6.06519889831543 0.030243387445807457
3.315671443939209 6.06056547164917 0.03018416464328766
3.300614595413208 6.06289005279541 0.030160844326019287
3.277305841445923 6.049937725067139 0.030210305005311966
3.2671618461608887 6.062097549438477 0.030510053038597107
14.399007797241211 5.063554763793945 0.01188487745821476
14.162973403930664 5.0808210372924805 0.012313878163695335
13.813116073608398 5.119610786437988 0.011473008431494236
13.592479705810547 5.135252475738525 0.011318037286400795
13.385042190551758 5.153270244598389 0.010862655937671661
13.188833236694336 5.173165321350098 0.010729538276791573
11.197701454162598 5.342244625091553 0.00886412151157856
11.054852485656738 5.359668254852295 0.008776867762207985
10.919059753417969 5.378871917724609 0.008696058765053749
10.775788307189941 5.392739295959473 0.008349326439201832
10.717750549316406 5.391533851623535 0.00831352174282074
10.675360679626465 5.398818016052246 0.008289366960525513
10.615335464477539 5.396152973175049 0.007781106512993574
10.585474014282227 5.408646106719971 0.007767505012452602
10.528066635131836 5.407706260681152 0.0077337101101875305
10.484573364257812 5.412893772125244 0.007709570229053497
10.391180992126465 5.420225143432617 0.007657788693904877
10.34127140045166 5.4215192794799805 0.00762989092618227
8.989666938781738 5.537650108337402 0.005383031442761421
8.869471549987793 5.540826320648193 0.005332247354090214
8.75609016418457 5.5473127365112305 0.005061237141489983
8.728710174560547 5.55538272857666 0.0050520626828074455
8.6439847946167 5.552746772766113 0.004611336626112461
8.623522758483887 5.564916133880615 0.004606546834111214
8.58049201965332 5.562665939331055 0.004589778371155262
8.54439926147461 5.564964771270752 0.004576938692480326
8.515942573547363 5.571633338928223 0.0045679290778934956
8.474872589111328 5.570174694061279 0.004551739431917667
8.43759822845459 5.571260452270508 0.004538447596132755
8.394454956054688 5.567823886871338 0.004521318711340427
8.33310317993164 5.57780647277832 0.004500811919569969
8.29146957397461 5.575148582458496 0.0038746315985918045
8.23133659362793 5.584936618804932 0.0038576910737901926
8.208646774291992 5.594714164733887 0.0038523892872035503
8.143299102783203 5.600286960601807 0.0038326478097587824
8.098823547363281 5.59475040435791 0.0034295793157070875
8.04716968536377 5.609275817871094 0.0034176004119217396
7.999842643737793 5.600990295410156 0.0034026303328573704
7.936827659606934 5.606828689575195 0.0033849840983748436
7.270049095153809 5.655989646911621 0.0017204885371029377
7.209770202636719 5.657994270324707 0.0017131748609244823
7.1879987716674805 5.665050506591797 0.001710523385554552
7.1212592124938965 5.661232948303223 0.0015045253094285727
7.09768009185791 5.66656494140625 0.0015022563748061657
7.043038368225098 5.671672821044922 0.0014953587669879198
7.009923934936523 5.6690263748168945 0.0011350783752277493
6.94679069519043 5.666525363922119 0.001129245851188898
6.935649871826172 5.6819047927856445 0.0011285359505563974
6.902789115905762 5.679213523864746 0.0011258978629484773
6.876622200012207 5.681656360626221 0.0011227610521018505
6.8433637619018555 5.678569316864014 0.00041970243910327554
6.818886756896973 5.682443618774414 0.00022598612122237682
6.791848182678223 5.683835029602051 0.0002254635328426957
6.761404514312744 5.682961940765381 0.00022474222350865602
6.731598377227783 5.681788444519043 0.00022531236754730344
6.710453987121582 5.688283920288086 0.00022420103778131306
6.69028377532959 5.695338249206543 0.00022376037668436766
6.654195785522461 5.688475131988525 0.000224184594117105
6.6287078857421875 5.690990447998047 0.0002237851731479168
6.599395751953125 5.689906120300293 0.0002222013717982918
6.573385238647461 5.6913042068481445 0.00022180238738656044
6.561282157897949 5.705144882202148 0.00022140477085486054
6.521337509155273 5.6944684982299805 0.000222295755520463
6.506387233734131 5.705255508422852 0.00021988313528709114
6.450984954833984 5.704909324645996 0.00022034026915207505
6.420109748840332 5.70139217376709 0.0002187194477301091
6.375844955444336 5.71028995513916 0.00021882986766286194
6.294193267822266 5.708873748779297 -0.0003007555496878922
6.228690147399902 5.721243858337402 -0.0006333320634439588
6.147552490234375 5.718385219573975 -0.0006287312135100365
6.080620288848877 5.728096961975098 -0.0009536542929708958
5.994524002075195 5.718994617462158 -0.0009450905490666628
5.93082332611084 5.7298736572265625 -0.0009413602529093623
5.867499351501465 5.740448951721191 -0.0009377557435072958
5.808072090148926 5.730379104614258 -0.0009304120903834701
5.794623374938965 5.740889072418213 -0.000931023620069027
5.745977878570557 5.740846633911133 -0.0011012632166966796
5.72578239440918 5.744462013244629 -0.0011014975607395172
5.676027297973633 5.74271297454834 -0.0010976091725751758
5.657187461853027 5.747458457946777 -0.0012379901017993689
5.637118339538574 5.751141548156738 -0.0012364257127046585
5.612329483032227 5.750123977661133 -0.0014092733617872
5.589029312133789 5.750075340270996 -0.0014049042947590351
5.572038650512695 5.757151126861572 -0.001404335955157876
5.548494338989258 5.756681442260742 -0.0014005104312673211
5.524089813232422 5.755216598510742 -0.0013982625678181648
5.495884895324707 5.750370025634766 -0.0013925733510404825
5.486729621887207 5.7646942138671875 -0.0013939987402409315
5.460314750671387 5.761083126068115 -0.0013921547215431929
5.432484149932861 5.756048202514648 -0.0013865669025108218
5.41618013381958 5.762683868408203 -0.0016968129202723503
5.392928600311279 5.76210880279541 -0.0016931667923927307
5.369956016540527 5.761937141418457 -0.0016894889995455742
5.356925010681152 5.771923542022705 -0.00169106456451118
5.336429119110107 5.774074554443359 -0.0016883194912225008
5.315136432647705 5.775489807128906 -0.001684561837464571
5.294736862182617 5.777588844299316 -0.001680667162872851
5.272607803344727 5.777923107147217 -0.0016765845939517021
5.241616725921631 5.767956256866455 -0.0016719832783564925
5.219196319580078 5.7675371170043945 -0.0016675388906151056
5.210144519805908 5.782062530517578 -0.0016711534699425101
5.189357757568359 5.7830810546875 -0.0016663038404658437
5.155514717102051 5.769659042358398 -0.0016608908772468567
5.1381683349609375 5.774776458740234 -0.0016584692057222128
5.121551990509033 5.780211448669434 -0.0016564724501222372
5.058222770690918 5.781811237335205 -0.001952010323293507
4.99179744720459 5.778792381286621 -0.0019388919463381171
4.958415985107422 5.789255142211914 -0.0021001792047172785
4.932239532470703 5.782939910888672 -0.0020945274736732244
4.898077011108398 5.792113304138184 -0.0020910287275910378
4.838961601257324 5.795714855194092 -0.0020799944177269936
4.776451587677002 5.7945051193237305 -0.0020694308914244175
4.723381996154785 5.804083824157715 -0.0020611549261957407
4.697027683258057 5.796693801879883 -0.002054493874311447
4.677399158477783 5.797280311584473 -0.00205234088934958
4.664141654968262 5.805459499359131 -0.0020499187521636486
4.620072364807129 5.800468921661377 -0.002043526852503419
4.6086039543151855 5.811244010925293 -0.002043526852503419
4.590507507324219 5.813162803649902 -0.002040297258645296
4.570800304412842 5.813227653503418 -0.0020381442736834288
4.548579216003418 5.810210227966309 -0.002034712815657258
4.530087471008301 5.811655044555664 -0.0020307430531829596
4.516621112823486 5.819244384765625 -0.0020312140695750713
4.498074531555176 5.820718288421631 -0.0020281190518289804
4.488566875457764 5.833655834197998 -0.0020313486456871033
4.459229946136475 5.820954322814941 -0.002021928783506155
4.444162368774414 5.8265533447265625 -0.002020919695496559
4.430069923400879 5.833139896392822 -0.00217991485260427
4.405192852020264 5.825920104980469 -0.002170687774196267
4.387264251708984 5.827569961547852 -0.0021673983428627253
4.369283676147461 5.82882022857666 -0.002166511956602335
4.35776948928833 5.839146137237549 -0.002165384590625763
4.333542823791504 5.832157611846924 -0.002159315161406994
4.318506717681885 5.837184906005859 -0.002159880008548498
4.296421051025391 5.833090782165527 -0.0021536301355808973
4.283332824707031 5.840930938720703 -0.002153081353753805
4.2644362449646 5.840539932250977 -0.002149670384824276
4.252597808837891 5.850528240203857 -0.0021501414012163877
4.221949100494385 5.833779811859131 -0.0021425639279186726
4.20317268371582 5.833768367767334 -0.0021393548231571913
4.189822673797607 5.841023921966553 -0.002135432558134198
4.173996925354004 5.844532012939453 -0.0021357941441237926
4.157007217407227 5.846843719482422 -0.0021324814297258854
4.131601333618164 5.836989402770996 -0.0021258455235511065
4.116426467895508 5.841217041015625 -0.002124945167452097
4.102834224700928 5.848423004150391 -0.0021255200263112783
4.088805198669434 5.8542280197143555 -0.002122781705111265
4.068171501159668 5.850511074066162 -0.002119453391060233
4.052606582641602 5.854770660400391 -0.0021184911020100117
4.025233268737793 5.841089725494385 -0.0021087804343551397
3.9983015060424805 5.854625701904297 -0.0021085317712277174
3.9853692054748535 5.861771583557129 -0.002107467269524932
3.958859443664551 5.849617958068848 -0.002098620869219303
3.9426722526550293 5.851824760437012 -0.0020967379678040743
3.931216239929199 5.861031532287598 -0.0020988902542740107
3.9109082221984863 5.857766151428223 -0.0020931907929480076
3.8937954902648926 5.858424186706543 -0.002090799855068326
3.8547801971435547 5.853044509887695 -0.002084540668874979
3.8367292881011963 5.852038383483887 -0.0020782325882464647
3.826077461242676 5.863068103790283 -0.002081208163872361
3.8065266609191895 5.859642028808594 -0.002228908007964492
3.79530668258667 5.868994235992432 -0.001955585554242134
3.7795169353485107 5.872049331665039 -0.002228918019682169
3.7530617713928223 5.857621192932129 -0.0022188667207956314
3.7396278381347656 5.863405227661133 -0.002217857399955392
3.727245569229126 5.871620178222656 -0.0022180844098329544
3.7080793380737305 5.8683061599731445 -0.0022124536335468292
3.685734987258911 5.859838485717773 -0.00220911530777812
3.6810436248779297 5.880213737487793 -0.0022142338566482067
3.6555135250091553 5.866464614868164 -0.0022060652263462543
3.642813205718994 5.874002933502197 -0.0022035292349755764
3.624645471572876 5.871877670288086 -0.00220113224349916
3.6094305515289307 5.874468803405762 -0.002199274254962802
3.594395160675049 5.878114700317383 -0.002197589259594679
3.5696353912353516 5.864933967590332 -0.002190076047554612
3.55922269821167 5.875531196594238 -0.002191531239077449
3.536923408508301 5.866678237915039 -0.002183815697208047
3.530498743057251 5.883599281311035 -0.0021883053705096245
3.5116965770721436 5.880177021026611 -0.0021847495809197426
3.497668504714966 5.884921073913574 -0.0021848513279110193
3.487440824508667 5.895534515380859 -0.0021868667099624872
3.4636378288269043 5.883413791656494 -0.002177291316911578
3.4443817138671875 5.879105567932129 -0.0021728600841015577
3.4332833290100098 5.8881425857543945 -0.002175387693569064
3.4144139289855957 5.884634494781494 -0.0020496328361332417
3.3998146057128906 5.887585163116455 -0.0020492225885391235
14.51327133178711 5.656915664672852 0.13953359425067902
14.339384078979492 5.658818244934082 0.1377580761909485
14.130426406860352 5.679280757904053 0.13609008491039276
13.898927688598633 5.687986373901367 0.13420334458351135
13.674028396606445 5.696569442749023 0.13178972899913788
13.479508399963379 5.715243339538574 0.1302572786808014
11.412701606750488 5.831317901611328 0.1137031614780426
11.243528366088867 5.8343048095703125 0.11238086223602295
11.142906188964844 5.8417863845825195 0.11161978542804718
11.092630386352539 5.844805717468262 0.11074298620223999
10.976312637329102 5.842709064483643 0.1098257377743721
10.938477516174316 5.851733207702637 0.10956811904907227
10.83067512512207 5.852861404418945 0.10873469710350037
10.789318084716797 5.859471321105957 0.10844193398952484
10.69266128540039 5.865427017211914 0.10745462775230408
10.645694732666016 5.868435859680176 0.10710488259792328
10.553433418273926 5.875662803649902 0.10642457008361816
10.508271217346191 5.879117965698242 0.10609204322099686
10.406570434570312 5.879899024963379 0.10484293103218079
10.35608196258545 5.879757881164551 0.10445636510848999
10.280966758728027 5.894502639770508 0.10441599786281586
8.964885711669922 5.945666313171387 0.09281188249588013
8.85607624053955 5.954510688781738 0.09207304567098618
8.782222747802734 5.9582061767578125 0.09156285226345062
8.748982429504395 5.962709903717041 0.09134778380393982
8.698970794677734 5.955100059509277 0.0909544825553894
8.669588088989258 5.961721897125244 0.0907779410481453
8.632347106933594 5.963037490844727 0.09029312431812286
8.604114532470703 5.969948768615723 0.09012720733880997
8.56424331665039 5.968925476074219 0.08984047174453735
8.514174461364746 5.960819244384766 0.0890374481678009
8.491909980773926 5.971529006958008 0.08893371373414993
8.45290756225586 5.970630645751953 0.08865638077259064
8.414945602416992 5.970528602600098 0.08839046210050583
8.381797790527344 5.973471641540527 0.08817403018474579
8.306962966918945 5.972779273986816 0.08724524080753326
8.280397415161133 5.98005485534668 0.08709818124771118
8.215011596679688 5.985366344451904 0.08667239546775818
8.104287147521973 5.9833173751831055 0.0856836587190628
8.001858711242676 5.985782623291016 0.08499736338853836
7.90690279006958 5.992641448974609 0.08399616926908493
7.809220314025879 5.996273040771484 0.08335714787244797
7.253782272338867 6.018649101257324 0.07827679067850113
7.226250648498535 6.021168231964111 0.0781155675649643
7.167572975158691 6.023599147796631 0.07775451242923737
7.135280132293701 6.021770477294922 0.07753926515579224
7.096835136413574 6.015329360961914 0.07726223766803741
7.081646919250488 6.027754783630371 0.0772317424416542
7.044039249420166 6.021476745605469 0.07696142792701721
7.027052879333496 6.032504081726074 0.07691366225481033
6.985596656799316 6.022139549255371 0.07659648358821869
6.957418441772461 6.023541450500488 0.0764264166355133
6.935603141784668 6.030143737792969 0.07612666487693787
6.905983924865723 6.02960205078125 0.07593874633312225
6.867892742156982 6.021985054016113 0.07565964758396149
6.8429341316223145 6.025527477264404 0.07480652630329132
6.8259782791137695 6.035791397094727 0.07475733757019043
6.799757957458496 6.038538932800293 0.07460987567901611
6.767359733581543 6.034932613372803 0.07439270615577698
6.73969841003418 6.0358991622924805 0.07422780990600586
6.7133469581604 6.037714004516602 0.07407914102077484
6.688665390014648 6.040671348571777 0.07394266128540039
6.65167236328125 6.032847881317139 0.07367632538080215
6.635193347930908 6.043308258056641 0.07363349199295044
6.596160888671875 6.032849311828613 0.07333892583847046
6.581980228424072 6.045490264892578 0.07312938570976257
6.548503875732422 6.04010534286499 0.07254637032747269
6.516857147216797 6.035992622375488 0.07233651727437973
6.494779109954834 6.041371822357178 0.072234146296978
6.475687026977539 6.048727989196777 0.07215958088636398
6.447822570800781 6.047802448272705 0.0719904899597168
6.390331745147705 6.044668197631836 0.07163269072771072
6.31951904296875 6.053413391113281 0.07126301527023315
6.240195274353027 6.053111553192139 0.07079761475324631
5.939390182495117 6.05926513671875 0.06824319809675217
5.869482040405273 6.0637359619140625 0.06787529587745667
5.822670936584473 6.066290378570557 0.06763073801994324
5.79239559173584 6.059870719909668 0.06742545962333679
5.758243083953857 6.075157642364502 0.06732531636953354
5.724295616149902 6.0644989013671875 0.06707362085580826
5.7027668952941895 6.067126274108887 0.06697240471839905
5.685617446899414 6.074570655822754 0.06692028045654297
5.6588287353515625 6.07115364074707 0.06642430275678635
5.639584541320801 6.076001167297363 0.06635051220655441
5.617851257324219 6.078312397003174 0.06624631583690643
5.5899481773376465 6.073359489440918 0.06606285274028778
5.56678581237793 6.074183464050293 0.06561976671218872
5.539022922515869 6.069127082824707 0.06544041633605957
5.525522232055664 6.079624652862549 0.06543080508708954
5.501344680786133 6.079063892364502 0.06529677659273148
5.481032371520996 6.081938743591309 0.06520716100931168
5.456366062164307 6.0801568031311035 0.06506121158599854
5.436092853546143 6.083395957946777 0.0649728775024414
5.409684181213379 6.079185962677002 0.06480950117111206
5.3875226974487305 6.080387115478516 0.0647028461098671
5.368315696716309 6.084099769592285 0.06462140381336212
5.339450836181641 6.07675838470459 0.06442703306674957
5.320767879486084 6.081648349761963 0.06418132781982422
5.2988409996032715 6.08200740814209 0.06406991928815842
5.275949954986572 6.081433296203613 0.06394658982753754
5.264092445373535 6.09375 0.06395893543958664
5.245683670043945 6.09797477722168 0.06388875842094421
5.212240695953369 6.0848588943481445 0.06363795697689056
5.195475101470947 6.091310501098633 0.06358799338340759
5.176604747772217 6.094757080078125 0.06351295113563538
5.155620574951172 6.095911026000977 0.0634118914604187
5.124851703643799 6.085582733154297 0.06319132447242737
5.10874080657959 6.092333793640137 0.0628354474902153
5.0679216384887695 6.095344543457031 0.06264911592006683
5.048707008361816 6.098199844360352 0.062570720911026
4.999972343444824 6.091109275817871 0.0622812956571579
4.983406066894531 6.096950531005859 0.06223314628005028
4.9475297927856445 6.105352401733398 0.062104854732751846
4.91407585144043 6.089862823486328 0.0618465431034565
4.884521484375 6.105673789978027 0.061795078217983246
4.8572235107421875 6.097447395324707 0.06160993129014969
4.821889400482178 6.105678558349609 0.061486050486564636
4.7539262771606445 6.098050117492676 0.06111098825931549
4.720048904418945 6.107465744018555 0.061003804206848145
4.700222015380859 6.108464241027832 0.06091434136033058
4.663059711456299 6.112765312194824 0.060760580003261566
4.640694618225098 6.110198020935059 0.0604734867811203
4.621344566345215 6.111284255981445 0.06055459380149841
4.591762065887451 6.098428249359131 0.06033448129892349
4.579723834991455 6.109281539916992 0.06034361571073532
4.561521530151367 6.111659526824951 0.06010866165161133
4.54064416885376 6.110098838806152 0.05999842286109924
4.519804000854492 6.10899543762207 0.05989472568035126
4.499485969543457 6.108281135559082 0.05979371815919876
4.484781265258789 6.114850997924805 0.05976870656013489
4.471452713012695 6.123790264129639 0.05976065620779991
4.44627571105957 6.1161956787109375 0.05959555134177208
4.429040431976318 6.119653224945068 0.05954039469361305
4.406434059143066 6.115375518798828 0.05940866470336914
4.395862102508545 6.127473831176758 0.05943582206964493
4.373694896697998 6.123872756958008 0.05931025743484497
4.3466715812683105 6.113097190856934 0.05911920219659805
4.328197956085205 6.1139421463012695 0.05904137343168259
4.322294235229492 6.133062362670898 0.05913478136062622
4.299646854400635 6.128176212310791 0.05900276452302933
4.281497955322266 6.129322052001953 0.05892548710107803
4.251187324523926 6.11342716217041 0.05868792533874512
4.2453508377075195 6.13242769241333 0.05878378078341484
4.224917888641357 6.130054473876953 0.0586794838309288
4.205760478973389 6.13024377822876 0.05859217047691345
4.188846588134766 6.132833480834961 0.058534614741802216
4.166508197784424 6.127910614013672 0.058403849601745605
4.14738655090332 6.12738037109375 0.05831695720553398
4.133652687072754 6.1344757080078125 0.0583004429936409
4.108334541320801 6.125096321105957 0.058127373456954956
4.0911455154418945 6.12691593170166 0.0580642893910408
4.076117992401123 6.131925582885742 0.058033958077430725
4.062277317047119 6.13951301574707 0.058020882308483124
4.040050029754639 6.133541107177734 0.057885799556970596
4.003776550292969 6.134555816650391 0.057736996561288834
3.987208843231201 6.136958122253418 0.05767960101366043
3.958649158477783 6.149533748626709 0.057484060525894165
3.9357528686523438 6.141932487487793 0.05733504891395569
3.9193363189697266 6.145172119140625 0.05728618800640106
3.8932607173919678 6.132319927215576 0.057093486189842224
3.8824782371520996 6.143474578857422 0.05712191015481949
3.8678183555603027 6.149326801300049 0.05709851533174515
3.8520267009735107 6.152513027191162 0.05705296993255615
3.804847002029419 6.134444713592529 0.056738145649433136
3.792323589324951 6.142675399780273 0.056741103529930115
3.757611036300659 6.144186973571777 0.05660799890756607
3.739499092102051 6.143177032470703 0.05652562528848648
3.714665651321411 6.1318359375 0.056349288672208786
3.7040810585021973 6.143093109130859 0.05638280138373375
3.6909236907958984 6.150097846984863 0.056376516819000244
3.674743175506592 6.152888774871826 0.05632850527763367
3.651733875274658 6.143286228179932 0.056171342730522156
3.634265422821045 6.143189430236816 0.0561005175113678
3.6194050312042236 6.147698402404785 0.05607191473245621
3.6059703826904297 6.154053688049316 0.05606091022491455
3.590036630630493 6.156976699829102 0.056019432842731476
3.5736632347106934 6.158229827880859 0.055963803082704544
3.5620007514953613 6.167579650878906 0.055979274213314056
3.540681838989258 6.1610188484191895 0.055849991738796234
3.5173425674438477 6.149913787841797 0.05568590760231018
3.499441623687744 6.148184776306152 0.05560373142361641
3.4914140701293945 6.164675712585449 0.05568411946296692
3.4701497554779053 6.156891822814941 0.055549465119838715
3.453357219696045 6.157814025878906 0.05549156665802002
3.4359450340270996 6.156678199768066 0.055415473878383636
3.4221999645233154 6.1620635986328125 0.055248696357011795
3.40036678314209 6.153685092926025 0.055107876658439636
3.3890767097473145 6.163433074951172 0.05513206124305725
3.3779754638671875 6.173553466796875 0.05515901744365692
3.3575620651245117 6.167497158050537 0.05504143238067627
3.335646152496338 6.157634258270264 0.055166274309158325
3.3164517879486084 6.15297269821167 0.055063579231500626
9.268298149108887 5.574881553649902 0.02943296730518341
8.02315616607666 5.641901016235352 0.024296414107084274
7.932122707366943 5.652742385864258 0.024127697572112083
7.840219497680664 5.661904335021973 0.02395596355199814
7.771781921386719 5.6624321937561035 0.023819085210561752
7.74788761138916 5.669674873352051 0.023782003670930862
7.690526962280273 5.677585601806641 0.02309533953666687
7.645857810974121 5.669159412384033 0.022996239364147186
7.58998966217041 5.677430152893066 0.02290116623044014
7.490589141845703 5.676861763000488 0.022706609219312668
7.409122467041016 5.688804626464844 0.021997472271323204
6.710000991821289 5.735930442810059 0.02005898579955101
6.6216349601745605 5.7328290939331055 0.019556671380996704
6.5409979820251465 5.735354423522949 0.01995595544576645
6.499303340911865 5.7469329833984375 0.01990099623799324
6.467580795288086 5.743297576904297 0.019653525203466415
6.418537139892578 5.7482757568359375 0.019238848239183426
6.387176513671875 5.7441205978393555 0.01918072998523712
6.375372886657715 5.757730484008789 0.01918313466012478
6.345217227935791 5.754904747009277 0.01912814751267433
6.319460868835449 5.755491256713867 0.01908676140010357
6.265538692474365 5.7548418045043945 0.018813401460647583
6.234415531158447 5.750153541564941 0.01842101663351059
6.1901702880859375 5.757779121398926 0.01836118847131729
6.160104274749756 5.7539520263671875 0.018307406455278397
6.091747760772705 5.762235641479492 0.018211208283901215
6.0185627937316895 5.765130043029785 0.01759108155965805
5.6717729568481445 5.786247253417969 0.016927115619182587
5.606412887573242 5.791960716247559 0.016523800790309906
5.539342880249023 5.795132637023926 0.01625831425189972
5.496486186981201 5.7989959716796875 0.01620635576546192
5.469700813293457 5.794774055480957 0.015847325325012207
5.428982257843018 5.800379276275635 0.01642780378460884
5.406807899475098 5.800769805908203 0.016083331778645515
5.3805623054504395 5.797391891479492 0.0160404983907938
5.35827112197876 5.797456741333008 0.01601107232272625
5.339529991149902 5.801745414733887 0.015991801396012306
5.320405006408691 5.805346488952637 0.015970518812537193
5.299160003662109 5.806309700012207 0.01594431698322296
