VERSION .7
FIELDS x y z
SIZE 4 4 4
TYPE F F F
COUNT 1 1 1
WIDTH 825
HEIGHT 1
VIEWPOINT 0 0 0 1 0 0 0
POINTS 825
DATA ascii
4.650096893310547 5.991605758666992 -0.019732004031538963
4.631682395935059 5.993515968322754 -0.019481204450130463
4.610569000244141 5.992611408233643 -0.019213039427995682
4.5911173820495605 5.9930195808410645 -0.018955035135149956
4.572323799133301 5.994579792022705 -0.01869499683380127
4.562919616699219 6.008458614349365 -0.01870664209127426
4.53732967376709 6.000576496124268 -0.0184362530708313
4.522324562072754 6.006969451904297 -0.018185317516326904
4.495445251464844 5.99752140045166 -0.017909914255142212
4.486069202423096 6.01096248626709 -0.01768120378255844
4.472118854522705 6.018655776977539 -0.01745554991066456
4.4518327713012695 6.017795562744141 -0.01718885824084282
4.431994438171387 6.017426013946533 -0.01716632768511772
4.424457550048828 6.033774375915527 -0.01672843098640442
4.402179718017578 6.029592990875244 -0.016690440475940704
4.370826721191406 6.013181686401367 -0.016166599467396736
4.354867458343506 6.017844200134277 -0.016155293211340904
4.3395843505859375 6.023001194000244 -0.015456040389835835
4.323843955993652 6.027863502502441 -0.01566416211426258
4.287676811218262 6.03090763092041 -0.015172366984188557
4.269535064697266 6.031857013702393 -0.014918613247573376
4.232375144958496 6.033078670501709 -0.014659307897090912
4.219104766845703 6.040787220001221 -0.01420878991484642
4.185787200927734 6.047175407409668 -0.013948964886367321
4.150624752044678 6.0506696701049805 -0.013469632714986801
4.132323741912842 6.050871849060059 -0.01323417853564024
4.092855930328369 6.047611236572266 -0.012741485610604286
4.081409454345703 6.057742118835449 -0.012514807283878326
4.039326190948486 6.05010986328125 -0.012021906673908234
4.032557010650635 6.067615985870361 -0.01182725839316845
3.9886627197265625 6.056329727172852 -0.011328203603625298
3.9735498428344727 6.061144828796387 -0.011093731969594955
3.959825038909912 6.068022727966309 -0.011090030893683434
3.9468069076538086 6.075584411621094 -0.010646538808941841
3.924501419067383 6.06920051574707 -0.010391460731625557
3.908797264099121 6.072906017303467 -0.010155392810702324
3.891355276107788 6.073464393615723 -0.010142304003238678
3.865811824798584 6.062067031860352 -0.009671395644545555
3.8553082942962646 6.073360443115234 -0.009675332345068455
3.8391051292419434 6.0760908126831055 -0.009667593985795975
3.828404664993286 6.087489128112793 -0.009233593940734863
3.804455280303955 6.07735538482666 -0.009207161143422127
3.785734176635742 6.075875282287598 -0.008755136281251907
3.7707014083862305 6.080221176147461 -0.008750413544476032
3.757730484008789 6.0874738693237305 -0.008312889374792576
3.739664316177368 6.0868611335754395 -0.008301090449094772
3.7213497161865234 6.085730075836182 -0.007853822782635689
3.7126030921936035 6.0998311042785645 -0.00786191038787365
3.694805860519409 6.099892616271973 -0.007415834814310074
3.6663379669189453 6.081336975097656 -0.007384497672319412
3.6584043502807617 6.096755027770996 -0.0069597456604242325
3.6397905349731445 6.095210075378418 -0.006949054077267647
3.628559112548828 6.1051483154296875 -0.006518486887216568
3.6119871139526367 6.106522560119629 -0.006512120366096497
3.5964438915252686 6.109551429748535 -0.006074906326830387
3.570728063583374 6.094761371612549 -0.006053004413843155
3.5588736534118652 6.10438871383667 -0.0056228963658213615
3.540299415588379 6.1015944480896 -0.005614118184894323
3.5276894569396973 6.109030723571777 -0.004959309007972479
3.5056886672973633 6.100990295410156 -0.005153666716068983
3.498009204864502 6.116975784301758 -0.004730941727757454
3.4790663719177246 6.113705635070801 -0.004722732584923506
3.4667701721191406 6.122034549713135 -0.004294108599424362
3.4395787715911865 6.103521347045898 -0.004276107996702194
3.426906108856201 6.111522197723389 -0.003848917316645384
3.4148764610290527 6.1198039054870605 -0.0038496616762131453
3.3991189002990723 6.1213836669921875 -0.0034188530407845974
3.3864245414733887 6.129337310791016 -0.0034192469902336597
3.372251510620117 6.133721351623535 -0.0029905587434768677
3.35566782951355 6.133673191070557 -0.0029871338047087193
3.3308558464050293 6.119330406188965 -0.0025514368899166584
3.316582202911377 6.123334884643555 -0.0025502312928438187
3.301177501678467 6.126107215881348 -0.00212370278313756
3.2801413536071777 6.138543128967285 -0.0016992089804261923
6.880037307739258 -12.015873908996582 0.02156784199178219
6.904305458068848 -12.000436782836914 0.021559035405516624
6.973365783691406 -12.003240585327148 0.020769238471984863
7.011824607849121 -12.011981010437012 0.02036895602941513
7.077857971191406 -12.00865364074707 0.019577667117118835
7.109621047973633 -12.005523681640625 0.01958652213215828
7.144204139709473 -12.006156921386719 0.018765268847346306
7.172405242919922 -11.996026992797852 0.018757443875074387
7.205415725708008 -11.994650840759277 0.018792876973748207
7.302987575531006 -11.984878540039062 0.01754588633775711
7.374196529388428 -11.98868179321289 0.016721025109291077
7.401021957397461 -11.97568130493164 0.016323599964380264
7.475033760070801 -11.983148574829102 0.015930911526083946
7.577784538269043 -11.978658676147461 0.01466703787446022
7.6802873611450195 -11.973417282104492 0.013867835514247417
7.774868488311768 -11.954822540283203 0.012570634484291077
8.308469772338867 -11.935372352600098 0.007463531568646431
8.415369033813477 -11.928304672241211 0.006173973903059959
8.457382202148438 -11.935197830200195 0.006190767977386713
8.532596588134766 -11.934476852416992 0.005311775486916304
8.571640014648438 -11.936652183532715 0.0048539359122514725
8.638467788696289 -11.923408508300781 0.003956516273319721
8.677084922790527 -11.92454719543457 0.003979302942752838
8.714021682739258 -11.921692848205566 0.0035243891179561615
8.748903274536133 -11.917423248291016 0.0030902097932994366
8.792016983032227 -11.923465728759766 0.002613623160868883
8.827373504638672 -11.91876220703125 0.0021972483955323696
8.867613792419434 -11.921293258666992 0.002175507601350546
8.89152717590332 -11.900270462036133 0.0017094071954488754
9.011507034301758 -11.904035568237305 0.0008088555186986923
9.0496826171875 -11.903055191040039 -0.00011221226304769516
9.081329345703125 -11.893369674682617 -9.015575051307678e-05
9.12655258178711 -11.899808883666992 -0.0005638422444462776
9.157434463500977 -11.88890266418457 -0.001022552140057087
9.204322814941406 -11.89711856842041 -0.0010572858154773712
9.241409301757812 -11.893973350524902 -0.001965505536645651
9.277556419372559 -11.889488220214844 -0.0019755284301936626
9.317449569702148 -11.888161659240723 -0.0019776555709540844
9.352514266967773 -11.88203239440918 -0.002894810400903225
9.396268844604492 -11.886783599853516 -0.002910653594881296
9.434316635131836 -11.882649421691895 -0.003389845136553049
9.47066879272461 -11.877737998962402 -0.003852962050586939
9.51065731048584 -11.877239227294922 -0.0043131280690431595
9.588308334350586 -11.871397018432617 -0.005278584081679583
9.70041561126709 -11.856924057006836 -0.006219345610588789
9.822444915771484 -11.852483749389648 -0.007186530157923698
10.15139389038086 -11.83920669555664 -0.010668986476957798
10.269083023071289 -11.825202941894531 -0.011666033416986465
10.312437057495117 -11.824763298034668 -0.012175403535366058
10.397587776184082 -11.821525573730469 -0.01268826425075531
10.434652328491211 -11.814136505126953 -0.013198322616517544
10.530065536499023 -11.821450233459473 -0.014233365654945374
10.567841529846191 -11.81440544128418 -0.014233611524105072
10.602384567260742 -11.802886962890625 -0.014750118367373943
10.650136947631836 -11.805970191955566 -0.015252896584570408
10.689160346984863 -11.799901962280273 -0.01577395759522915
10.735408782958984 -11.80089282989502 -0.015799453482031822
10.783076286315918 -11.803290367126465 -0.01632043346762657
10.815511703491211 -11.78882122039795 -0.016823410987854004
10.866562843322754 -11.794540405273438 -0.016884880140423775
10.902023315429688 -11.783863067626953 -0.017858099192380905
10.94866943359375 -11.784380912780762 -0.017911620438098907
10.995514869689941 -11.78496265411377 -0.018908709287643433
11.038228988647461 -11.781633377075195 -0.018972137942910194
11.076976776123047 -11.77318000793457 -0.01948719099164009
11.125024795532227 -11.774494171142578 -0.02001856081187725
11.172849655151367 -11.77531623840332 -0.020588839426636696
11.216042518615723 -11.771121978759766 -0.020627232268452644
11.257950782775879 -11.766117095947266 -0.021190473809838295
11.305532455444336 -11.766120910644531 -0.021712906658649445
11.347755432128906 -11.760420799255371 -0.02224908024072647
11.399103164672852 -11.764678955078125 -0.022324103862047195
11.438287734985352 -11.755462646484375 -0.02281792275607586
11.483691215515137 -11.752533912658691 -0.023400260135531425
11.536826133728027 -11.757999420166016 -0.023436542600393295
11.624651908874512 -11.748126983642578 -0.02450503036379814
11.668859481811523 -11.743217468261719 -0.025075653567910194
11.761448860168457 -11.737861633300781 -0.02569214254617691
11.810914993286133 -11.737665176391602 -0.02624192088842392
11.897601127624512 -11.72463607788086 -0.02735276147723198
11.950804710388184 -11.728282928466797 -0.02742767706513405
12.045796394348145 -11.72232437133789 -0.028550205752253532
12.087942123413086 -11.714595794677734 -0.02859029918909073
12.192984580993652 -11.717222213745117 -0.02973952703177929
12.283060073852539 -11.704683303833008 -0.03041006252169609
12.333444595336914 -11.703957557678223 -0.0315287746489048
12.418274879455566 -11.685457229614258 -0.03215254098176956
12.475229263305664 -11.689643859863281 -0.03272720053792
12.566890716552734 -11.67721939086914 -0.033400386571884155
12.621492385864258 -11.678552627563477 -0.03397822007536888
12.724567413330078 -11.675533294677734 -0.034659493714571
12.77221393585205 -11.669836044311523 -0.03578586503863335
12.825469017028809 -11.669012069702148 -0.03587624058127403
12.874505996704102 -11.664884567260742 -0.03592746704816818
12.921562194824219 -11.65809440612793 -0.03706160932779312
12.9758882522583 -11.657613754272461 -0.037136517465114594
13.03531551361084 -11.661516189575195 -0.037804197520017624
13.073871612548828 -11.646516799926758 -0.03834311664104462
13.13332748413086 -11.650688171386719 -0.039015885442495346
13.17793083190918 -11.640786170959473 -0.039029810577631
13.233888626098633 -11.640674591064453 -0.03970515727996826
13.280254364013672 -11.63266372680664 -0.04028560221195221
13.339031219482422 -11.634625434875488 -0.040412742644548416
13.395879745483398 -11.63460922241211 -0.04106046259403229
13.455493927001953 -11.637487411499023 -0.041696444153785706
13.501967430114746 -11.627355575561523 -0.04235103726387024
13.547611236572266 -11.617786407470703 -0.04351682588458061
13.603233337402344 -11.615890502929688 -0.043605707585811615
13.652286529541016 -11.608133316040039 -0.04424788057804108
13.710128784179688 -11.608378410339355 -0.04437300190329552
13.770587921142578 -11.60989761352539 -0.04502265900373459
13.881339073181152 -11.60361099243164 -0.04579443484544754
13.921010971069336 -11.587783813476562 -0.04694868624210358
13.981677055358887 -11.588502883911133 -0.04707137495279312
14.044609069824219 -11.590883255004883 -0.047193270176649094
14.155742645263672 -11.583425521850586 -0.048517800867557526
14.215768814086914 -11.58267593383789 -0.04923700913786888
14.262775421142578 -11.571065902709961 -0.04983140155673027
14.311494827270508 -11.56142807006836 -0.0499449297785759
14.36599063873291 -11.55482006072998 -0.050640769302845
14.432223320007324 -11.55885124206543 -0.05077625811100006
14.547788619995117 -11.551177978515625 -0.05215749517083168
14.608423233032227 -11.549976348876953 -0.05228415131568909
14.715378761291504 -11.534160614013672 -0.05362981930375099
14.772552490234375 -11.529565811157227 -0.05437207967042923
14.837504386901855 -11.529338836669922 -0.055673569440841675
14.89396858215332 -11.523723602294922 -0.05583016201853752
14.94985580444336 -11.517448425292969 -0.056473907083272934
15.009634017944336 -11.512491226196289 -0.05722654610872269
15.070804595947266 -11.509815216064453 -0.05734682083129883
15.247282028198242 -11.49355411529541 -0.058922186493873596
15.310251235961914 -11.489811897277832 -0.06021874397993088
15.365375518798828 -11.481414794921875 -0.060349736362695694
15.435103416442871 -11.483678817749023 -0.06052360683679581
15.497064590454102 -11.478428840637207 -0.06128527224063873
15.556234359741211 -11.472338676452637 -0.062002141028642654
15.616101264953613 -11.465066909790039 -0.06275956332683563
15.673042297363281 -11.456892013549805 -0.06285814940929413
15.743598937988281 -11.458415985107422 -0.0636415109038353
15.805983543395996 -11.452247619628906 -0.06440995633602142
15.859439849853516 -11.440866470336914 -0.06454572826623917
15.934015274047852 -11.444465637207031 -0.06536592543125153
15.992864608764648 -11.43502426147461 -0.06608511507511139
16.057161331176758 -11.430715560913086 -0.06623493880033493
16.17143440246582 -11.409751892089844 -0.06767968088388443
16.194931030273438 -11.376065254211426 -0.06763016432523727
16.243635177612305 -11.358531951904297 -0.06895580142736435
16.268251419067383 -11.32555103302002 -0.06947320699691772
16.301908493041992 -11.298828125 -0.07003447413444519
16.34400177001953 -11.27639389038086 -0.07006537169218063
16.385677337646484 -11.255029678344727 -0.07071810215711594
16.432119369506836 -11.23681354522705 -0.0707598403096199
16.463823318481445 -11.206949234008789 -0.07196564972400665
16.48456573486328 -11.17108154296875 -0.07193733006715775
16.505157470703125 -11.134374618530273 -0.0719062089920044
16.517074584960938 -11.091893196105957 -0.0730544924736023
16.520893096923828 -11.044782638549805 -0.07294280081987381
16.554737091064453 -11.016311645507812 -0.07299023866653442
16.563255310058594 -10.972454071044922 -0.07414903491735458
16.577375411987305 -10.93163776397705 -0.07410965859889984
16.59054183959961 -10.890278816223145 -0.07463383674621582
16.60335350036621 -10.84945297241211 -0.07461443543434143
16.63140106201172 -10.81715202331543 -0.07519586384296417
16.6336669921875 -10.769573211669922 -0.07572315633296967
16.636791229248047 -10.722663879394531 -0.07565576583147049
16.660083770751953 -10.687372207641602 -0.07565869390964508
16.677257537841797 -10.649602890014648 -0.07680712640285492
16.7027587890625 -10.567126274108887 -0.07671716809272766
16.714597702026367 -10.52610969543457 -0.0773104876279831
16.73904800415039 -10.443314552307129 -0.0783982053399086
16.755605697631836 -10.405401229858398 -0.07897309958934784
16.772441864013672 -10.366275787353516 -0.07893653959035873
16.773929595947266 -10.319150924682617 -0.08002074062824249
16.81314468383789 -10.245923042297363 -0.08003497868776321
16.82478141784668 -10.205192565917969 -0.08060111105442047
16.84739112854004 -10.12209701538086 -0.08106957376003265
16.86729621887207 -10.08576774597168 -0.08165030181407928
16.880828857421875 -9.998298645019531 -0.08212059736251831
16.90178871154785 -9.962684631347656 -0.08273254334926605
16.902545928955078 -9.915243148803711 -0.08260630071163177
16.907325744628906 -9.87094497680664 -0.08310572057962418
16.923236846923828 -9.832500457763672 -0.0836753100156784
16.938983917236328 -9.794010162353516 -0.08363976329565048
16.954017639160156 -9.755813598632812 -0.0842299610376358
16.964473724365234 -9.714326858520508 -0.08476757258176804
16.97007942199707 -9.67015266418457 -0.08468116819858551
16.99064826965332 -9.634525299072266 -0.0853118747472763
17.005367279052734 -9.595617294311523 -0.08524718880653381
17.015514373779297 -9.554842948913574 -0.08643805235624313
17.020923614501953 -9.510783195495605 -0.08695495128631592
17.025615692138672 -9.466424942016602 -0.08747343719005585
17.029346466064453 -9.42228889465332 -0.08737898617982864
17.063072204589844 -9.347309112548828 -0.0879659652709961
17.078350067138672 -9.308965682983398 -0.08851389586925507
17.112321853637695 -9.234903335571289 -0.08907989412546158
17.134414672851562 -9.200281143188477 -0.08905592560768127
17.15041160583496 -9.162405967712402 -0.09026329964399338
17.16413116455078 -9.123318672180176 -0.09022333472967148
17.181556701660156 -9.086904525756836 -0.09021107107400894
17.19650650024414 -9.04853343963623 -0.09136541187763214
17.203845977783203 -9.006179809570312 -0.09130284935235977
17.217626571655273 -8.967921257019043 -0.09123926609754562
17.231582641601562 -8.929122924804688 -0.09125013649463654
17.239885330200195 -8.887414932250977 -0.0923525020480156
17.248355865478516 -8.845869064331055 -0.09229791164398193
17.293888092041016 -8.732344627380371 -0.09282004833221436
17.35257339477539 -8.625505447387695 -0.09401630610227585
17.363039016723633 -8.53970718383789 -0.09504438191652298
17.416223526000977 -8.430307388305664 -0.09619881212711334
17.449512481689453 -8.310766220092773 -0.09731490910053253
17.479698181152344 -8.190730094909668 -0.0977407693862915
17.50198745727539 -8.15692138671875 -0.09839212894439697
17.507564544677734 -8.114699363708496 -0.09830115735530853
17.530494689941406 -8.08051872253418 -0.0989161878824234
17.529739379882812 -8.036108016967773 -0.09877373278141022
17.513568878173828 -7.983463287353516 -0.09853193163871765
17.510242462158203 -7.894338607788086 -0.09938845783472061
17.522354125976562 -7.854802131652832 -0.09937445819377899
17.511154174804688 -7.806180477142334 -0.09923005849123001
17.533355712890625 -7.772502899169922 -0.10039806365966797
17.533000946044922 -7.727571487426758 -0.10031179338693619
17.548412322998047 -7.690914154052734 -0.1002834141254425
17.56450080871582 -7.653277397155762 -0.10030721127986908
17.547523498535156 -7.6025919914245605 -0.10184172540903091
17.546348571777344 -7.558874607086182 -0.10178162157535553
17.5274658203125 -7.506389617919922 -0.10156261920928955
17.525875091552734 -7.462705612182617 -0.10199782252311707
17.522415161132812 -7.417054176330566 -0.10246673971414566
17.501327514648438 -7.365338325500488 -0.10231292247772217
17.490127563476562 -7.317937850952148 -0.10217307507991791
17.490615844726562 -7.274276256561279 -0.10270559787750244
17.509742736816406 -7.239648342132568 -0.10326551645994186
17.487422943115234 -7.187961578369141 -0.10305505245923996
17.498043060302734 -7.148669719696045 -0.10301532596349716
17.506702423095703 -7.10984992980957 -0.10357372462749481
17.49915313720703 -7.021078109741211 -0.10390964150428772
17.524675369262695 -6.989131927490234 -0.10455572605133057
17.514402389526367 -6.857732772827148 -0.10482494533061981
17.510465621948242 -6.729544639587402 -0.105106420814991
17.507078170776367 -6.267461776733398 -0.10817670822143555
17.48477554321289 -6.218573570251465 -0.10793638229370117
17.448013305664062 -6.122847557067871 -0.10749070346355438
17.40694808959961 -6.06789493560791 -0.10772153735160828
17.429895401000977 -5.993690490722656 -0.10827092826366425
17.40216636657715 -5.94379997253418 -0.10803121328353882
17.413633346557617 -5.865942001342773 -0.10910040140151978
17.440277099609375 -5.8346452713012695 -0.10916401445865631
17.41289520263672 -5.784154891967773 -0.10888512432575226
17.442710876464844 -5.753893852233887 -0.10963907837867737
17.450706481933594 -5.715810298919678 -0.10960392653942108
17.464309692382812 -5.67957878112793 -0.11014628410339355
17.477806091308594 -5.643889427185059 -0.11013489961624146
17.486841201782227 -5.606167316436768 -0.11017648875713348
17.491838455200195 -5.567183494567871 -0.1106501966714859
17.500709533691406 -5.529443740844727 -0.11066842079162598
17.5062255859375 -5.49125862121582 -0.11118149757385254
17.46969223022461 -5.439423561096191 -0.11149277538061142
17.518543243408203 -5.414192199707031 -0.11164364218711853
17.507274627685547 -5.370352745056152 -0.11149860173463821
17.51373291015625 -5.332594871520996 -0.11201807111501694
17.519729614257812 -5.294131278991699 -0.11199632287025452
17.530271530151367 -5.257061958312988 -0.11254853755235672
17.518726348876953 -5.173287391662598 -0.11289018392562866
17.517364501953125 -5.133387088775635 -0.11281199753284454
17.521305084228516 -5.015151023864746 -0.11317178606987
17.500732421875 -4.30122184753418 -0.1162370890378952
17.49439239501953 -4.183218002319336 -0.1165657788515091
17.495227813720703 -4.10560417175293 -0.11643951386213303
17.497966766357422 -4.067388534545898 -0.11641266942024231
17.514795303344727 -3.9941930770874023 -0.1174851804971695
17.4957218170166 -3.9511022567749023 -0.11731047928333282
17.499187469482422 -3.874502658843994 -0.11722048372030258
17.491514205932617 -3.834744453430176 -0.11765240132808685
17.481718063354492 -3.7555065155029297 -0.11798973381519318
17.468486785888672 -3.7147586345672607 -0.1178026869893074
17.47166633605957 -3.676999092102051 -0.11832623183727264
17.455848693847656 -3.635300636291504 -0.11816661059856415
17.467885971069336 -3.600003719329834 -0.11815930157899857
17.443735122680664 -3.5185086727142334 -0.11844909191131592
17.44475555419922 -3.481055498123169 -0.11842016875743866
17.437976837158203 -3.403404951095581 -0.11878085136413574
17.427898406982422 -3.363908529281616 -0.11868026852607727
17.37499237060547 -2.2306711673736572 -0.12297014892101288
17.36495018005371 -2.1185035705566406 -0.12280215322971344
17.340301513671875 -2.04141902923584 -0.12258881330490112
17.354843139648438 -2.006627082824707 -0.12263457477092743
17.340190887451172 -1.9309659004211426 -0.12351208925247192
17.344022750854492 -1.8949623107910156 -0.12404249608516693
17.364585876464844 -1.8232390880584717 -0.12416470050811768
17.355602264404297 -1.7858912944793701 -0.12404309213161469
17.346012115478516 -1.7111108303070068 -0.12446382641792297
17.345911026000977 -1.6010584831237793 -0.1249462366104126
17.376340866088867 -0.3595861494541168 -0.1282726675271988
9.969799995422363 5.281699180603027 -0.09865517914295197
9.84116268157959 5.293047904968262 -0.0970989540219307
9.769752502441406 5.307809829711914 -0.09631352871656418
9.717251777648926 5.305431365966797 -0.09589174389839172
9.648836135864258 5.320949554443359 -0.0954476147890091
9.599908828735352 5.319977760314941 -0.09507773071527481
9.534205436706543 5.336174488067627 -0.09465384483337402
9.400979042053223 5.3394975662231445 -0.09300501644611359
9.289712905883789 5.35382080078125 -0.09223656356334686
7.942065238952637 5.512491226196289 -0.07947292923927307
7.857088088989258 5.527022361755371 -0.0789751410484314
7.769742012023926 5.5389204025268555 -0.07786408811807632
7.729154586791992 5.534213066101074 -0.07757152616977692
7.702434539794922 5.540009498596191 -0.07742518186569214
7.673248291015625 5.543214321136475 -0.07724568247795105
7.6453046798706055 5.547207832336426 -0.07680527120828629
7.599678993225098 5.538924217224121 -0.07646550238132477
7.589000701904297 5.555293083190918 -0.07648735493421555
7.565424919128418 5.5621843338012695 -0.0763636901974678
7.527706146240234 5.55926513671875 -0.07580086588859558
7.511934280395508 5.571745872497559 -0.07575833797454834
7.475494384765625 5.5688018798828125 -0.07553482055664062
7.409694671630859 5.5684614181518555 -0.07454908639192581
7.378118515014648 5.569099426269531 -0.07435315102338791
7.335367202758789 5.585104942321777 -0.07415051013231277
7.258150100708008 5.59874153137207 -0.07346208393573761
7.170350074768066 5.60326623916626 -0.0726417601108551
7.084237098693848 5.608431816101074 -0.07187409698963165
6.9985246658325195 5.612505912780762 -0.07080275565385818
6.44360876083374 5.675179958343506 -0.06596702337265015
6.378850936889648 5.6897501945495605 -0.06541284173727036
6.327849864959717 5.692291736602783 -0.06514306366443634
6.3099565505981445 5.6999311447143555 -0.06455887109041214
6.256649017333984 5.699810028076172 -0.06426339596509933
6.236671447753906 5.7056708335876465 -0.06418251246213913
6.184279441833496 5.705436706542969 -0.06364491581916809
6.167994499206543 5.71448278427124 -0.06359273195266724
6.14543342590332 5.717694282531738 -0.06348781287670135
6.119454383850098 5.71726131439209 -0.06283561140298843
6.091030597686768 5.714756965637207 -0.0626668632030487
6.0665154457092285 5.7158403396606445 -0.06252668797969818
6.046006202697754 5.720248222351074 -0.06245286762714386
6.021173477172852 5.72081184387207 -0.06231663003563881
6.0013532638549805 5.726090431213379 -0.06198814511299133
5.976805686950684 5.726410865783691 -0.06159523129463196
5.957402229309082 5.731911659240723 -0.06152770295739174
5.9297261238098145 5.729394912719727 -0.06136021763086319
5.911545753479004 5.735597133636475 -0.061057835817337036
5.884524822235107 5.733835220336914 -0.06090671569108963
5.862728118896484 5.736362457275391 -0.06080242246389389
5.828188896179199 5.750809669494629 -0.060439348220825195
5.798011779785156 5.744828701019287 -0.06001100316643715
5.760401725769043 5.75584077835083 -0.059866763651371
5.735703468322754 5.754999160766602 -0.05948289483785629
5.679448127746582 5.746756553649902 -0.059168096631765366
5.664254188537598 5.755221366882324 -0.05888013541698456
5.626951217651367 5.765688896179199 -0.05874793976545334
5.558243751525879 5.767382621765137 -0.05791852995753288
5.494332313537598 5.773268222808838 -0.05740073323249817
5.249878883361816 5.802493095397949 -0.054927483201026917
5.193395614624023 5.813106536865234 -0.05449452996253967
5.126224994659424 5.811039924621582 -0.05394614487886429
5.112383842468262 5.819648742675781 -0.05368006229400635
5.075915336608887 5.827448844909668 -0.053328558802604675
5.051362037658691 5.823617458343506 -0.05319661647081375
5.033402442932129 5.827674865722656 -0.05313492566347122
5.018226623535156 5.8348798751831055 -0.05285711586475372
5.00340461730957 5.842126369476318 -0.05260904133319855
4.972036361694336 5.83066463470459 -0.052408527582883835
4.952789306640625 5.8325653076171875 -0.052331697195768356
4.939469337463379 5.841404914855957 -0.05231750011444092
4.917352676391602 5.840510368347168 -0.05175410956144333
4.895683288574219 5.839324951171875 -0.05165061727166176
4.8726654052734375 5.836806774139404 -0.05153694003820419
4.856485366821289 5.842370986938477 -0.051497310400009155
4.840116024017334 5.847320556640625 -0.0512322373688221
4.813054084777832 5.839634895324707 -0.05083553493022919
4.7961015701293945 5.84407901763916 -0.05078238993883133
4.779167175292969 5.848150253295898 -0.050733618438243866
4.760184288024902 5.850383758544922 -0.050449177622795105
4.7378129959106445 5.847635269165039 -0.05010432004928589
4.719884872436523 5.850286483764648 -0.05027588829398155
4.700333595275879 5.851588249206543 -0.049982450902462006
4.689060211181641 5.862429618835449 -0.049772486090660095
4.66412878036499 5.856514930725098 -0.04940355196595192
4.64863395690918 5.862331390380859 -0.04937116429209709
4.6341552734375 5.869049072265625 -0.04934383183717728
4.610564231872559 5.864536285400391 -0.04900963604450226
4.586851119995117 5.859710693359375 -0.04864926263689995
4.575064659118652 5.869709014892578 -0.04865853115916252
4.558839797973633 5.874378204345703 -0.048392899334430695
4.537327289581299 5.872129440307617 -0.04829969257116318
4.524441242218018 5.880634307861328 -0.04828433692455292
4.50483512878418 5.880749702453613 -0.04797939956188202
4.47882080078125 5.8723464012146 -0.047617074102163315
4.4695820808410645 5.88552188873291 -0.04765022546052933
4.428234100341797 5.882346153259277 -0.04723995923995972
4.411374092102051 5.885719299316406 -0.04697595536708832
4.380846977233887 5.89617919921875 -0.04691772907972336
4.360784530639648 5.895084381103516 -0.04638328403234482
4.3236894607543945 5.8967180252075195 -0.04625646770000458
4.305926322937012 5.898119926452637 -0.04619496315717697
4.274789810180664 5.907552719116211 -0.04570451378822327
4.257479667663574 5.9094133377075195 -0.04565287008881569
4.217477798461914 5.906176567077637 -0.04504358395934105
4.205705165863037 5.9156084060668945 -0.04504891484975815
4.1656107902526855 5.911776542663574 -0.04467121139168739
4.127578258514404 5.910510063171387 -0.044303253293037415
4.122091293334961 5.928824424743652 -0.044165343046188354
4.080960273742676 5.922729969024658 -0.04399939626455307
4.064999580383301 5.925848007202148 -0.04372682422399521
4.01948356628418 5.912724018096924 -0.04329875111579895
4.015652179718018 5.933535575866699 -0.04338393360376358
3.974304437637329 5.926054000854492 -0.04277785122394562
3.961282253265381 5.933591842651367 -0.042767882347106934
3.946526527404785 5.938137054443359 -0.042742908000946045
3.9280152320861816 5.937383651733398 -0.04223908856511116
3.91188383102417 5.940127372741699 -0.042206842452287674
3.893507480621338 5.939430236816406 -0.042138587683439255
3.877035617828369 5.941155910491943 -0.04189307987689972
3.860630512237549 5.943307876586914 -0.04164076969027519
3.8369641304016113 5.934206962585449 -0.04152022302150726
3.8306965827941895 5.951564788818359 -0.04137646406888962
3.81797456741333 5.95973539352417 -0.04115091264247894
3.796154499053955 5.952835559844971 -0.04105442389845848
3.777639627456665 5.951006889343262 -0.040781594812870026
3.7647924423217773 5.958864212036133 -0.04078015685081482
3.7482900619506836 5.960099220275879 -0.0405050590634346
3.7221944332122803 5.945949554443359 -0.04035717993974686
3.7055814266204834 5.9476237297058105 -0.04011289402842522
3.6919655799865723 5.95326042175293 -0.0400998517870903
3.678798198699951 5.959994316101074 -0.03987342119216919
3.659707546234131 5.957111835479736 -0.03959693759679794
3.6486291885375977 5.966806411743164 -0.039610665291547775
3.626322031021118 5.958462715148926 -0.039283327758312225
3.60844349861145 5.957313537597656 -0.039021871984004974
3.594425678253174 5.9620561599731445 -0.0390041321516037
3.5817315578460693 5.969804763793945 -0.03900595009326935
3.5694265365600586 5.977377891540527 -0.038781777024269104
3.5481228828430176 5.969811916351318 -0.03848355636000633
3.5370137691497803 5.980171203613281 -0.038499873131513596
3.514742374420166 5.970758438110352 -0.03839338570833206
3.495755195617676 5.966793060302734 -0.03789776191115379
3.477837562561035 5.965390205383301 -0.0380631685256958
3.4687323570251465 5.978250503540039 -0.0376938097178936
3.450533628463745 5.975417137145996 -0.03763127326965332
9.883462905883789 5.723361968994141 -0.004114089533686638
9.745744705200195 5.7257256507873535 -0.004082664847373962
9.633350372314453 5.741461277008057 -0.004058643709868193
9.507011413574219 5.747465133666992 -0.0036881593987345695
9.387008666992188 5.7558088302612305 -0.0033197402954101562
8.091390609741211 5.870875358581543 0.000479996670037508
7.997974395751953 5.8801984786987305 0.0007919701747596264
7.90294075012207 5.887224197387695 0.001066888216882944
7.813632965087891 5.897436141967773 0.0016520768404006958
7.731081962585449 5.88640022277832 0.0016394886188209057
7.716874122619629 5.900919437408447 0.0016439021565020084
7.65635347366333 5.905904769897461 0.0016301842406392097
7.621883392333984 5.904584884643555 0.0019011960830539465
7.60200834274292 5.914470672607422 0.0019024594221264124
7.567919731140137 5.913947105407715 0.002192249521613121
7.539143085479736 5.916698455810547 0.0022004907950758934
7.518062114715576 5.925406455993652 0.002190292114391923
7.4823150634765625 5.923188209533691 0.00218974775634706
7.448782920837402 5.921830177307129 0.002452571876347065
7.424941062927246 5.928455352783203 0.0027263788506388664
7.391901016235352 5.927585601806641 0.0027115694247186184
7.367430210113525 5.933124542236328 0.002710515633225441
7.277767181396484 5.9367265701293945 0.0032680367585271597
7.185659408569336 5.9376020431518555 0.0032345422077924013
7.11961555480957 5.958742141723633 0.0034977588802576065
6.413056373596191 6.016538619995117 0.005963646806776524
6.390371322631836 6.02023983001709 0.005938245449215174
6.334128379821777 6.017805099487305 0.006191594991832972
6.324051856994629 6.03325080871582 0.006448204629123211
6.269832611083984 6.032166481018066 0.006414675619453192
6.235077857971191 6.024044513702393 0.00638717832043767
6.1927056312561035 6.03338623046875 0.0066232639364898205
6.159724235534668 6.026571273803711 0.0068723480217158794
6.1492156982421875 6.0417022705078125 0.006882825866341591
6.120765686035156 6.038763999938965 0.007114442065358162
6.095839500427246 6.039538860321045 0.007087061647325754
6.072568893432617 6.041891098022461 0.007091865409165621
6.0485734939575195 6.0430474281311035 0.0073420098051428795
6.030522346496582 6.050420761108398 0.007586269173771143
5.994375228881836 6.039555549621582 0.007557283155620098
5.981493949890137 6.051993370056152 0.007557411212474108
5.9603352546691895 6.055669784545898 0.007539049256592989
5.933631896972656 6.054004192352295 0.0078025804832577705
5.902556419372559 6.047702312469482 0.008014492690563202
5.886135578155518 6.056356430053711 0.008021014742553234
5.860005855560303 6.054559707641602 0.00799436867237091
5.83177375793457 6.050816535949707 0.007969408296048641
5.811432838439941 6.0551958084106445 0.008203523233532906
5.800151824951172 6.068600654602051 0.008474981412291527
5.7725043296813965 6.0651726722717285 0.008458898402750492
5.7487077713012695 6.065713882446289 0.008435860276222229
5.733637809753418 6.075013160705566 0.008671426214277744
5.681826591491699 6.071136474609375 0.00889614224433899
5.660444736480713 6.073503494262695 0.008622720837593079
5.612799644470215 6.073464393615723 0.009092430584132671
5.551772594451904 6.08371639251709 0.00904611125588417
5.487180709838867 6.089382171630859 0.009507962502539158
5.420426368713379 6.0918803215026855 0.00968609657138586
5.241048812866211 6.119606971740723 0.010556456632912159
5.17217493057251 6.116602420806885 0.010985474102199078
5.105187892913818 6.114940643310547 0.011157752014696598
5.074955940246582 6.13102912902832 0.01163390651345253
5.051103115081787 6.128058433532715 0.011606073938310146
5.006964683532715 6.126900672912598 0.011790919117629528
4.992315769195557 6.134914398193359 0.011786462739109993
4.963857650756836 6.125865936279297 0.01200013980269432
4.948098182678223 6.133156776428223 0.011996258050203323
4.924043655395508 6.129324913024902 0.01219570729881525
4.906528472900391 6.133547782897949 0.01218433864414692
4.89301872253418 6.143518447875977 0.012431702576577663
4.868256568908691 6.138525485992432 0.012398771941661835
4.8486409187316895 6.140322208404541 0.012618963606655598
4.829297065734863 6.1423563957214355 0.012600423768162727
4.807854652404785 6.141270637512207 0.012567478232085705
4.784218788146973 6.137681007385254 0.013025255873799324
4.769513130187988 6.145440101623535 0.013020817190408707
4.753692150115967 6.151368141174316 0.013012547045946121
4.73501443862915 6.154327869415283 0.012989401817321777
4.712780952453613 6.151802062988281 0.013435879722237587
4.690545558929443 6.149168014526367 0.013411268591880798
4.674107551574707 6.154839992523193 0.013157756999135017
4.648924827575684 6.148128509521484 0.01333636324852705
4.633460521697998 6.154182434082031 0.01380267832428217
4.617237091064453 6.159975051879883 0.013792052865028381
4.599576950073242 6.163021564483643 0.013784831389784813
4.572237491607666 6.153397083282471 0.013733398169279099
4.555127143859863 6.1573920249938965 0.014198223128914833
4.541160583496094 6.1652326583862305 0.014189014211297035
4.524781227111816 6.170179843902588 0.01418047770857811
4.500452995300293 6.1641645431518555 0.014361782930791378
4.478233814239502 6.160947322845459 0.014575904235243797
4.4683732986450195 6.174282550811768 0.0145888552069664
4.445874214172363 6.1704912185668945 0.014559385366737843
4.430122375488281 6.176025390625 0.014764633029699326
4.393243789672852 6.178978443145752 0.014972773380577564
4.369915008544922 6.173669815063477 0.014939254149794579
4.342238903045654 6.189264297485352 0.01515620294958353
4.313461780548096 6.175884246826172 0.015334999188780785
4.282086372375488 6.186298370361328 0.015535971149802208
4.266061782836914 6.190559387207031 0.015527776442468166
4.219016075134277 6.17781400680542 0.015666116029024124
4.177757263183594 6.200743675231934 0.01632728986442089
4.121715068817139 6.20134162902832 0.016718655824661255
4.071416854858398 6.209999084472656 0.016671622171998024
4.031130790710449 6.205390453338623 0.017062552273273468
4.015499591827393 6.209496974945068 0.017057199031114578
3.980539321899414 6.212658882141113 0.01746704801917076
3.9558606147766113 6.202439308166504 0.017411936074495316
3.9420626163482666 6.210026741027832 0.0174119770526886
3.9246139526367188 6.2109880447387695 0.017600130289793015
3.9051146507263184 6.209024906158447 0.017811546102166176
3.885769844055176 6.207249641418457 0.017783598974347115
3.873675584793091 6.216577529907227 0.01800386607646942
3.8534369468688965 6.213190078735352 0.017962858080863953
3.8343305587768555 6.211565017700195 0.01817018911242485
3.82125186920166 6.219214916229248 0.018378840759396553
3.8029918670654297 6.21879768371582 0.018130134791135788
3.785170316696167 6.219058990478516 0.018544793128967285
3.7647387981414795 6.214491844177246 0.018719300627708435
3.753098726272583 6.224799156188965 0.01872539147734642
3.73591947555542 6.225934028625488 0.018707670271396637
3.718759536743164 6.226588249206543 0.019128456711769104
3.699256658554077 6.224098205566406 0.01910042017698288
3.6835150718688965 6.226998805999756 0.01908126100897789
3.6633903980255127 6.222409725189209 0.019042663276195526
3.6457738876342773 6.222855091094971 0.019460439682006836
3.6331748962402344 6.230959892272949 0.01946558803319931
3.6191115379333496 6.236968040466309 0.019456952810287476
3.5956313610076904 6.226688385009766 0.019844096153974533
3.573030948638916 6.217308044433594 0.019788455218076706
3.564812660217285 6.233335494995117 0.019815970212221146
3.54904842376709 6.23622465133667 0.020008666440844536
3.5307021141052246 6.23404598236084 0.020206164568662643
3.5178139209747314 6.242349624633789 0.020207930356264114
3.5021698474884033 6.244853496551514 0.020403921604156494
3.479959487915039 6.2355451583862305 0.020346689969301224
3.4645543098449707 6.239224433898926 0.02056429535150528
3.4535064697265625 6.249853134155273 0.020573865622282028
3.4379687309265137 6.252782821655273 0.020768016576766968
3.416367530822754 6.244623184204102 0.020941372960805893
3.401124954223633 6.2475175857543945 0.02070247009396553
3.3861141204833984 6.251709938049316 0.021108228713274002
3.3526597023010254 6.2207350730896 0.0209849514067173
17.766826629638672 2.179633617401123 -0.10085038840770721
17.711929321289062 2.588937282562256 -0.10139410197734833
17.478870391845703 4.191347122192383 -0.10346069931983948
17.450054168701172 4.300623893737793 -0.10347513854503632
17.43010902404785 4.41212272644043 -0.10350561141967773
17.396575927734375 4.5201945304870605 -0.10403023660182953
14.487911224365234 4.992420673370361 -0.08924651145935059
14.25166130065918 5.0114641189575195 -0.08800248801708221
14.027907371520996 5.032096862792969 -0.0863586962223053
13.88939380645752 5.048530578613281 -0.08562307059764862
13.82042407989502 5.055954933166504 -0.08526625484228134
13.67384147644043 5.06772518157959 -0.08449681103229523
13.61334228515625 5.07745885848999 -0.0841875821352005
13.469032287597656 5.088351249694824 -0.08342590183019638
13.26829719543457 5.108063220977783 -0.0828043594956398
13.050057411193848 5.118475914001465 -0.08165992051362991
12.880682945251465 5.145709037780762 -0.08080746233463287
12.704501152038574 5.16817569732666 -0.07991202175617218
11.447710037231445 5.285636901855469 -0.07308769226074219
11.289956092834473 5.299156188964844 -0.07229435443878174
11.139939308166504 5.314457893371582 -0.07154223322868347
10.98471450805664 5.325436115264893 -0.07077573239803314
10.894060134887695 5.338265419006348 -0.06994886696338654
10.843854904174805 5.34160041809082 -0.06973016262054443
10.74632453918457 5.349912643432617 -0.06921766698360443
10.712461471557617 5.360824108123779 -0.06909825652837753
10.660257339477539 5.362390518188477 -0.06881536543369293
10.60969352722168 5.365385055541992 -0.06926881521940231
10.561635971069336 5.368633270263672 -0.06866735965013504
10.514045715332031 5.371930122375488 -0.06846226006746292
10.464048385620117 5.374603271484375 -0.06819362938404083
10.416143417358398 5.377346038818359 -0.06795505434274673
10.37657356262207 5.384613037109375 -0.0677771270275116
10.332733154296875 5.389519214630127 -0.06756861507892609
10.29010009765625 5.39447546005249 -0.0670105442404747
10.157632827758789 5.407096862792969 -0.06636594235897064
10.024515151977539 5.417386054992676 -0.06571465730667114
9.072317123413086 5.510087013244629 -0.06088604778051376
8.955753326416016 5.516657829284668 -0.060353271663188934
8.854708671569824 5.531502723693848 -0.05955968052148819
8.74714469909668 5.541445732116699 -0.05910941958427429
8.717241287231445 5.5478835105896 -0.058634139597415924
8.675749778747559 5.547170639038086 -0.05874493718147278
8.650612831115723 5.5568060874938965 -0.058674588799476624
8.618691444396973 5.561600208282471 -0.05853753536939621
8.578786849975586 5.561461448669434 -0.05802091211080551
8.532920837402344 5.557290077209473 -0.05778270959854126
8.514516830444336 5.570502758026123 -0.057739727199077606
8.474706649780273 5.569967269897461 -0.05754437297582626
8.439380645751953 5.572239875793457 -0.0573742613196373
8.403791427612305 5.574179172515869 -0.05723363161087036
8.349527359008789 5.588603496551514 -0.057020701467990875
8.30864143371582 5.586596488952637 -0.05680835247039795
8.248014450073242 5.596057415008545 -0.0562630295753479
8.215328216552734 5.599170207977295 -0.05611220374703407
8.161401748657227 5.612897872924805 -0.05560221150517464
8.128046035766602 5.614839553833008 -0.05546192079782486
8.051101684570312 5.61191987991333 -0.055098921060562134
8.01244831085205 5.609719276428223 -0.05491788312792778
7.957669258117676 5.621455192565918 -0.054399408400058746
7.33463191986084 5.681744575500488 -0.05064936727285385
7.3133440017700195 5.689577579498291 -0.05059584230184555
7.2465667724609375 5.686777114868164 -0.050284601747989655
7.2234954833984375 5.692933082580566 -0.04990742355585098
7.168573379516602 5.698752403259277 -0.04968941584229469
7.140377044677734 5.700560092926025 -0.049586616456508636
7.111659049987793 5.702550888061523 -0.04947306215763092
7.087540626525879 5.70741605758667 -0.04937506839632988
7.055898666381836 5.706113338470459 -0.049244724214076996
7.0338897705078125 5.7132110595703125 -0.049174707382917404
6.993969917297363 5.704916477203369 -0.04869621619582176
6.981075286865234 5.718931198120117 -0.04842830076813698
6.943896770477295 5.7129411697387695 -0.048245757818222046
6.919355392456055 5.716869354248047 -0.048152387142181396
6.894155502319336 5.720529079437256 -0.0480671301484108
6.871206283569336 5.725950717926025 -0.04800888150930405
6.84536075592041 5.728524208068848 -0.04790502041578293
6.826903343200684 5.737919807434082 -0.04785414785146713
6.795257568359375 5.735426902770996 -0.0474349781870842
6.770639419555664 5.739116668701172 -0.04736077040433884
6.741571426391602 5.738905906677246 -0.047234028577804565
6.726112365722656 5.749861717224121 -0.047214820981025696
6.690629005432129 5.744311332702637 -0.047053612768650055
6.655400276184082 5.738100051879883 -0.046623244881629944
6.633635520935059 5.743376731872559 -0.046549029648303986
6.612537384033203 5.749870777130127 -0.046215739101171494
6.579825401306152 5.745448589324951 -0.04630855470895767
6.557139873504639 5.749666690826416 -0.045990295708179474
6.51442813873291 5.760922908782959 -0.04558504745364189
6.4344987869262695 5.762729644775391 -0.04528791457414627
6.371337413787842 5.778752326965332 -0.04508095979690552
6.285564422607422 5.773392200469971 -0.0442097932100296
6.1444315910339355 5.788572788238525 -0.04346280172467232
6.074545860290527 5.7952470779418945 -0.04323307424783707
6.021856307983398 5.793618202209473 -0.042789526283741
6.01096248626709 5.807206153869629 -0.042498040944337845
5.957769393920898 5.8045244216918945 -0.042302653193473816
5.935107231140137 5.8065009117126465 -0.04197190701961517
5.883123397827148 5.80433464050293 -0.041782841086387634
5.867948055267334 5.813442230224609 -0.04150490462779999
5.8207292556762695 5.8154401779174805 -0.04134439677000046
5.80096435546875 5.819797515869141 -0.04128298908472061
5.768795967102051 5.811938285827637 -0.04115047678351402
5.756689071655273 5.824230194091797 -0.04114678502082825
5.733538627624512 5.824936866760254 -0.041065365076065063
5.712567329406738 5.828483581542969 -0.04050467908382416
5.689573764801025 5.8291730880737305 -0.04043220728635788
5.668732643127441 5.83198356628418 -0.04037497937679291
5.647853851318359 5.835392951965332 -0.04030855745077133
5.625162124633789 5.836134433746338 -0.040231287479400635
5.599416732788086 5.8336029052734375 -0.040135398507118225
5.592389106750488 5.851250648498535 -0.04017789289355278
5.561457633972168 5.84311580657959 -0.03978612646460533
5.53378963470459 5.838604927062988 -0.0396701842546463
5.515043258666992 5.843432426452637 -0.03938887640833855
5.495177745819092 5.846643447875977 -0.03933897614479065
5.481192588806152 5.856783866882324 -0.03929157555103302
5.449418067932129 5.847105979919434 -0.038901206105947495
5.433059215545654 5.854209899902344 -0.038638636469841
5.415670394897461 5.860185623168945 -0.03860458359122276
5.391301155090332 5.858158111572266 -0.03851480782032013
5.366249084472656 5.855623245239258 -0.03842020034790039
5.350789546966553 5.8635053634643555 -0.03840155526995659
5.331391334533691 5.8666534423828125 -0.038349732756614685
5.286821365356445 5.867062568664551 -0.03795522451400757
5.266971588134766 5.869482040405273 -0.037667062133550644
5.232287406921387 5.880463600158691 -0.03759874403476715
5.209809303283691 5.880075454711914 -0.03753003850579262
5.151341438293457 5.888250827789307 -0.037124380469322205
5.083492279052734 5.884943962097168 -0.0366765633225441
5.040668964385986 5.885290145874023 -0.036295823752880096
4.9851226806640625 5.895047187805176 -0.03615215793251991
4.927895545959473 5.902233123779297 -0.035532720386981964
4.888806343078613 5.905794143676758 -0.03542948514223099
4.87054443359375 5.908653259277344 -0.035382866859436035
4.836236000061035 5.917633056640625 -0.03507690876722336
4.8137712478637695 5.915534973144531 -0.03500601649284363
4.786507606506348 5.907029151916504 -0.034672707319259644
4.772208213806152 5.914789199829102 -0.03466304391622543
4.748103141784668 5.910347938537598 -0.034336116164922714
4.735459804534912 5.919729232788086 -0.03433367237448692
4.707501411437988 5.910236358642578 -0.034216418862342834
4.697959899902344 5.923823356628418 -0.03424721956253052
4.6788411140441895 5.925288200378418 -0.034195154905319214
4.662463188171387 5.930190563201904 -0.03394095599651337
4.640878677368164 5.928014755249023 -0.03363567590713501
4.616379737854004 5.922359943389893 -0.03355336934328079
4.601315021514893 5.928750991821289 -0.033532753586769104
4.585664749145508 5.933968544006348 -0.03350747749209404
4.567786693572998 5.936615943908691 -0.03346899896860123
4.545213222503662 5.933098316192627 -0.033157460391521454
4.526762962341309 5.934846878051758 -0.03333466500043869
4.512694835662842 5.941933631896973 -0.03332432731986046
4.494699001312256 5.944195747375488 -0.03327721357345581
4.475450038909912 5.944705963134766 -0.0327766127884388
4.45168399810791 5.938746452331543 -0.03269065544009209
4.43669319152832 5.944803237915039 -0.03267793729901314
4.423483371734619 5.9532012939453125 -0.03267236799001694
4.405605792999268 5.955307960510254 -0.032630424946546555
4.3882365226745605 5.958014965057373 -0.03259599208831787
4.353634834289551 5.936797142028809 -0.03219804912805557
4.345146179199219 5.951473712921143 -0.03200864791870117
4.331752300262451 5.95942497253418 -0.032004464417696
4.309112548828125 5.954220294952393 -0.03192692622542381
4.288022041320801 5.951436996459961 -0.0318681001663208
4.275199890136719 5.960048675537109 -0.03163214027881622
4.253396987915039 5.955709457397461 -0.03155757114291191
4.240229606628418 5.964170455932617 -0.03155704587697983
4.220387935638428 5.962423801422119 -0.03128949925303459
