VERSION .7
FIELDS x y z
SIZE 4 4 4
TYPE F F F
COUNT 1 1 1
WIDTH 834
HEIGHT 1
VIEWPOINT 0 0 0 1 0 0 0
POINTS 834
DATA ascii
4.687413692474365 5.8596649169921875 0.013269258663058281
4.675727844238281 5.870344161987305 0.01327122375369072
4.650123596191406 5.863124847412109 0.0132330022752285
4.647802352905273 5.885621070861816 0.013262009248137474
4.614140510559082 5.868348598480225 0.013656200841069221
4.595014572143555 5.869050025939941 0.01363622210919857
4.575229644775391 5.869208335876465 0.013614100404083729
4.563218116760254 5.879279613494873 0.013615232892334461
4.538357257843018 5.872748851776123 0.014030384831130505
4.522344589233398 5.877556800842285 0.014019351452589035
4.503689765930176 5.878511428833008 0.013999545015394688
4.494617462158203 5.892339706420898 0.014009658247232437
4.465867042541504 5.880274772644043 0.01440962590277195
4.45078182220459 5.885730743408203 0.014412345364689827
4.4292073249816895 5.8829193115234375 0.014382581226527691
4.417238712310791 5.892794609069824 0.014383960515260696
4.395727157592773 5.889909267425537 0.014354283921420574
4.376776695251465 5.88997745513916 0.014780169352889061
4.353569030761719 5.884577751159668 0.014743590727448463
4.341229438781738 5.893826007843018 0.01474381797015667
4.318345069885254 5.888675689697266 0.014708162285387516
4.3057732582092285 5.897154808044434 0.014923803508281708
4.280908584594727 5.8891096115112305 0.015108782798051834
4.263062477111816 5.890588760375977 0.015089523047208786
4.246466636657715 5.893367290496826 0.01507403515279293
4.237128257751465 5.90660285949707 0.015300588682293892
4.217777252197266 5.905834197998047 0.015503305941820145
4.198446273803711 5.904635906219482 0.01547725684940815
4.170514106750488 5.891963005065918 0.015420651063323021
4.163924217224121 5.90861701965332 0.01588277891278267
4.141058921813965 5.902538299560547 0.01584295555949211
4.128740310668945 5.911406517028809 0.01584339514374733
4.11277961730957 5.9146623611450195 0.015829212963581085
4.092446327209473 5.911951065063477 0.01601248048245907
4.07474422454834 5.912935256958008 0.0162168201059103
4.061802387237549 5.920413017272949 0.016214177012443542
4.041022300720215 5.916804313659668 0.016180943697690964
4.027171611785889 5.92325496673584 0.016624893993139267
4.003213882446289 5.914378643035889 0.016575973480939865
3.9860494136810303 5.916206359863281 0.016769174486398697
3.9682207107543945 5.916201591491699 0.016745850443840027
3.936946392059326 5.923346996307373 0.016940752044320107
3.925095558166504 5.932183265686035 0.01715480349957943
3.889751434326172 5.932910919189453 0.01733178272843361
3.8680801391601562 5.926643371582031 0.017500024288892746
3.836484909057617 5.932672023773193 0.01747030019760132
3.7975549697875977 5.927064895629883 0.017836011946201324
3.7870278358459473 5.9377241134643555 0.017844557762145996
3.754734992980957 5.942142486572266 0.01802995055913925
3.7394018173217773 5.94516134262085 0.018224405124783516
3.715244770050049 5.934847831726074 0.018168315291404724
3.6963367462158203 5.931979179382324 0.018354348838329315
3.6857216358184814 5.942381858825684 0.01836351677775383
3.665950059890747 5.938790798187256 0.018535900861024857
3.6531496047973633 5.945622444152832 0.01853320002555847
3.6379151344299316 5.948886871337891 0.0187375545501709
3.6198854446411133 5.947494983673096 0.01913418434560299
3.6013059616088867 5.944711685180664 0.019101012498140335
3.5894012451171875 5.9533233642578125 0.01910487934947014
3.5678625106811523 5.945866107940674 0.019273608922958374
3.557633399963379 5.956803321838379 0.01949124038219452
3.5387465953826904 5.954036235809326 0.019458051770925522
3.5300090312957764 5.967496395111084 0.019477596506476402
3.498337984085083 5.942061424255371 0.019791625440120697
3.486403465270996 5.950830459594727 0.01979609951376915
3.473804235458374 5.957636833190918 0.019794732332229614
3.457916736602783 5.9587721824646 0.019989892840385437
3.444040060043335 5.96417236328125 0.020188428461551666
3.4283852577209473 5.965615272521973 0.0201689675450325
3.40710186958313 5.957594871520996 0.02011706680059433
3.3896446228027344 5.956127166748047 0.020506177097558975
3.374141216278076 5.957611083984375 0.02048793062567711
3.3607449531555176 5.963216781616211 0.02048281766474247
3.343757152557373 5.962381362915039 0.020669840276241302
3.3330256938934326 5.972262382507324 0.020883452147245407
3.3131394386291504 5.966546058654785 0.02083834633231163
3.294231414794922 5.961610317230225 0.020797070115804672
3.277255058288574 5.960515022277832 0.021184569224715233
3.271010160446167 5.978930950164795 0.021225417032837868
3.2514772415161133 5.972630500793457 0.02117961458861828
3.235285758972168 5.973238945007324 0.021571312099695206
3.2175140380859375 5.969977378845215 0.021747957915067673
20.917970657348633 -2.5039944648742676 -0.02616041898727417
20.90414047241211 -2.3691372871398926 -0.026741575449705124
20.83594512939453 -2.228832483291626 -0.026642829179763794
20.81621551513672 -2.1380910873413086 -0.02726125344634056
20.81552505493164 -2.0943779945373535 -0.027255628257989883
20.77770233154297 -2.002218246459961 -0.027188926935195923
20.761154174804688 -1.9571497440338135 -0.027165569365024567
20.733680725097656 -1.8664991855621338 -0.027728386223316193
20.705068588256836 -1.732776403427124 -0.027676722034811974
18.872879028320312 0.6372770071029663 -0.10340413451194763
18.814159393310547 0.7146302461624146 -0.10365357249975204
18.71407127380371 0.8286762237548828 -0.10312901437282562
18.685054779052734 0.8662465214729309 -0.1029820442199707
18.62362289428711 0.9420142769813538 -0.10324177891016006
18.559825897216797 1.0558044910430908 -0.10293488204479218
17.987430572509766 2.2033886909484863 -0.10473672300577164
17.933422088623047 2.3112950325012207 -0.10450731962919235
17.900415420532227 2.383721351623535 -0.10437248647212982
17.87350082397461 2.417896032333374 -0.10423982888460159
17.845272064208984 2.4906506538391113 -0.10467346012592316
17.817522048950195 2.524484634399414 -0.10454604029655457
17.783245086669922 2.596069812774658 -0.10440333187580109
17.76093101501465 2.630466938018799 -0.10430639237165451
17.715795516967773 2.700075626373291 -0.1041073203086853
17.69851303100586 2.735034942626953 -0.10404372215270996
17.652790069580078 2.804137706756592 -0.10383874177932739
17.64124298095703 2.8398494720458984 -0.10381260514259338
17.600353240966797 2.9093613624572754 -0.10419408977031708
17.547725677490234 3.0141124725341797 -0.1055561825633049
17.175416946411133 3.774268627166748 -0.10524310171604156
17.151611328125 3.8442647457122803 -0.105745330452919
17.12885093688965 3.8770761489868164 -0.10510505735874176
17.095380783081055 3.9452576637268066 -0.10555112361907959
17.081663131713867 3.979445219039917 -0.10551635921001434
17.05854606628418 4.0498738288879395 -0.10547710955142975
17.033266067504883 4.081231117248535 -0.10537373274564743
16.9829044342041 4.144868850708008 -0.1051688864827156
16.9588680267334 4.176309585571289 -0.10507076233625412
16.945133209228516 4.210778713226318 -0.10504075884819031
16.91991424560547 4.242375373840332 -0.10494253039360046
16.92255401611328 4.280381202697754 -0.10501031577587128
16.904155731201172 4.351553440093994 -0.10500900447368622
16.842662811279297 4.373012542724609 -0.10468612611293793
16.71039581298828 4.413872718811035 -0.10397697985172272
16.612520217895508 4.425447463989258 -0.10342657566070557
16.427692413330078 4.449863910675049 -0.10238980501890182
16.137624740600586 4.480890274047852 -0.10169993340969086
14.53664779663086 4.6677141189575195 -0.09225571155548096
14.374370574951172 4.682476043701172 -0.09135016798973083
14.302003860473633 4.691753387451172 -0.09182395040988922
14.128202438354492 4.700732707977295 -0.09083488583564758
14.057798385620117 4.710222244262695 -0.09044443070888519
13.925762176513672 4.7308197021484375 -0.08972248435020447
13.833721160888672 4.7320780754089355 -0.08919482678174973
13.76049518585205 4.739407539367676 -0.08878621459007263
13.69306755065918 4.74847412109375 -0.08841374516487122
13.617751121520996 4.7540364265441895 -0.08799193799495697
13.554875373840332 4.7641191482543945 -0.08765017986297607
13.48524284362793 4.771585464477539 -0.0872645229101181
13.421817779541016 4.780506134033203 -0.08691710233688354
13.337961196899414 4.782298564910889 -0.08644182980060577
13.282865524291992 4.794145584106445 -0.08614883571863174
13.219156265258789 4.802180290222168 -0.08579971641302109
13.133649826049805 4.802436351776123 -0.08531040698289871
13.078780174255371 4.8136305809021 -0.08502046763896942
13.013333320617676 4.820670127868652 -0.08465968817472458
12.881464958190918 4.833174705505371 -0.08393226563930511
12.813983917236328 4.838649749755859 -0.08355852961540222
12.696200370788574 4.855364799499512 -0.08209195733070374
12.623734474182129 4.85770320892334 -0.08251643180847168
11.480768203735352 4.980799674987793 -0.07558125257492065
11.423627853393555 4.984203338623047 -0.07527252286672592
11.328880310058594 4.999762058258057 -0.07478716224431992
11.272285461425781 5.002758979797363 -0.07486745715141296
11.163537979125977 5.010875701904297 -0.0742848664522171
11.127272605895996 5.022786617279053 -0.07411414384841919
11.067049980163574 5.023672103881836 -0.07378183305263519
11.009122848510742 5.024956226348877 -0.07346649467945099
10.95882511138916 5.029919624328613 -0.07320044934749603
10.919923782348633 5.039919853210449 -0.07301098853349686
10.861080169677734 5.040127754211426 -0.07268765568733215
10.820100784301758 5.0488386154174805 -0.07248452305793762
10.759450912475586 5.048144817352295 -0.07214902341365814
10.728165626525879 5.061066627502441 -0.07201133668422699
10.667373657226562 5.059866905212402 -0.07167394459247589
10.624554634094238 5.066591262817383 -0.0714576244354248
10.579166412353516 5.07232666015625 -0.07122455537319183
10.542609214782715 5.082119941711426 -0.0710495263338089
10.484962463378906 5.081172466278076 -0.07073052227497101
10.440910339355469 5.087395668029785 -0.07050788402557373
10.39017105102539 5.089380264282227 -0.0702357217669487
10.301316261291504 5.099760055541992 -0.06907825917005539
10.260266304016113 5.10597562789917 -0.0688745528459549
10.123273849487305 5.1174540519714355 -0.06854211539030075
9.988143920898438 5.128234386444092 -0.06784413754940033
9.427316665649414 5.196218490600586 -0.06438818573951721
9.379079818725586 5.195037364959717 -0.0641322135925293
9.29942512512207 5.202216148376465 -0.06373680382966995
9.261183738708496 5.206086158752441 -0.06354860961437225
9.189321517944336 5.216739654541016 -0.0628747045993805
9.137049674987793 5.212166786193848 -0.06262409687042236
9.110931396484375 5.223095893859863 -0.06252169609069824
9.079252243041992 5.229997634887695 -0.06237787380814552
9.03270149230957 5.228177547454834 -0.06182378530502319
8.995265007019043 5.232194900512695 -0.06164350360631943
8.967031478881836 5.240705966949463 -0.06152402237057686
8.931116104125977 5.244985580444336 -0.06135207414627075
8.897350311279297 5.250375270843506 -0.06119813024997711
8.846712112426758 5.245275497436523 -0.06092384085059166
8.813741683959961 5.250850677490234 -0.06077234074473381
8.776857376098633 5.253940105438232 -0.06059499830007553
8.753290176391602 5.264909267425537 -0.060506321489810944
8.713661193847656 5.266083717346191 -0.05999258533120155
8.671598434448242 5.265261650085449 -0.05977799743413925
8.64095687866211 5.271953582763672 -0.05964305251836777
8.603158950805664 5.2734222412109375 -0.059457600116729736
8.563867568969727 5.2738189697265625 -0.05926216393709183
8.53659725189209 5.282210350036621 -0.05915098637342453
8.497772216796875 5.282604217529297 -0.05895795673131943
8.467803955078125 5.288369178771973 -0.058528997004032135
8.427382469177246 5.288183212280273 -0.05832894891500473
8.391999244689941 5.290284156799316 -0.0581592433154583
8.293689727783203 5.301460266113281 -0.05803091824054718
8.194249153137207 5.310752868652344 -0.057569727301597595
7.844289302825928 5.345586776733398 -0.05538669973611832
7.815988540649414 5.350086212158203 -0.05526157468557358
7.757338047027588 5.358055114746094 -0.05471175163984299
7.719614028930664 5.3556952476501465 -0.054521359503269196
7.6577606201171875 5.360696792602539 -0.0542457140982151
7.624112129211426 5.360750198364258 -0.05408570170402527
7.613923072814941 5.3779296875 -0.054097168147563934
7.570255279541016 5.370667457580566 -0.05358905345201492
7.54194974899292 5.374149322509766 -0.054047152400016785
7.519632339477539 5.382504463195801 -0.053973253816366196
7.487488746643066 5.383028984069824 -0.053542740643024445
7.460144519805908 5.38688850402832 -0.05342944338917732
7.424419403076172 5.385259628295898 -0.052969906479120255
7.400958061218262 5.391716003417969 -0.05288052558898926
7.372300148010254 5.394628524780273 -0.05275985971093178
7.347092628479004 5.399983882904053 -0.05265877768397331
7.30000114440918 5.388740539550781 -0.05240098759531975
7.294805526733398 5.409018516540527 -0.05244725942611694
7.249876022338867 5.399056434631348 -0.052204541862010956
7.232131004333496 5.409209251403809 -0.05215654522180557
7.186988353729248 5.399425029754639 -0.05191279947757721
7.179169654846191 5.416894435882568 -0.05193854868412018
7.1454362869262695 5.415434837341309 -0.051228754222393036
7.119379997253418 5.418984413146973 -0.05112446844577789
7.087027549743652 5.4176225662231445 -0.05097087472677231
7.06069803237915 5.4214324951171875 -0.050866901874542236
7.037400245666504 5.42679500579834 -0.05077823996543884
6.9964752197265625 5.418426036834717 -0.05056620016694069
6.953802108764648 5.4323811531066895 -0.05042426288127899
6.92048454284668 5.429849147796631 -0.050262048840522766
6.876547813415527 5.441987037658691 -0.050384894013404846
6.793590545654297 5.446140289306641 -0.04976312071084976
6.726692199707031 5.462660789489746 -0.04925856366753578
6.594840049743652 5.471468925476074 -0.0484577938914299
6.556036949157715 5.46263313293457 -0.048257578164339066
6.527726173400879 5.485785007476807 -0.048217058181762695
6.485739707946777 5.47350549697876 -0.04772630333900452
6.436073303222656 5.478165149688721 -0.04752779379487038
6.412045478820801 5.480700969696045 -0.047435250133275986
6.391873359680176 5.486784934997559 -0.04737124592065811
6.3568878173828125 5.480053901672363 -0.04694928973913193
6.342706203460693 5.490813255310059 -0.04692356288433075
6.319241523742676 5.493812561035156 -0.04683832451701164
6.295016288757324 5.496076583862305 -0.046729154884815216
6.263998985290527 5.491945743560791 -0.04684346169233322
6.238928318023682 5.493581771850586 -0.04674161225557327
6.21825647354126 5.498331069946289 -0.04667874798178673
6.200188636779785 5.50532341003418 -0.04662628471851349
6.17350435256958 5.505259990692139 -0.04625280946493149
6.148575305938721 5.505978584289551 -0.04615609347820282
6.125179290771484 5.508302688598633 -0.04606621712446213
6.102599143981934 5.511293411254883 -0.04598110169172287
6.072442054748535 5.5069804191589355 -0.04560045152902603
6.0541462898254395 5.5136566162109375 -0.04554712772369385
6.034360885620117 5.518937587738037 -0.0454876534640789
6.004133224487305 5.514545440673828 -0.04534737765789032
5.991572380065918 5.526322364807129 -0.0450856052339077
5.963253974914551 5.523149490356445 -0.0449524000287056
5.937000751495361 5.522096633911133 -0.04484763741493225
5.922868728637695 5.532268047332764 -0.04482647031545639
5.890183448791504 5.524669647216797 -0.04442291706800461
5.850224494934082 5.533687591552734 -0.04429881274700165
5.826935291290283 5.5349440574646 -0.04395849257707596
5.7867937088012695 5.543030738830566 -0.04383111000061035
5.750571250915527 5.531591415405273 -0.04364486783742905
5.714017868041992 5.542619705200195 -0.04353170841932297
5.650945663452148 5.551144599914551 -0.043316520750522614
5.582326889038086 5.553127288818359 -0.042576320469379425
5.534041404724121 5.551658630371094 -0.04238368570804596
5.522892475128174 5.5635175704956055 -0.04238903149962425
5.481629371643066 5.568660736083984 -0.04225226119160652
5.452819347381592 5.562784194946289 -0.042120687663555145
5.414087295532227 5.569653511047363 -0.04152551293373108
5.391879558563232 5.570236682891846 -0.041444845497608185
5.371238708496094 5.5723371505737305 -0.04137810692191124
5.352255821228027 5.576103210449219 -0.041322678327560425
5.331850051879883 5.577968597412109 -0.04125480353832245
5.303762435913086 5.572017669677734 -0.040886931121349335
5.28474235534668 5.575507164001465 -0.04060205817222595
5.278265476226807 5.5918707847595215 -0.04064032807946205
5.245827674865723 5.580992698669434 -0.040479883551597595
5.226994514465332 5.5844831466674805 -0.04088190943002701
5.207729816436768 5.587428092956543 -0.040583737194538116
5.183613300323486 5.584744453430176 -0.040247842669487
5.161372184753418 5.584328651428223 -0.04016584903001785
5.138672351837158 5.5833001136779785 -0.03985557332634926
5.127292156219482 5.594541072845459 -0.039858490228652954
5.102336883544922 5.5908918380737305 -0.03975420817732811
5.082884788513184 5.592843055725098 -0.03969439119100571
5.062658309936523 5.594218730926514 -0.03939198702573776
5.052329063415527 5.606479644775391 -0.03940369933843613
5.025668144226074 5.6002197265625 -0.03928457200527191
5.004044532775879 5.599810600280762 -0.038985975086688995
4.991948127746582 5.6099958419799805 -0.038983821868896484
4.969693183898926 5.608377933502197 -0.03890029340982437
4.949206352233887 5.609017372131348 -0.038598768413066864
4.926109313964844 5.6065850257873535 -0.03851018100976944
4.915009021759033 5.61777400970459 -0.03851582109928131
4.890720367431641 5.613813400268555 -0.03819778561592102
4.866319179534912 5.609264373779297 -0.038096774369478226
4.84539794921875 5.608975410461426 -0.038026534020900726
4.843165397644043 5.630304336547852 -0.03786836192011833
4.794644355773926 5.621273040771484 -0.037670865654945374
4.771697998046875 5.618280410766602 -0.03758403658866882
4.741053581237793 5.630083084106445 -0.037287481129169464
4.716617584228516 5.624713897705078 -0.03718701750040054
4.682422161102295 5.631939888000488 -0.03688621520996094
4.645966053009033 5.636207580566406 -0.036785755306482315
4.621018409729004 5.629705429077148 -0.03645268827676773
4.586935043334961 5.636418342590332 -0.03637074679136276
4.570448875427246 5.640027046203613 -0.0361168310046196
4.526698112487793 5.634383201599121 -0.03595856577157974
4.512666702270508 5.6408538818359375 -0.035713694989681244
4.496964454650879 5.645907878875732 -0.03568479046225548
4.480426788330078 5.649161338806152 -0.03564651310443878
4.46053409576416 5.6484785079956055 -0.03536897152662277
4.437855243682861 5.644145965576172 -0.03528328612446785
4.424607753753662 5.651393890380859 -0.03504628688097
4.406572341918945 5.65285062789917 -0.03499767929315567
4.3823747634887695 5.646280288696289 -0.03489981219172478
4.375627517700195 5.662170886993408 -0.034728240221738815
4.349554061889648 5.652984619140625 -0.034616079181432724
4.336977005004883 5.660906791687012 -0.034608952701091766
4.324881076812744 5.669818878173828 -0.03459624946117401
4.308770656585693 5.6734232902526855 -0.03433915600180626
4.285093307495117 5.666623115539551 -0.03424452990293503
4.273712158203125 5.676739692687988 -0.0342504158616066
4.253159523010254 5.673905372619629 -0.034179627895355225
4.232457160949707 5.670769691467285 -0.03389779105782509
4.222495079040527 5.6827073097229 -0.033693231642246246
4.192257881164551 5.666539192199707 -0.03354625031352043
4.179594993591309 5.674384117126465 -0.03354019299149513
4.155516624450684 5.666635513305664 -0.03344205021858215
4.1498122215271 5.683551788330078 -0.033282503485679626
4.132682800292969 5.685198783874512 -0.03324119746685028
4.110815048217773 5.680217266082764 -0.032941531389951706
4.0848565101623535 5.66908073425293 -0.03282701224088669
4.07973051071167 5.687544822692871 -0.0328841358423233
4.0618181228637695 5.687455654144287 -0.03283481299877167
4.049372673034668 5.694980144500732 -0.03262215107679367
4.023111343383789 5.683718204498291 -0.0322900265455246
4.012897491455078 5.694309234619141 -0.03230293095111847
3.99139404296875 5.689210891723633 -0.03222525864839554
3.972289562225342 5.687404632568359 -0.03216811642050743
3.9647293090820312 5.701748847961426 -0.031996894627809525
3.9416065216064453 5.694409370422363 -0.031908854842185974
3.918973922729492 5.686893939971924 -0.0316040925681591
3.8956944942474365 5.704380989074707 -0.03139447420835495
3.881676197052002 5.709258079528809 -0.03137551620602608
3.8557286262512207 5.697231292724609 -0.031264446675777435
3.844460964202881 5.706056594848633 -0.03126849979162216
3.8256516456604004 5.703645706176758 -0.0312126986682415
3.811760902404785 5.709262847900391 -0.030993947759270668
3.795454978942871 5.710465431213379 -0.030743727460503578
3.7803242206573486 5.713383674621582 -0.030717797577381134
3.760896921157837 5.710493087768555 -0.030657511204481125
3.7494678497314453 5.7189412117004395 -0.030459046363830566
3.731550693511963 5.718215465545654 -0.030411913990974426
3.7096409797668457 5.710499286651611 -0.03011685609817505
3.69968843460083 5.721132278442383 -0.03013206645846367
3.6828696727752686 5.721893310546875 -0.030094757676124573
3.663846492767334 5.718378067016602 -0.029833994805812836
3.643280267715454 5.71234130859375 -0.029763661324977875
3.6311211585998535 5.720192909240723 -0.029550809413194656
3.6213231086730957 5.731008529663086 -0.029568254947662354
3.594306707382202 5.714876174926758 -0.02944665215909481
3.588949203491211 5.733098983764648 -0.029299866408109665
3.574105978012085 5.7358198165893555 -0.029275942593812943
3.5523874759674072 5.72819185256958 -0.0289878249168396
3.5315704345703125 5.721097946166992 -0.028914008289575577
3.5227746963500977 5.733432769775391 -0.028938816860318184
3.5098371505737305 5.73983097076416 -0.028733454644680023
3.493706226348877 5.740181922912598 -0.028488241136074066
3.4749865531921387 5.7369842529296875 -0.028436288237571716
3.45572566986084 5.731995582580566 -0.028376199305057526
3.4348831176757812 5.724254608154297 -0.028301844373345375
3.4258556365966797 5.736953258514404 -0.02792125940322876
3.4171581268310547 5.749460220336914 -0.02794690802693367
3.3973851203918457 5.743294715881348 -0.02788221836090088
3.3805527687072754 5.742800712585449 -0.027844930067658424
3.3730554580688477 5.757360458374023 -0.027683742344379425
3.3394086360931396 5.727949142456055 -0.02729911357164383
3.3257999420166016 5.7319111824035645 -0.027285456657409668
3.3103671073913574 5.7326860427856445 -0.0272563174366951
20.290454864501953 -3.434178590774536 -0.09916520863771439
20.173927307128906 -3.1969802379608154 -0.09842531383037567
19.589523315429688 -1.4373173713684082 -0.10083822906017303
19.539230346679688 -1.3101868629455566 -0.10052946209907532
19.531963348388672 -1.227095365524292 -0.10046403110027313
19.507532119750977 -1.1849242448806763 -0.10032430291175842
19.489086151123047 -1.1014447212219238 -0.10078494995832443
19.42601776123047 -0.9754080772399902 -0.10103434324264526
19.37376594543457 -0.8507182002067566 -0.10073544830083847
22.343544006347656 1.3641037940979004 0.05983748286962509
22.273548126220703 1.4540085792541504 0.059663377702236176
22.23575210571289 1.4978885650634766 0.058866001665592194
22.179508209228516 1.5879576206207275 0.058737896382808685
22.103626251220703 1.7222586870193481 0.05856657400727272
21.990985870361328 1.8526418209075928 0.05828700214624405
21.927656173706055 1.986210823059082 0.05815475806593895
21.085037231445312 3.303184986114502 0.05120270699262619
21.03009796142578 3.3853793144226074 0.051101140677928925
21.011337280273438 3.42710542678833 0.05108322575688362
20.963336944580078 3.509974241256714 0.05036419630050659
20.921920776367188 3.547689199447632 0.050282757729291916
20.877540588378906 3.630681276321411 0.050214819610118866
20.853527069091797 3.671104907989502 0.05017278343439102
20.822891235351562 3.7115912437438965 0.050112735480070114
20.814144134521484 3.7546143531799316 0.05011095479130745
20.734455108642578 3.874985933303833 0.04997089505195618
20.663406372070312 3.996307611465454 0.04985953867435455
20.58694839477539 4.115948677062988 0.04724378138780594
18.744823455810547 4.866887092590332 0.04249393567442894
18.62070083618164 4.875927925109863 0.04223500192165375
18.37936782836914 4.895535469055176 0.04173597693443298
18.277841567993164 4.9091386795043945 0.04152442514896393
18.048004150390625 4.928990840911865 0.04105066508054733
17.914592742919922 4.932527542114258 0.04077006131410599
17.828460693359375 4.949209213256836 0.04059804603457451
17.703948974609375 4.954834938049316 0.04033775255084038
17.59368896484375 4.963369846343994 0.04010862857103348
17.392671585083008 4.985832214355469 0.03969823569059372
17.279285430908203 4.99271297454834 0.039463914930820465
17.074535369873047 5.011007308959961 0.03904468193650246
16.754798889160156 5.031788349151611 0.038383230566978455
16.48342514038086 5.064012050628662 0.036836713552474976
16.20465850830078 5.0900750160217285 0.03628453612327576
14.645633697509766 5.21588134765625 0.03369811922311783
14.405946731567383 5.2328009605407715 0.03278924524784088
14.323265075683594 5.236947059631348 0.032626211643218994
14.168442726135254 5.247586727142334 0.032323673367500305
14.096755981445312 5.2548298835754395 0.032184287905693054
13.945403099060059 5.265406608581543 0.03188936412334442
13.883089065551758 5.274822235107422 0.03177289292216301
13.79241943359375 5.273622512817383 0.03159039467573166
13.720287322998047 5.2791948318481445 0.03144814819097519
13.656539916992188 5.28769588470459 0.03132740035653114
13.59311580657959 5.295602798461914 0.03120766021311283
13.507728576660156 5.295137405395508 0.031039420515298843
13.445503234863281 5.303422451019287 0.030920598655939102
13.387683868408203 5.312747001647949 0.030814379453659058
13.320911407470703 5.318756103515625 0.030686955899000168
13.22960090637207 5.314611911773682 0.03050173819065094
13.100613594055176 5.32652473449707 0.030254248529672623
13.034378051757812 5.331594467163086 0.030126158148050308
12.904728889465332 5.3421125411987305 0.029877981171011925
12.704132080078125 5.352870464324951 0.029492266476154327
12.526274681091309 5.370906829833984 0.02915876731276512
11.641489028930664 5.431668281555176 0.027886610478162766
11.49406909942627 5.45113468170166 0.027614381164312363
11.434174537658691 5.4522624015808105 0.02787441946566105
11.333162307739258 5.462358474731445 0.027289865538477898
11.27946949005127 5.465789318084717 0.027188740670681
11.227575302124023 5.469854354858398 0.027090586721897125
11.174055099487305 5.472501277923584 0.02698902226984501
11.109119415283203 5.469743251800537 0.0268593467772007
11.073135375976562 5.481014251708984 0.026800397783517838
11.024127960205078 5.485268592834473 0.026709645986557007
10.96965217590332 5.487429618835449 0.026607070118188858
10.920981407165527 5.491446495056152 0.026515085250139236
10.876914024353027 5.498023986816406 0.026435691863298416
10.820707321166992 5.498239517211914 0.02632843144237995
10.780200958251953 5.505833625793457 0.02625618875026703
10.718521118164062 5.502829551696777 0.02613413706421852
10.668347358703613 5.505477428436279 0.026040198281407356
10.615135192871094 5.505942344665527 0.02593838796019554
10.575246810913086 5.513553619384766 0.025869596749544144
10.515851020812988 5.510769844055176 0.025752704590559006
10.436140060424805 5.525142669677734 0.026335040107369423
10.381669998168945 5.523917198181152 0.026226095855236053
10.299674034118652 5.53607177734375 0.026078302413225174
10.25314998626709 5.538519859313965 0.025989551097154617
10.151655197143555 5.53904914855957 0.025410272181034088
9.528898239135742 5.595645904541016 0.024955153465270996
9.399869918823242 5.599641799926758 0.025051366537809372
9.272510528564453 5.60305118560791 0.025127526372671127
9.241096496582031 5.6102800369262695 0.025073889642953873
9.201896667480469 5.613420009613037 0.02496517449617386
9.147893905639648 5.606557846069336 0.024850595742464066
9.124552726745605 5.61872673034668 0.024820253252983093
9.079790115356445 5.617556095123291 0.024730099365115166
9.05415153503418 5.62770938873291 0.024691836908459663
9.00389289855957 5.623170375823975 0.024588655680418015
8.977897644042969 5.632867813110352 0.024548066779971123
8.937675476074219 5.633513927459717 0.024800490587949753
8.887161254882812 5.628237724304199 0.024694012477993965
8.855827331542969 5.634176254272461 0.02463965304195881
8.822528839111328 5.639133453369141 0.02457965537905693
8.771005630493164 5.6322407722473145 0.024470698088407516
8.754560470581055 5.647373676300049 0.024455875158309937
8.706306457519531 5.642251968383789 0.024354949593544006
8.672752380371094 5.646464824676514 0.024603579193353653
8.631009101867676 5.644826412200928 0.024515967816114426
8.598424911499023 5.649776935577393 0.024459311738610268
8.565507888793945 5.653632640838623 0.024398911744356155
8.539953231811523 5.662243843078613 0.024359364062547684
8.488672256469727 5.654384613037109 0.02424722909927368
8.461057662963867 5.661375045776367 0.02452009916305542
8.382037162780762 5.659749984741211 0.024360666051506996
8.345123291015625 5.6600751876831055 0.02428620308637619
7.888899326324463 5.696487903594971 0.023710038512945175
7.807008266448975 5.712367057800293 0.023571524769067764
7.703417778015137 5.711271286010742 0.02365042269229889
7.674239158630371 5.71435546875 0.023598944768309593
7.633336067199707 5.709287166595459 0.023806825280189514
7.622406005859375 5.72581672668457 0.023810099810361862
7.584359645843506 5.721896171569824 0.023728564381599426
7.5536699295043945 5.724104881286621 0.02335669845342636
7.513187408447266 5.718009948730469 0.02327103726565838
7.499274253845215 5.732389450073242 0.023265499621629715
7.455187797546387 5.723610877990723 0.02316538244485855
7.436025619506836 5.733465194702148 0.023142997175455093
7.400629997253418 5.731424331665039 0.023072972893714905
7.369625091552734 5.731917381286621 0.02301107347011566
7.342466354370117 5.735287666320801 0.023254647850990295
7.319108009338379 5.742259979248047 0.023495148867368698
7.28272819519043 5.738173484802246 0.023416506126523018
7.249707221984863 5.7365803718566895 0.0233465489000082
7.220305442810059 5.738438606262207 0.02329660952091217
7.199720859527588 5.746497631072998 0.023265842348337173
7.1700439453125 5.747928142547607 0.02321147918701172
7.141640663146973 5.7495436668396 0.023154493421316147
7.109241485595703 5.74781608581543 0.023376300930976868
7.0794548988342285 5.748785972595215 0.023319341242313385
7.05780553817749 5.755551338195801 0.02328908070921898
7.027442932128906 5.755112648010254 0.023498214781284332
6.994009017944336 5.752737998962402 0.023426294326782227
6.983404636383057 5.76835298538208 0.023431655019521713
6.941994667053223 5.7587738037109375 0.023332539945840836
6.888615608215332 5.76329231262207 0.02323303371667862
6.812604904174805 5.773238182067871 0.022819269448518753
6.612214088439941 5.796876907348633 0.02300620637834072
6.524463653564453 5.792891502380371 0.023087214678525925
6.4498701095581055 5.799947738647461 0.02322167158126831
6.423242568969727 5.800156593322754 0.02317172847688198
6.409841537475586 5.812595367431641 0.023167507722973824
6.366702079772949 5.797962665557861 0.0230559054762125
6.348409652709961 5.805449485778809 0.02303372323513031
6.328856468200684 5.812078475952148 0.023007677868008614
6.295506477355957 5.805944919586182 0.02345084771513939
6.272893905639648 5.809572219848633 0.022905424237251282
6.243895530700684 5.807198524475098 0.022830750793218613
6.213631629943848 5.8031463623046875 0.02276407554745674
6.20387077331543 5.8185272216796875 0.022772133350372314
6.179810523986816 5.8204779624938965 0.022998159751296043
6.15347957611084 5.819822788238525 0.02294326201081276
6.1233439445495605 5.816153526306152 0.02287450060248375
6.1051025390625 5.822973251342773 0.022852350026369095
6.079205513000488 5.822413444519043 0.022801261395215988
6.061583518981934 5.830414295196533 0.022780288010835648
6.030764102935791 5.824911117553711 0.022962957620620728
6.015589714050293 5.834779739379883 0.023213082924485207
5.987392902374268 5.831959247589111 0.023150064051151276
5.961491584777832 5.8308868408203125 0.023099128156900406
5.939859390258789 5.8342437744140625 0.023061975836753845
5.917862892150879 5.837181568145752 0.0230274461209774
5.8883514404296875 5.832230567932129 0.02295648865401745
5.87354040145874 5.842469215393066 0.023194968700408936
5.84504508972168 5.838305950164795 0.02338932454586029
5.8265533447265625 5.844388008117676 0.023366786539554596
5.800633430480957 5.842954158782959 0.023308508098125458
5.780537128448486 5.846927642822266 0.02327863872051239
5.750633716583252 5.841222763061523 0.023205582052469254
5.711731910705566 5.850790977478027 0.022904932498931885
5.690589427947998 5.853385925292969 0.023124035447835922
5.641880035400391 5.852395534515381 0.02302837371826172
5.569409370422363 5.850385665893555 0.023371942341327667
5.525521278381348 5.853450298309326 0.02329210937023163
5.471895694732666 5.870135307312012 0.023221030831336975
5.400117874145508 5.8666486740112305 0.023560656234622
5.380927085876465 5.870570182800293 0.023526638746261597
5.355162620544434 5.8672075271606445 0.023470640182495117
5.3382158279418945 5.873440265655518 0.023450279608368874
5.310064792633057 5.86688232421875 0.023626815527677536
5.2965593338012695 5.876776695251465 0.02385662868618965
5.265883445739746 5.867547035217285 0.02377530187368393
5.247062683105469 5.8713908195495605 0.023746464401483536
5.234405040740967 5.881747722625732 0.023742128163576126
5.21323299407959 5.882864952087402 0.02370256558060646
5.186832904815674 5.877953052520752 0.02342147007584572
5.168827533721924 5.882107734680176 0.023638393729925156
5.148133754730225 5.883506774902344 0.023832052946090698
5.123746871948242 5.88056755065918 0.023778371512889862
5.096947193145752 5.874749183654785 0.023710278794169426
5.09180212020874 5.893482208251953 0.023742947727441788
5.064650535583496 5.887059211730957 0.023917462676763535
5.047400951385498 5.892067909240723 0.023894943296909332
5.025962829589844 5.892099380493164 0.023852914571762085
5.008527755737305 5.896772384643555 0.024058368057012558
4.987791061401367 5.897116661071777 0.024017319083213806
4.972379684448242 5.904054641723633 0.02424505725502968
4.938876152038574 5.889408588409424 0.024142317473888397
4.922654151916504 5.894867897033691 0.024121928960084915
4.902688503265381 5.896141052246094 0.024085145443677902
4.8816704750061035 5.896084308624268 0.024268843233585358
4.862458229064941 5.898109436035156 0.024235248565673828
4.853243350982666 5.911884784698486 0.0244905985891819
4.827596187591553 5.9059672355651855 0.024424169212579727
4.8010101318359375 5.898737907409668 0.02435307204723358
4.766317367553711 5.906750679016113 0.024529259651899338
4.744400978088379 5.9046196937561035 0.024477364495396614
4.70274019241333 5.9035186767578125 0.024179276078939438
4.690848350524902 5.913731098175049 0.024642188102006912
4.660312652587891 5.926326751708984 0.024612542241811752
4.6267900466918945 5.908891677856445 0.024735182523727417
4.614874839782715 5.919683456420898 0.024739034473896027
4.59830904006958 5.923744201660156 0.024716071784496307
4.544731616973877 5.905905723571777 0.02478300780057907
4.533247947692871 5.91634464263916 0.02502072975039482
4.504781723022461 5.930763244628906 0.02500125579535961
4.466604232788086 5.93220329284668 0.025148211047053337
4.441673278808594 5.924637794494629 0.025076905265450478
4.423274993896484 5.9260663986206055 0.025275424122810364
4.406938552856445 5.930178165435791 0.02525334060192108
4.385004997253418 5.926313400268555 0.0251980759203434
4.367397308349609 5.928963661193848 0.02538815140724182
4.355478286743164 5.93855094909668 0.0253903828561306
4.333795070648193 5.934772491455078 0.025566238909959793
4.320711135864258 5.943471908569336 0.02556389570236206
4.288304328918457 5.924705982208252 0.02544485032558441
4.276589870452881 5.934802532196045 0.025449464097619057
4.2638702392578125 5.943488121032715 0.025230612605810165
4.247913360595703 5.947263240814209 0.025655396282672882
4.225686073303223 5.94257116317749 0.02559683844447136
4.203246116638184 5.937437534332275 0.02576487883925438
4.1839728355407715 5.936296463012695 0.025721434503793716
4.170810699462891 5.944548606872559 0.025719160214066505
4.152257919311523 5.944304943084717 0.02589576318860054
4.136646270751953 5.9486083984375 0.025876324623823166
4.117672920227051 5.947995662689209 0.026062913239002228
4.0997114181518555 5.94838809967041 0.026027580723166466
4.082004547119141 5.949481010437012 0.025994732975959778
4.072760105133057 5.962872505187988 0.026015378534793854
4.048935890197754 5.954486846923828 0.026156261563301086
4.029009819030762 5.952489852905273 0.02633458375930786
4.011981010437012 5.953909873962402 0.026304133236408234
4.000452995300293 5.963872909545898 0.02631031721830368
3.978710651397705 5.958532810211182 0.026250192895531654
3.963289737701416 5.962192535400391 0.02644273266196251
3.933821678161621 5.945372581481934 0.026330627501010895
3.9238085746765137 5.957064628601074 0.026570027694106102
3.905953884124756 5.9568305015563965 0.026532240211963654
3.8952460289001465 5.968266487121582 0.02654615417122841
3.876763343811035 5.9669647216796875 0.026715755462646484
3.8339085578918457 5.955756187438965 0.026604916900396347
3.825770378112793 5.97029972076416 0.026844758540391922
3.8076577186584473 5.970070838928223 0.026806678622961044
3.7928049564361572 5.974091529846191 0.027011360973119736
3.768977403640747 5.963875770568848 0.026930518448352814
3.751993179321289 5.965180397033691 0.026898838579654694
3.7350587844848633 5.965689659118652 0.027076534926891327
3.724493980407715 5.976353645324707 0.027089029550552368
3.7032487392425537 5.970640659332275 0.027247782796621323
3.6933088302612305 5.982295036315918 0.027265239506959915
3.668140411376953 5.9700212478637695 0.027174046263098717
3.6528615951538086 5.972908020019531 0.027360528707504272
3.6300501823425293 5.963376045227051 0.027282023802399635
3.624115467071533 5.982363224029541 0.027552690356969833
3.6050682067871094 5.978883743286133 0.027503352612257004
3.5908799171447754 5.984224319458008 0.027698874473571777
3.574916362762451 5.98574161529541 0.027670521289110184
3.5555264949798584 5.981437683105469 0.027617402374744415
3.535114288330078 5.976126670837402 0.027775604277849197
3.518660545349121 5.9765801429748535 0.027744006365537643
3.5078210830688477 5.986549377441406 0.027962543070316315
3.4929635524749756 5.990494728088379 0.027946189045906067
3.473695755004883 5.985962867736816 0.02810784988105297
3.4581949710845947 5.98784065246582 0.028082359582185745
3.439321994781494 5.984646320343018 0.028033748269081116
3.427832841873169 5.993409156799316 0.028245918452739716
3.4110898971557617 5.993809700012207 0.02843063697218895
3.399214744567871 6.001883029937744 0.028434358537197113
3.3776543140411377 5.992781639099121 0.028358478099107742
3.3599581718444824 5.991270065307617 0.028317362070083618
3.3375463485717773 5.9803619384765625 0.0284360833466053
3.3322086334228516 6.00002384185791 0.028711549937725067
3.310917615890503 5.99180793762207 0.02863774448633194
3.2980916500091553 5.9979658126831055 0.02863459289073944
3.281954288482666 5.998935699462891 0.028809010982513428
3.2702901363372803 6.007187843322754 0.028816143050789833
3.247680902481079 5.9952497482299805 0.028940025717020035
3.229401111602783 5.992033958435059 0.028890563175082207
24.612220764160156 -3.216291904449463 0.08188536763191223
24.366683959960938 -2.7691047191619873 0.08017554879188538
23.469512939453125 -0.8340079188346863 0.07008453458547592
23.409385681152344 -0.6845501661300659 0.06988959014415741
23.333019256591797 -0.5355314612388611 0.06965265423059464
23.265087127685547 -0.38765576481819153 0.06944164633750916
20.801055908203125 0.007617575116455555 0.011381152085959911
20.77472686767578 0.09509982168674469 0.010756535455584526
20.750123977661133 0.13804912567138672 0.01074302289634943
20.737306594848633 0.18226617574691772 0.010736728087067604
20.71231460571289 0.22503279149532318 0.010723483748733997
20.706825256347656 0.3121931850910187 0.0107216015458107
20.708660125732422 0.35520654916763306 0.010722814127802849
20.68341827392578 0.3983641266822815 0.010055698454380035
20.687759399414062 0.4420055150985718 0.010058568790555
20.61092758178711 0.699711799621582 0.009418506175279617
20.568809509277344 0.7422755360603333 0.009399620816111565
20.515522003173828 0.7829849720001221 0.0093756802380085
20.490238189697266 0.8246065378189087 0.010571977123618126
20.470539093017578 0.867618203163147 0.010563021525740623
20.45287322998047 0.9093931913375854 0.010554319247603416
20.402568817138672 0.9932669401168823 0.010530253872275352
20.383262634277344 1.0347307920455933 0.01052098162472248
20.341306686401367 1.074926495552063 0.009901572950184345
20.29739761352539 1.1160922050476074 0.009881597012281418
20.290462493896484 1.157949686050415 0.009878406301140785
20.23859405517578 1.240521788597107 0.009856194257736206
20.187366485595703 1.3227410316467285 0.009833904914557934
20.18395233154297 1.3645886182785034 0.00983363762497902
20.15216827392578 1.404456615447998 0.009182325564324856
20.14400863647461 1.4471356868743896 0.009179577231407166
20.11726951599121 1.487183928489685 0.009167766198515892
20.103485107421875 1.5281180143356323 0.009163961745798588
20.077377319335938 1.5692782402038574 0.009152433834969997
20.05652618408203 1.6095308065414429 0.009144940413534641
20.03536605834961 1.6509159803390503 0.008545612916350365
20.011539459228516 1.7326014041900635 0.008538756519556046
19.979480743408203 1.772834300994873 0.008524952456355095
19.964466094970703 1.8132661581039429 0.009111573919653893
19.942646026611328 1.8542463779449463 0.009101836010813713
19.910167694091797 1.8929095268249512 0.009089275263249874
19.90729522705078 1.9343295097351074 0.008501378819346428
19.88996124267578 1.9755449295043945 0.008496391586959362
19.851749420166016 2.0133612155914307 0.00848112627863884
19.853626251220703 2.0551841259002686 0.008483398705720901
19.826335906982422 2.0951762199401855 0.008473692461848259
19.8104248046875 2.13507342338562 0.008470130153000355
19.78211212158203 2.17356014251709 0.008459215983748436
19.77802276611328 2.215881109237671 0.008459493517875671
19.750703811645508 2.254331111907959 0.008449772372841835
19.721986770629883 2.293743371963501 0.008439483121037483
19.712581634521484 2.334120512008667 0.008437220938503742
19.70732879638672 2.37497878074646 0.007809434086084366
19.666603088378906 2.4127042293548584 0.007795244455337524
19.657651901245117 2.45302414894104 0.0072113205678761005
19.60612678527832 2.5304946899414062 0.007195914164185524
19.58909034729004 2.5696353912353516 0.007191603537648916
19.56103515625 2.607257843017578 0.007183939218521118
19.538938522338867 2.646806240081787 0.007176833227276802
19.522029876708984 2.6857826709747314 0.007172662764787674
19.504152297973633 2.725789785385132 0.007168224547058344
19.48759651184082 2.7647180557250977 0.0077867768704891205
19.459455490112305 2.8019330501556396 0.007777843624353409
19.441219329833984 2.841712474822998 0.007773660123348236
19.429141998291016 2.8811399936676025 0.007770349737256765
19.412315368652344 2.919828414916992 0.007766370661556721
19.37122344970703 2.9559788703918457 0.007176073268055916
19.37676239013672 2.997983455657959 0.007180413231253624
19.346967697143555 3.0357065200805664 0.007171759381890297
19.336013793945312 3.07511568069458 0.007170049007982016
19.305187225341797 3.111301898956299 0.007160997949540615
19.28826332092285 3.1508636474609375 0.007157200016081333
19.270252227783203 3.1889915466308594 0.007152956910431385
19.257328033447266 3.2279245853424072 0.00715063139796257
19.22148895263672 3.2641472816467285 0.0065231602638959885
19.20366859436035 3.302135944366455 0.00651976652443409
19.196517944335938 3.3419361114501953 0.006519695743918419
19.18953514099121 3.38297176361084 0.0065200901590287685
19.153520584106445 3.4176201820373535 0.006510092876851559
19.136165618896484 3.4567203521728516 0.006506314501166344
19.123279571533203 3.4953877925872803 0.005932648666203022
19.115497589111328 3.5349748134613037 0.005932497791945934
19.090484619140625 3.5725419521331787 0.005927089601755142
19.071516036987305 3.609971284866333 0.005923513323068619
19.053157806396484 3.647468090057373 0.005920149385929108
19.03873062133789 3.686885356903076 0.007143661379814148
19.008872985839844 3.7220468521118164 0.006565173156559467
19.0014591217041 3.7615549564361572 0.0065652597695589066
18.981590270996094 3.7997775077819824 0.006562232039868832
18.957073211669922 3.8358025550842285 0.005943980999290943
18.936901092529297 3.873849391937256 0.005940303206443787
18.93527603149414 3.914472818374634 0.005942600779235363
18.910064697265625 3.950197696685791 0.005937629844993353
18.890117645263672 3.9881644248962402 0.00593403447419405
18.87668228149414 4.026264667510986 0.005932741332799196
18.85552215576172 4.063882827758789 0.00592745840549469
18.841476440429688 4.101790428161621 0.00592606607824564
18.81109619140625 4.136082649230957 0.00592057965695858
18.818925857543945 4.179968357086182 0.0059247734025120735
18.79831314086914 4.216343402862549 0.005921062082052231
18.76091766357422 4.248867034912109 0.005911713466048241
18.74138069152832 4.286551475524902 0.005341324955224991
18.719263076782227 4.322390556335449 0.00533889327198267
18.70949935913086 4.361051559448242 0.005339371506124735
18.676563262939453 4.395460605621338 0.004725782200694084
18.674297332763672 4.435846328735352 0.004727538675069809
18.66043472290039 4.474687576293945 0.00472627766430378
18.624034881591797 4.506850242614746 0.004718270152807236
18.596067428588867 4.540953636169434 0.004713116679340601
18.554298400878906 4.572774887084961 0.0065193455666303635
18.45645523071289 4.5893096923828125 0.006477666087448597
18.35818862915039 4.605348587036133 0.005844760220497847
18.232173919677734 4.615157127380371 0.005810920614749193
18.121889114379883 4.6272783279418945 0.005778798833489418
18.000240325927734 4.636026382446289 0.005741738714277744
17.8966064453125 4.650125503540039 0.005165521055459976
17.782135009765625 4.659795761108398 0.00513783935457468
17.669677734375 4.670687675476074 0.005106770899146795
17.554664611816406 4.679282188415527 0.005075301509350538
17.453845977783203 4.69122314453125 0.005049331113696098
17.35507583618164 4.704451560974121 0.005023767240345478
17.26899528503418 4.719609260559082 0.004999769851565361
17.148765563964844 4.725017547607422 0.004969190806150436
17.046920776367188 4.736160755157471 0.004944910295307636
16.941940307617188 4.74488639831543 0.00491655757650733
16.8388671875 4.754836082458496 0.004888402763754129
16.731863021850586 4.76213264465332 0.0043134610168635845
16.647130966186523 4.775383949279785 0.004291658755391836
16.55239486694336 4.786500930786133 0.004270700737833977
16.455005645751953 4.795363426208496 0.004248201847076416
16.37094497680664 4.807746887207031 0.0037246665451675653
16.261207580566406 4.813277244567871 0.0037024635821580887
16.17146110534668 4.823234558105469 0.0041831908747553825
16.093942642211914 4.83650541305542 0.005222788080573082
15.984109878540039 4.840752601623535 0.005190272815525532
15.90339469909668 4.852360248565674 0.005163218826055527
15.810626029968262 4.860998153686523 0.005139067303389311
15.74164867401123 4.8755693435668945 0.004630498122423887
15.634624481201172 4.8780012130737305 0.004603687208145857
15.552667617797852 4.888913154602051 0.0045807440765202045
15.458466529846191 4.894574165344238 0.004555069375783205
15.369195938110352 4.901423454284668 0.004533777013421059
15.295819282531738 4.914045810699463 0.0045143235474824905
15.211090087890625 4.921672344207764 0.004491926170885563
15.111371040344238 4.924072742462158 0.004468564409762621
15.055201530456543 4.941370964050293 0.003956575412303209
