VERSION .7
FIELDS x y z
SIZE 4 4 4
TYPE F F F
COUNT 1 1 1
WIDTH 847
HEIGHT 1
VIEWPOINT 0 0 0 1 0 0 0
POINTS 847
DATA ascii
13.299663543701172 9.440834045410156 0.6055941581726074
13.222553253173828 9.428641319274902 0.6028661727905273
13.155254364013672 9.421895027160645 0.5997000336647034
13.020526885986328 9.408615112304688 0.5935260653495789
12.948210716247559 9.397321701049805 0.590986967086792
12.813626289367676 9.38228702545166 0.5848296880722046
12.746943473815918 9.374156951904297 0.5817043781280518
12.687877655029297 9.372549057006836 0.5797935724258423
12.634896278381348 9.374001502990723 0.5773003101348877
12.555998802185059 9.35696029663086 0.5737736821174622
12.50330638885498 9.358268737792969 0.5721287131309509
12.430153846740723 9.343825340270996 0.5687175393104553
12.380775451660156 9.348010063171387 0.566418468952179
12.307389259338379 9.332921028137207 0.5639498829841614
12.257237434387207 9.336041450500488 0.5616194605827332
12.182080268859863 9.318962097167969 0.5581262111663818
12.132757186889648 9.321205139160156 0.5559408664703369
12.059534072875977 9.305830001831055 0.5533685684204102
12.004657745361328 9.303450584411621 0.5508112907409668
11.950448036193848 9.301196098327637 0.5482826232910156
11.881406784057617 9.288286209106445 0.545223593711853
11.821481704711914 9.281027793884277 0.5432343482971191
11.761013984680176 9.273069381713867 0.5404233336448669
11.70546817779541 9.269891738891602 0.5378682613372803
11.645655632019043 9.261913299560547 0.5352128744125366
11.578784942626953 9.249025344848633 0.532921552658081
11.527639389038086 9.247574806213379 0.5305517315864563
11.448084831237793 9.222867965698242 0.5268695950508118
11.41651439666748 9.237566947937012 0.5255435109138489
11.340065956115723 9.214866638183594 0.5220131278038025
11.296536445617676 9.218482971191406 0.520770251750946
11.22999095916748 9.20421314239502 0.5177201628684998
11.196232795715332 9.2154541015625 0.516277551651001
11.130597114562988 9.201234817504883 0.5132696628570557
11.08377742767334 9.201469421386719 0.5111130475997925
11.014921188354492 9.182984352111816 0.5086976885795593
10.966360092163086 9.182126998901367 0.5058407783508301
10.919730186462402 9.181849479675293 0.5036997199058533
10.86119270324707 9.171172142028809 0.5017614960670471
10.799779891967773 9.158905982971191 0.49896126985549927
10.767756462097168 9.170232772827148 0.4974963366985321
10.657952308654785 9.154438018798828 0.49259740114212036
10.588305473327637 9.132867813110352 0.4901382327079773
10.561142921447754 9.148857116699219 0.4889329969882965
10.506080627441406 9.13939094543457 0.48640915751457214
10.454804420471191 9.132967948913574 0.484175443649292
10.387725830078125 9.113568305969238 0.4811241626739502
10.347874641418457 9.116677284240723 0.4800419807434082
10.24333381652832 9.101483345031738 0.47529053688049316
10.186666488647461 9.089032173156738 0.4728134870529175
10.100768089294434 9.089080810546875 0.4689382314682007
10.06119155883789 9.091325759887695 0.4678661823272705
9.99832820892334 9.073394775390625 0.4650183916091919
9.955035209655762 9.07184886932373 0.46316468715667725
9.900596618652344 9.059919357299805 0.460685670375824
9.852165222167969 9.054346084594727 0.45851272344589233
9.796195983886719 9.04047966003418 0.4559658467769623
9.761006355285645 9.046544075012207 0.453813374042511
9.707789421081543 9.034892082214355 0.45140233635902405
9.674403190612793 9.041358947753906 0.4499133825302124
9.628758430480957 9.037165641784668 0.447877436876297
9.583200454711914 9.032032012939453 0.4466319680213928
9.530645370483398 9.019918441772461 0.4442521929740906
9.494229316711426 9.023981094360352 0.4426523447036743
9.43895435333252 9.00879955291748 0.44014817476272583
9.39447021484375 9.00462532043457 0.4381706416606903
9.342469215393066 8.99220085144043 0.4358256459236145
9.307748794555664 8.99606704711914 0.4350760877132416
9.253273010253906 8.981727600097656 0.4326382577419281
9.217555046081543 8.984282493591309 0.43105220794677734
9.162032127380371 8.967315673828125 0.4285411536693573
9.14238452911377 8.986405372619629 0.42773619294166565
9.088769912719727 8.970864295959473 0.42531776428222656
9.041054725646973 8.960885047912598 0.42317599058151245
8.997651100158691 8.956049919128418 0.4213666021823883
8.970569610595703 8.966230392456055 0.42086660861968994
8.913698196411133 8.947388648986816 0.418318510055542
8.8756685256958 8.946414947509766 0.4166364073753357
8.840725898742676 8.94825553894043 0.41509974002838135
8.801039695739746 8.946233749389648 0.41336554288864136
8.741774559020996 8.922952651977539 0.4106869101524353
8.70527458190918 8.922660827636719 0.40852081775665283
8.66012954711914 8.914407730102539 0.4065357744693756
8.615188598632812 8.905047416687012 0.4045352339744568
8.577985763549805 8.903491973876953 0.40289971232414246
8.543766975402832 8.905974388122559 0.4015315771102905
8.493142127990723 8.890058517456055 0.3992671072483063
8.413707733154297 8.881497383117676 0.39579278230667114
8.385293960571289 8.888376235961914 0.39522385597229004
8.334041595458984 8.871941566467285 0.39295676350593567
8.308201789855957 8.881295204162598 0.391863614320755
8.26697826385498 8.874069213867188 0.39004606008529663
8.220151901245117 8.861686706542969 0.3879902958869934
8.182000160217285 8.857351303100586 0.38631969690322876
8.139642715454102 8.849349975585938 0.384574294090271
8.110569953918457 8.8545503616333 0.38333460688591003
8.064742088317871 8.841285705566406 0.38130366802215576
8.020535469055176 8.830636024475098 0.3793758153915405
7.991495132446289 8.835433959960938 0.3787717819213867
7.955012798309326 8.831871032714844 0.3771844208240509
7.91663122177124 8.827105522155762 0.3755332827568054
7.882424354553223 8.82574462890625 0.374055951833725
7.843635559082031 8.819082260131836 0.3723616302013397
7.794829368591309 8.802000045776367 0.37021780014038086
7.76292610168457 8.802711486816406 0.3683262765407562
7.725276947021484 8.797833442687988 0.3667154908180237
7.701446533203125 8.807491302490234 0.3657362759113312
7.6543779373168945 8.790409088134766 0.36365437507629395
7.616434574127197 8.784656524658203 0.3620321452617645
7.581206321716309 8.780774116516113 0.3605142831802368
7.548731803894043 8.779929161071777 0.35912829637527466
7.493893623352051 8.753905296325684 0.3567979633808136
7.475841522216797 8.769591331481934 0.3561001121997833
7.437680721282959 8.761589050292969 0.3544454872608185
7.415499687194824 8.7733793258667 0.3535788953304291
7.363109111785889 8.748153686523438 0.3512471914291382
7.331672668457031 8.748526573181152 0.34993776679039
7.298114776611328 8.745429039001465 0.34911221265792847
7.263304710388184 8.740522384643555 0.3476196527481079
7.233892440795898 8.743058204650879 0.3464118242263794
7.194009780883789 8.731683731079102 0.34467777609825134
7.1630377769470215 8.730947494506836 0.3433712422847748
7.1250176429748535 8.722537994384766 0.3417530357837677
7.089473724365234 8.7158784866333 0.3402286469936371
7.0570454597473145 8.713973045349121 0.3388799726963043
7.022701263427734 8.708452224731445 0.33741438388824463
6.986793041229248 8.700815200805664 0.3359649181365967
6.963134765625 8.709397315979004 0.335039883852005
6.925762176513672 8.699605941772461 0.33284151554107666
6.892387866973877 8.694650650024414 0.33142605423927307
6.854702472686768 8.685159683227539 0.3304155766963959
6.82761812210083 8.687853813171387 0.3293033242225647
6.7922682762146 8.679888725280762 0.3277929723262787
6.765655040740967 8.684039115905762 0.3267308473587036
6.734040260314941 8.68055534362793 0.32540205121040344
6.706637382507324 8.682374954223633 0.32427743077278137
6.670579433441162 8.673933029174805 0.3227608799934387
6.630153179168701 8.658489227294922 0.32100749015808105
6.604890823364258 8.663778305053711 0.32001399993896484
6.577785968780518 8.665460586547852 0.31890666484832764
6.5438032150268555 8.657942771911621 0.31746670603752136
6.501190185546875 8.639871597290039 0.31563374400138855
6.475673675537109 8.643235206604004 0.31460508704185486
6.441740989685059 8.635231018066406 0.3131684362888336
6.410869598388672 8.632261276245117 0.3119066059589386
6.378795146942139 8.626415252685547 0.31056103110313416
6.356593132019043 8.633810043334961 0.30969658493995667
6.322549819946289 8.626106262207031 0.3082818388938904
6.290487766265869 8.61982250213623 0.30693814158439636
6.261946201324463 8.6193208694458 0.30579251050949097
6.242525577545166 8.630194664001465 0.30506718158721924
6.1955766677856445 8.602826118469238 0.30299705266952515
6.166324138641357 8.600893020629883 0.30181819200515747
6.134119033813477 8.593578338623047 0.3004690110683441
6.110591411590576 8.598295211791992 0.2995455265045166
6.073604106903076 8.585029602050781 0.29798853397369385
6.051621913909912 8.591716766357422 0.2971421778202057
6.02392578125 8.59132194519043 0.29604148864746094
5.993083953857422 8.585182189941406 0.2947613596916199
5.966646194458008 8.585211753845215 0.29369792342185974
5.936095237731934 8.580307960510254 0.29245832562446594
5.909350872039795 8.5796480178833 0.29138079285621643
5.887456893920898 8.585948944091797 0.29054343700408936
5.8507771492004395 8.571659088134766 0.2890024185180664
5.829254627227783 8.578304290771484 0.28818437457084656
5.795263290405273 8.5664701461792 0.2867504358291626
5.757854461669922 8.5504732131958 0.2851729691028595
5.736181735992432 8.556560516357422 0.2843490540981293
5.71333122253418 8.560832023620605 0.28346776962280273
5.682694435119629 8.554448127746582 0.2822263836860657
5.648809432983398 8.541845321655273 0.2807980477809906
5.620090007781982 8.538002967834473 0.2796517610549927
5.602471351623535 8.54981803894043 0.2790328860282898
5.568026542663574 8.535840034484863 0.277576744556427
5.538929462432861 8.53100299835205 0.2764127552509308
5.51519250869751 8.533162117004395 0.2754906117916107
5.487563133239746 8.52918815612793 0.2749118506908417
5.459056377410889 8.524847030639648 0.2737771272659302
5.435199737548828 8.526503562927246 0.2728499174118042
5.4043731689453125 8.517086029052734 0.27157291769981384
5.373156547546387 8.508011817932129 0.2703023850917816
5.34347677230835 8.500035285949707 0.26908284425735474
5.322451591491699 8.505712509155273 0.26829949021339417
5.289322853088379 8.493062973022461 0.26693233847618103
5.266886234283447 8.496277809143066 0.2660787105560303
5.238346099853516 8.49068832397461 0.2649432420730591
5.212334632873535 8.487894058227539 0.26390963792800903
5.182230472564697 8.478276252746582 0.2626687288284302
5.159499645233154 8.4817533493042 0.2618280053138733
5.1336894035339355 8.478901863098145 0.2608051896095276
5.112727165222168 8.483967781066895 0.25950443744659424
5.073709964752197 8.460052490234375 0.25783824920654297
5.049863338470459 8.460042953491211 0.256916344165802
5.033021926879883 8.472902297973633 0.25629788637161255
5.004332065582275 8.464561462402344 0.2551302909851074
4.969943523406982 8.446356773376465 0.2536715865135193
4.950284957885742 8.45421314239502 0.2529910206794739
4.925878524780273 8.452712059020996 0.25204214453697205
4.897656440734863 8.444517135620117 0.25089794397354126
4.870582103729248 8.439325332641602 0.2498389035463333
4.841761112213135 8.429744720458984 0.24917839467525482
4.816860675811768 8.426835060119629 0.24820353090763092
4.799579620361328 8.43839168548584 0.2476484477519989
4.766571998596191 8.420974731445312 0.2462555170059204
4.750333309173584 8.433061599731445 0.24572914838790894
4.710621356964111 8.404499053955078 0.24401448667049408
4.695367813110352 8.418195724487305 0.2435399889945984
4.655082702636719 8.429220199584961 0.24203580617904663
4.617985248565674 8.403205871582031 0.2404269427061081
4.604479789733887 8.421201705932617 0.23956570029258728
4.581003189086914 8.419727325439453 0.23866745829582214
4.546954154968262 8.398615837097168 0.23721757531166077
4.513280868530273 8.379121780395508 0.2358129769563675
6.318215370178223 -10.224435806274414 0.2962365448474884
6.406178951263428 -10.222511291503906 0.29743874073028564
6.48815393447876 -10.210104942321777 0.3011170029640198
6.517782211303711 -10.208669662475586 0.30231964588165283
6.577516555786133 -10.207199096679688 0.305221289396286
6.605253219604492 -10.203675270080566 0.30626749992370605
6.672518730163574 -10.21303939819336 0.30897754430770874
6.69346284866333 -10.198812484741211 0.31035906076431274
6.756520748138428 -10.200979232788086 0.3127825856208801
6.7784833908081055 -10.188150405883789 0.31356707215309143
6.818964004516602 -10.20284366607666 0.3159547746181488
6.834743976593018 -10.179492950439453 0.31643012166023254
6.873889923095703 -10.19202995300293 0.3180137276649475
6.896788120269775 -10.180170059204102 0.31884196400642395
6.924164295196533 -10.173883438110352 0.31995639204978943
6.957341194152832 -10.177160263061523 0.3219200074672699
6.998013973236084 -10.191022872924805 0.3235739469528198
7.015732288360596 -10.170373916625977 0.3241458535194397
7.1118083000183105 -10.172237396240234 0.32562389969825745
7.138737201690674 -10.165765762329102 0.32664915919303894
7.239470481872559 -10.172456741333008 0.3313727378845215
7.330928325653076 -10.165085792541504 0.3349238634109497
7.423346519470215 -10.158016204833984 0.3392954468727112
7.509711265563965 -10.141737937927246 0.3427354097366333
8.323723793029785 -10.089221954345703 0.3759010434150696
8.393865585327148 -10.087398529052734 0.3794468343257904
8.418760299682617 -10.07363510131836 0.38050878047943115
8.501104354858398 -10.086623191833496 0.38394367694854736
8.530226707458496 -10.077576637268066 0.38579609990119934
8.594951629638672 -10.068833351135254 0.3885501027107239
8.669466018676758 -10.069933891296387 0.3882679343223572
8.697019577026367 -10.059642791748047 0.38937848806381226
8.7354154586792 -10.060698509216309 0.3909517824649811
8.756113052368164 -10.042200088500977 0.39256879687309265
8.812776565551758 -10.06386661529541 0.39496567845344543
8.827646255493164 -10.038739204406738 0.39551371335983276
8.878182411193848 -10.05389404296875 0.39765864610671997
8.900777816772461 -10.036351203918457 0.39853230118751526
8.950294494628906 -10.050095558166504 0.40074506402015686
8.979392051696777 -10.04057502746582 0.4026481509208679
9.023059844970703 -10.046292304992676 0.40447184443473816
9.046058654785156 -10.029791831970215 0.4053899347782135
9.1187744140625 -10.025362014770508 0.40841230750083923
9.154020309448242 -10.022088050842285 0.40988433361053467
9.234698295593262 -10.025461196899414 0.4141045808792114
9.264881134033203 -10.016276359558105 0.41535454988479614
9.37525749206543 -10.00864028930664 0.42009735107421875
9.478448867797852 -9.99215316772461 0.4214992821216583
10.170553207397461 -9.941203117370605 0.45293137431144714
10.410319328308105 -9.922708511352539 0.4595881402492523
10.494521141052246 -9.918953895568848 0.46264195442199707
10.540382385253906 -9.920968055725098 0.46540775895118713
10.615899085998535 -9.908062934875488 0.4686700105667114
10.660621643066406 -9.908489227294922 0.4706249237060547
10.700651168823242 -9.90333080291748 0.4723511040210724
10.735771179199219 -9.894393920898438 0.47388309240341187
10.782940864562988 -9.896563529968262 0.475951611995697
10.812969207763672 -9.881648063659668 0.47735658288002014
10.874824523925781 -9.896839141845703 0.48085856437683105
10.899612426757812 -9.87707233428955 0.4819222688674927
10.94987678527832 -9.881156921386719 0.4841354489326477
10.98962688446045 -9.875728607177734 0.4858880043029785
11.02978515625 -9.869467735290527 0.4876377582550049
11.073586463928223 -9.86719799041748 0.48957139253616333
11.120475769042969 -9.867655754089355 0.491646409034729
11.158947944641113 -9.859426498413086 0.4933280348777771
11.20650577545166 -9.859951972961426 0.49543339014053345
11.250911712646484 -9.857673645019531 0.4975253939628601
11.290764808654785 -9.850196838378906 0.5000698566436768
11.337132453918457 -9.849130630493164 0.5021319389343262
11.432869911193848 -9.848121643066406 0.5023699998855591
11.450660705566406 -9.822126388549805 0.5025711059570312
11.561261177062988 -9.83278751373291 0.5074586868286133
11.687569618225098 -9.814260482788086 0.5132046341896057
11.823892593383789 -9.802652359008789 0.5192898511886597
12.523455619812012 -9.733843803405762 0.5477831363677979
12.677841186523438 -9.726609230041504 0.5547795295715332
12.814411163330078 -9.704022407531738 0.5610222220420837
12.882131576538086 -9.713308334350586 0.5640894770622253
12.978890419006348 -9.700801849365234 0.5685128569602966
13.018985748291016 -9.687652587890625 0.5703562498092651
13.085351943969727 -9.694747924804688 0.5733728408813477
13.131498336791992 -9.686792373657227 0.575510561466217
13.188907623291016 -9.685867309570312 0.5781219005584717
13.222052574157715 -9.66787338256836 0.5796907544136047
13.331604957580566 -9.662078857421875 0.5847178101539612
13.380035400390625 -9.654892921447754 0.5869700908660889
13.429389953613281 -9.648189544677734 0.5892660021781921
13.533048629760742 -9.636510848999023 0.594058632850647
13.595096588134766 -9.63715648651123 0.5968996286392212
13.637191772460938 -9.624374389648438 0.5988858342170715
13.700146675109863 -9.626276016235352 0.6017954349517822
13.752300262451172 -9.619104385375977 0.5999707579612732
13.809700965881348 -9.616637229919434 0.6026309728622437
13.856346130371094 -9.60648250579834 0.6048263907432556
13.925077438354492 -9.610152244567871 0.6079630255699158
13.9578218460083 -9.590051651000977 0.6095569133758545
14.075085639953613 -9.583613395690918 0.6149914860725403
14.301614761352539 -9.563811302185059 0.6255795955657959
15.120359420776367 -9.479820251464844 0.6576346158981323
15.309000015258789 -9.464540481567383 0.6665383577346802
15.369086265563965 -9.457661628723145 0.6694018244743347
15.50051212310791 -9.448770523071289 0.6756060719490051
15.564641952514648 -9.443615913391113 0.6776920557022095
15.627307891845703 -9.436022758483887 0.6806570291519165
15.685418128967285 -9.426749229431152 0.6834529042243958
15.728689193725586 -9.408380508422852 0.6854586005210876
15.80625057220459 -9.40898609161377 0.6890859603881836
15.863570213317871 -9.398576736450195 0.6918600797653198
15.934663772583008 -9.394767761230469 0.6952140927314758
15.991294860839844 -9.383489608764648 0.6979671716690063
16.068267822265625 -9.383883476257324 0.7016133069992065
16.12941551208496 -9.373445510864258 0.7045474052429199
16.186203002929688 -9.361565589904785 0.7063271403312683
16.249771118164062 -9.353384971618652 0.7093991637229919
16.329753875732422 -9.353039741516113 0.7130162715911865
16.39421272277832 -9.344829559326172 0.716135561466217
16.46919059753418 -9.342339515686035 0.7197199463844299
16.52736473083496 -9.328728675842285 0.7225499153137207
16.605348587036133 -9.327362060546875 0.726276159286499
16.663339614868164 -9.313161849975586 0.7222590446472168
16.732357025146484 -9.306221008300781 0.7255817651748657
16.81183433532715 -9.30479621887207 0.7293643355369568
16.873151779174805 -9.291704177856445 0.731316328048706
17.160175323486328 -9.26361083984375 0.7449848651885986
17.373388290405273 -9.238136291503906 0.7541102766990662
18.197948455810547 -9.143068313598633 0.7917142510414124
18.42710304260254 -9.113571166992188 0.7955701947212219
18.506385803222656 -9.10503101348877 0.7994364500045776
18.576263427734375 -9.091394424438477 0.8018012046813965
18.678115844726562 -9.092021942138672 0.8066301941871643
18.7261905670166 -9.067403793334961 0.8089964389801025
18.819805145263672 -9.063152313232422 0.8134791254997253
18.897706985473633 -9.052404403686523 0.8173137307167053
18.999231338500977 -9.052425384521484 0.8210564851760864
19.069765090942383 -9.036284446716309 0.8243922591209412
19.148195266723633 -9.0248384475708 0.8282648324966431
19.24020004272461 -9.018020629882812 0.8327087163925171
19.34063720703125 -9.016189575195312 0.8364155888557434
19.402240753173828 -8.995942115783691 0.8394061923027039
19.499691009521484 -8.99056625366211 0.8441017270088196
19.57442855834961 -8.975813865661621 0.8478448987007141
19.666027069091797 -8.968281745910645 0.8511753082275391
19.745071411132812 -8.953618049621582 0.8549208641052246
19.832490921020508 -8.943685531616211 0.8592305183410645
19.936717987060547 -8.939486503601074 0.8642522096633911
20.1011962890625 -8.91322135925293 0.8711154460906982
20.179689407348633 -8.896491050720215 0.8750393986701965
20.277006149291992 -8.88918399810791 0.8798111081123352
20.369171142578125 -8.879240036010742 0.8831872344017029
20.466283798217773 -8.86959171295166 0.8811201453208923
20.558469772338867 -8.85891342163086 0.8844756484031677
20.738784790039062 -8.833242416381836 0.8931993842124939
20.82721519470215 -8.819694519042969 0.8963966369628906
21.622793197631836 -8.731563568115234 0.9325655102729797
21.922731399536133 -8.691448211669922 0.945989191532135
22.231273651123047 -8.652445793151855 0.959854006767273
22.436681747436523 -8.625128746032715 0.9688284397125244
22.555179595947266 -8.615631103515625 0.9744333028793335
22.644744873046875 -8.596037864685059 0.9790105223655701
22.775245666503906 -8.589956283569336 0.9840526580810547
22.860332489013672 -8.567901611328125 0.9809887409210205
22.99058723449707 -8.562143325805664 0.9873106479644775
23.091325759887695 -8.543744087219238 0.9921607971191406
23.21059226989746 -8.533153533935547 0.9967211484909058
23.308866500854492 -8.51280403137207 1.0016751289367676
23.422143936157227 -8.499128341674805 1.0071059465408325
23.526517868041992 -8.481579780578613 1.0110329389572144
23.65439224243164 -8.470839500427246 1.0170855522155762
23.753145217895508 -8.450631141662598 1.0207778215408325
23.89045524597168 -8.44345474243164 1.0274697542190552
24.010013580322266 -8.428271293640137 1.0331894159317017
24.108497619628906 -8.406688690185547 1.0368791818618774
24.206409454345703 -8.382875442504883 1.0416780710220337
24.367191314697266 -8.381963729858398 1.0480530261993408
24.4705810546875 -8.36056137084961 1.0531220436096191
24.575939178466797 -8.338191986083984 1.0570985078811646
24.680156707763672 -8.316479682922363 1.0624288320541382
24.792816162109375 -8.296969413757324 1.067920446395874
24.924270629882812 -8.282018661499023 1.0730321407318115
25.048049926757812 -8.265246391296387 1.079018473625183
25.30529022216797 -8.232341766357422 1.090439796447754
25.41566276550293 -8.209737777709961 1.0958751440048218
25.662883758544922 -8.170628547668457 1.1003206968307495
26.03966522216797 -8.11042308807373 1.1175994873046875
26.436626434326172 -8.05056381225586 1.1355806589126587
26.825725555419922 -7.985121726989746 1.1520512104034424
27.12212562561035 -7.950722694396973 1.1650782823562622
27.25391960144043 -7.926409721374512 1.1715198755264282
27.395660400390625 -7.9057722091674805 1.1771310567855835
27.51677131652832 -7.877323150634766 1.1831319332122803
27.678462982177734 -7.861502170562744 1.1896113157272339
27.8087158203125 -7.835929870605469 1.1960397958755493
27.944141387939453 -7.809935569763184 1.2013797760009766
28.080533981323242 -7.785266399383545 1.2080941200256348
28.204532623291016 -7.754801273345947 1.212948203086853
28.369731903076172 -7.736935615539551 1.220921277999878
28.506759643554688 -7.710538387298584 1.226361632347107
28.674182891845703 -7.690371513366699 1.2344340085983276
28.81532096862793 -7.66416072845459 1.2400619983673096
28.984024047851562 -7.644416809082031 1.2443203926086426
29.117538452148438 -7.613389015197754 1.249595046043396
29.295555114746094 -7.595019340515137 1.258163332939148
29.439285278320312 -7.565203666687012 1.2638829946517944
29.5942440032959 -7.5395894050598145 1.2714829444885254
29.753170013427734 -7.514108657836914 1.2776356935501099
29.902475357055664 -7.484153747558594 1.2836079597473145
30.077312469482422 -7.461365222930908 1.2920886278152466
30.239913940429688 -7.435120105743408 1.2986584901809692
30.407804489135742 -7.407809734344482 1.306850790977478
30.567127227783203 -7.379199981689453 1.3132872581481934
30.893306732177734 -7.320656776428223 1.327653408050537
31.085603713989258 -7.297863483428955 1.3355177640914917
31.428634643554688 -7.23887825012207 1.350905418395996
31.927522659301758 -7.142724514007568 1.374130129814148
32.47701644897461 -7.0515642166137695 1.397876262664795
32.85565185546875 -6.989014625549316 1.4149478673934937
33.04384994506836 -6.9555745124816895 1.4200758934020996
33.20741653442383 -6.917792320251465 1.4285565614700317
24.090755462646484 -4.966464042663574 1.0356907844543457
22.784339904785156 -4.646609306335449 0.9805495738983154
22.74820327758789 -4.490470886230469 0.9791766405105591
35.21076583862305 -6.567299842834473 1.515047311782837
35.404727935791016 -6.52718448638916 1.5247159004211426
35.61331558227539 -6.487301826477051 1.5333912372589111
35.81488037109375 -6.447258472442627 1.5414907932281494
36.04205322265625 -6.410665512084961 1.5526341199874878
36.24827575683594 -6.367790699005127 1.56122624874115
36.47491455078125 -6.32930326461792 1.5704156160354614
36.693485260009766 -6.28681755065918 1.581223726272583
36.90565490722656 -6.244058132171631 1.5901031494140625
37.1461067199707 -6.205475807189941 1.5999058485031128
37.3886604309082 -6.164233684539795 1.6117959022521973
37.61344909667969 -6.120833396911621 1.6212397813796997
37.84549331665039 -6.078005313873291 1.6306946277618408
38.06344223022461 -6.029941082000732 1.6412643194198608
38.314247131347656 -5.987879753112793 1.651537537574768
38.54695510864258 -5.940235137939453 1.6634055376052856
38.80637741088867 -5.897478103637695 1.674066424369812
39.54481887817383 -5.755594730377197 1.7067712545394897
40.316837310791016 -5.609366416931152 1.7385348081588745
40.81509017944336 -5.503573894500732 1.7615224123001099
41.363040924072266 -5.400195598602295 1.7841757535934448
41.59736251831055 -5.343016624450684 1.796364665031433
42.14350509643555 -5.232850551605225 1.8189826011657715
42.409847259521484 -5.176578998565674 1.8300104141235352
42.966590881347656 -5.060983180999756 1.8557435274124146
43.24772644042969 -5.000802993774414 1.8674222230911255
43.542667388916016 -4.9430084228515625 1.8797101974487305
43.810298919677734 -4.881324768066406 1.8908220529556274
44.1117057800293 -4.819885730743408 1.906097173690796
44.396785736083984 -4.7574639320373535 1.920355200767517
44.69025421142578 -4.692730903625488 1.932973027229309
44.962223052978516 -4.6269755363464355 1.94431734085083
45.26966094970703 -4.563328266143799 1.957196831703186
45.57686996459961 -4.496334075927734 1.9724929332733154
45.84736633300781 -4.426599979400635 1.9837937355041504
46.15814971923828 -4.357475757598877 1.9968369007110596
46.466636657714844 -4.288954257965088 2.010166883468628
46.7586669921875 -4.218068599700928 2.0224156379699707
47.064178466796875 -4.144670009613037 2.0352442264556885
47.37022018432617 -4.0721917152404785 2.0506327152252197
47.69161605834961 -4.000136852264404 2.0641825199127197
48.01644515991211 -3.924492359161377 2.0778751373291016
48.35566329956055 -3.8508262634277344 2.0922043323516846
48.66109848022461 -3.7709498405456543 2.105067253112793
48.97753143310547 -3.6928441524505615 2.1188132762908936
49.29537582397461 -3.6139461994171143 2.1322340965270996
49.65789031982422 -3.5342884063720703 2.14758563041687
49.959877014160156 -3.45119309425354 2.1629884243011475
50.48139953613281 -3.2736668586730957 2.1849441528320312
50.54380798339844 -3.1723990440368652 2.1873414516448975
50.638710021972656 -2.9643094539642334 2.191276788711548
50.66944122314453 -2.752037763595581 2.2005581855773926
50.66545486450195 -2.6463823318481445 2.2001399993896484
50.718658447265625 -2.4350264072418213 2.201984167098999
50.72256088256836 -2.3297226428985596 2.2023568153381348
50.70988464355469 -2.115168809890747 2.20139741897583
50.712684631347656 -2.007189989089966 2.2013278007507324
50.728172302246094 -1.9019582271575928 2.2018227577209473
50.777523040771484 -1.7982953786849976 2.2037999629974365
50.75806427001953 -1.689464807510376 2.202791690826416
50.79502868652344 -1.5847581624984741 2.204249620437622
50.80934143066406 -1.476983904838562 2.2047271728515625
50.79816818237305 -1.3707420825958252 2.2041139602661133
50.826786041259766 -1.265967845916748 2.205235242843628
50.835269927978516 -1.1579396724700928 2.2054924964904785
50.79694747924805 -1.0511853694915771 2.2037253379821777
50.85581588745117 -0.9441404342651367 2.206191062927246
50.87050247192383 -0.8383960127830505 2.20674729347229
50.88987731933594 -0.7330836057662964 2.207516670227051
50.93115997314453 -0.6252774596214294 2.2092440128326416
50.862586975097656 -0.5184537172317505 2.2062172889709473
50.862586975097656 -0.4128950536251068 2.208867073059082
50.786922454833984 -0.30378279089927673 2.2059638500213623
50.80097198486328 -0.19844229519367218 2.206549882888794
50.81118392944336 -0.09035487473011017 2.2069852352142334
14.77648639678955 0.5953203439712524 -0.22522205114364624
14.78449535369873 0.6887632012367249 -0.22347545623779297
14.805479049682617 0.7205347418785095 -0.22290989756584167
14.85113525390625 0.7537757158279419 -0.22271397709846497
14.860143661499023 0.8168668746948242 -0.22120721638202667
14.855286598205566 0.8476477265357971 -0.22103480994701385
14.860742568969727 0.8796880841255188 -0.2202329933643341
14.864765167236328 0.910885751247406 -0.219412699341774
14.863226890563965 0.9426661133766174 -0.21850880980491638
14.905529975891113 0.9764095544815063 -0.2182493954896927
14.9063138961792 1.0075311660766602 -0.21750126779079437
14.941676139831543 1.0731531381607056 -0.21704380214214325
14.965024948120117 1.1694384813308716 -0.21473464369773865
14.991296768188477 1.2663596868515015 -0.212591752409935
15.046062469482422 1.366428017616272 -0.20875313878059387
15.29174518585205 2.2025251388549805 -0.19109153747558594
15.295768737792969 2.2680740356445312 -0.18936944007873535
15.310868263244629 2.3036203384399414 -0.18867312371730804
15.346561431884766 2.375127077102661 -0.1873396784067154
15.35136604309082 2.408501148223877 -0.18651020526885986
15.369997024536133 2.444247007369995 -0.18584920465946198
15.38578987121582 2.480337619781494 -0.18515044450759888
15.377164840698242 2.5116987228393555 -0.18428999185562134
15.386439323425293 2.5461370944976807 -0.18433363735675812
15.372722625732422 2.5774872303009033 -0.18328143656253815
15.385478973388672 2.6124629974365234 -0.18254761397838593
15.400337219238281 2.6480093002319336 -0.1818358451128006
15.405552864074707 2.6826703548431396 -0.1810106486082077
15.390292167663574 2.713062286376953 -0.1799427568912506
15.3785982131958 2.7776975631713867 -0.1780330091714859
15.364343643188477 2.8081908226013184 -0.17698036134243011
15.362102508544922 2.8745594024658203 -0.17613978683948517
15.346092224121094 2.9046688079833984 -0.17507097125053406
15.35043716430664 2.972376585006714 -0.168969988822937
15.31374740600586 3.065408706665039 -0.16604353487491608
15.287878036499023 3.6993956565856934 -0.15090525150299072
15.296944618225098 3.8035430908203125 -0.14501653611660004
15.286676406860352 3.903193950653076 -0.14225952327251434
15.280096054077148 3.970134735107422 -0.14125795662403107
15.301833152770996 4.010560989379883 -0.1405724585056305
15.288190841674805 4.075006008148193 -0.1388009935617447
15.280887603759766 4.107906341552734 -0.13784772157669067
15.273680686950684 4.140110492706299 -0.136894091963768
15.284698486328125 4.1771650314331055 -0.13610340654850006
15.25619125366211 4.204283714294434 -0.13496261835098267
15.304064750671387 4.251804351806641 -0.1344950944185257
15.292803764343262 4.2828803062438965 -0.13350431621074677
15.274054527282715 4.31270170211792 -0.13245147466659546
15.284156799316406 4.349957466125488 -0.13164779543876648
15.290903091430664 4.387072563171387 -0.13178591430187225
15.290931701660156 4.421444892883301 -0.13089334964752197
15.284865379333496 4.454219818115234 -0.12994864583015442
15.282824516296387 4.488929748535156 -0.12904009222984314
15.264464378356934 4.518105506896973 -0.12799225747585297
15.254939079284668 4.549737930297852 -0.12450182437896729
15.254375457763672 4.584939956665039 -0.12347181141376495
15.268290519714355 4.623829364776611 -0.12268839031457901
15.260893821716309 4.656185150146484 -0.1217324361205101
15.26966381072998 4.729245185852051 -0.12014144659042358
15.255427360534668 4.8301472663879395 -0.11733613163232803
15.237099647521973 4.929947853088379 -0.11534290760755539
15.25117301940918 5.470747470855713 -0.10298534482717514
15.244823455810547 5.576886177062988 -0.10020459443330765
15.234267234802246 5.6818647384643555 -0.0975261777639389
15.251655578613281 5.761631965637207 -0.09580156952142715
15.23170280456543 5.790241718292236 -0.09561620652675629
15.228837966918945 5.862673759460449 -0.09376029670238495
15.235456466674805 5.901554107666016 -0.09287882596254349
15.22765827178955 5.935827732086182 -0.09191063791513443
15.21219253540039 5.9663405418396 -0.09089473634958267
15.230287551879883 6.009934425354004 -0.09021390229463577
15.229682922363281 6.047327995300293 -0.08928662538528442
15.229223251342773 6.0837626457214355 -0.08835693448781967
15.216201782226562 6.116138935089111 -0.08822008222341537
15.232770919799805 6.159694671630859 -0.08738729357719421
15.231035232543945 6.195800304412842 -0.08644729852676392
15.20666790008545 6.223633289337158 -0.08538103848695755
15.224344253540039 6.267932891845703 -0.08454851806163788
15.201051712036133 6.295266628265381 -0.08348748087882996
15.199954986572266 6.332737445831299 -0.08268754929304123
15.174005508422852 6.359060764312744 -0.0816139280796051
15.176210403442383 6.3970417976379395 -0.08069141954183578
15.157901763916016 6.427494049072266 -0.07966092228889465
15.167678833007812 6.468808650970459 -0.07877495139837265
15.14172077178955 6.533242702484131 -0.07763861864805222
15.076595306396484 6.5422868728637695 -0.07637100666761398
14.958308219909668 6.565953254699707 -0.07405044138431549
14.89441967010498 6.574807167053223 -0.072807677090168
14.766757011413574 6.592900276184082 -0.07034429907798767
14.693516731262207 6.596804618835449 -0.06907770037651062
14.570290565490723 6.615350723266602 -0.0675213411450386
13.832972526550293 6.706122398376465 -0.05629714950919151
13.674070358276367 6.735581398010254 -0.053030580282211304
13.50101089477539 6.756134510040283 -0.05068017914891243
13.426774024963379 6.753861427307129 -0.049536652863025665
13.324604034423828 6.772933006286621 -0.04743988439440727
13.249531745910645 6.769408702850342 -0.047100912779569626
13.219419479370117 6.789674282073975 -0.04613843560218811
13.1509370803833 6.789028167724609 -0.045045092701911926
13.115334510803223 6.805156230926514 -0.04419023543596268
13.051660537719727 6.807544231414795 -0.04312612861394882
13.006803512573242 6.818519115447998 -0.04212821647524834
12.949258804321289 6.822782039642334 -0.04186840355396271
12.894144058227539 6.8288397789001465 -0.04084638133645058
12.836918830871582 6.832682132720947 -0.03982241079211235
12.781734466552734 6.838388442993164 -0.039696477353572845
12.729327201843262 6.844365119934082 -0.03857753425836563
12.680804252624512 6.852235794067383 -0.038355812430381775
12.612407684326172 6.85012674331665 -0.037434037774801254
12.579551696777344 6.866127014160156 -0.03650425747036934
12.526652336120605 6.871031284332275 -0.035520039498806
12.470487594604492 6.874919891357422 -0.03453320637345314
12.411022186279297 6.875758171081543 -0.033541981130838394
12.375463485717773 6.890650749206543 -0.03348575532436371
12.317798614501953 6.892068862915039 -0.032506924122571945
12.283522605895996 6.906400680541992 -0.03159397095441818
12.21678638458252 6.903266429901123 -0.030603600665926933
12.16556167602539 6.90766716003418 -0.029656941071152687
12.117090225219727 6.913435935974121 -0.029460212215781212
12.071327209472656 6.921550273895264 -0.028649190440773964
12.041607856750488 6.937754154205322 -0.02776491269469261
11.98391056060791 6.937675476074219 -0.026819542050361633
11.889554977416992 6.95006799697876 -0.025720875710248947
11.748405456542969 6.9670209884643555 -0.023120073601603508
11.599452018737793 6.977753162384033 -0.02126023918390274
11.464201927185059 6.994918346405029 -0.01934368908405304
11.116817474365234 7.04169225692749 -0.014135614037513733
11.064018249511719 7.041284561157227 -0.013286816887557507
10.99496841430664 7.0625739097595215 -0.011644329875707626
10.948287010192871 7.064725875854492 -0.011504646390676498
10.861640930175781 7.073781490325928 -0.009967977181077003
10.819083213806152 7.078083038330078 -0.009153041057288647
10.742286682128906 7.092623710632324 -0.008327878080308437
10.694622993469238 7.0930657386779785 -0.007518800441175699
10.664339065551758 7.105014324188232 -0.006726314313709736
10.616668701171875 7.105923175811768 -0.005925872828811407
10.58381462097168 7.115780353546143 -0.00524106714874506
10.530379295349121 7.112565040588379 -0.00423995079472661
10.506669998168945 7.128345966339111 -0.004132778849452734
10.458788871765137 7.127724647521973 -0.0034497661981731653
10.40792465209961 7.125543594360352 -0.0026677928399294615
10.368256568908691 7.130031585693359 -0.0018939748406410217
10.339111328125 7.141761302947998 -0.0017888466827571392
10.296610832214355 7.144819259643555 -0.001121305744163692
10.26152229309082 7.152064800262451 -0.00035622884752228856
10.210257530212402 7.147984504699707 0.00040620501386001706
10.173828125 7.154790878295898 0.000405883532948792
10.13818359375 7.161213397979736 0.001161817112006247
10.107394218444824 7.171879291534424 0.001916807726956904
10.057791709899902 7.16810941696167 0.002663522958755493
10.023115158081055 7.174929618835449 0.00265859579667449
9.98308277130127 7.1784539222717285 0.0034028468653559685
9.943277359008789 7.181182384490967 0.004142737481743097
9.865898132324219 7.188710689544678 0.0048680901527404785
9.835616111755371 7.197941780090332 0.005604167934507132
9.757487297058105 7.204062461853027 0.006317197345197201
9.722625732421875 7.209667205810547 0.007043374702334404
9.64521312713623 7.215295314788818 0.009116264060139656
9.610392570495605 7.220522880554199 0.009831814095377922
9.521329879760742 7.21653938293457 0.01050139032304287
9.419723510742188 7.233214378356934 0.011889013461768627
9.319049835205078 7.249490261077881 0.013260038569569588
9.21196460723877 7.259603023529053 0.014603564515709877
9.14985466003418 7.273330211639404 0.015980500727891922
9.105314254760742 7.269599437713623 0.01593032106757164
9.030235290527344 7.2713518142700195 0.0172668918967247
9.006269454956055 7.283701419830322 0.01725037395954132
8.93913459777832 7.291101455688477 0.017978083342313766
8.903830528259277 7.293915748596191 0.018546709790825844
8.838181495666504 7.30255126953125 0.019173389300704002
8.809160232543945 7.309385776519775 0.021239520981907845
8.76672649383545 7.305068492889404 0.021869825199246407
8.741090774536133 7.315280914306641 0.02184482477605343
8.706756591796875 7.317323207855225 0.022491397336125374
8.675943374633789 7.322322845458984 0.023051483556628227
8.626572608947754 7.312146186828613 0.023054037243127823
8.603838920593262 7.323734283447266 0.023723747581243515
8.564872741699219 7.321272373199463 0.023657888174057007
8.528197288513184 7.321389675140381 0.024285688996315002
8.493219375610352 7.322150230407715 0.02482258528470993
8.472031593322754 7.335371971130371 0.02489742822945118
8.433052062988281 7.332296371459961 0.02550974115729332
8.406533241271973 7.340049743652344 0.02606581151485443
8.358480453491211 7.329499244689941 0.026056071743369102
8.33739185333252 7.341788291931152 0.02662520296871662
8.306181907653809 7.344964981079102 0.02666488103568554
8.287520408630371 7.359948635101318 0.027331218123435974
8.24725341796875 7.354978561401367 0.02783345989882946
8.217677116394043 7.3592753410339355 0.027874726802110672
8.164219856262207 7.342770576477051 0.02832719311118126
8.151398658752441 7.362015247344971 0.028425469994544983
8.114558219909668 7.360158443450928 0.029019765555858612
8.097519874572754 7.375389099121094 0.029013749212026596
8.055771827697754 7.368129253387451 0.029585668817162514
8.031524658203125 7.377403259277344 0.031373150646686554
7.991528511047363 7.371419906616211 0.03127690404653549
7.933122634887695 7.379502296447754 0.03183074668049812
7.908560752868652 7.387447834014893 0.03245428577065468
7.84250020980835 7.387832164764404 0.03296840190887451
7.815683364868164 7.393241882324219 0.033489033579826355
7.751730918884277 7.394851207733154 0.0340893529355526
7.726328372955322 7.401305198669434 0.03404499962925911
7.667252540588379 7.406885623931885 0.034572772681713104
7.57818603515625 7.413509368896484 0.035674504935741425
7.518383979797363 7.417228698730469 0.0361843965947628
7.478940963745117 7.4090046882629395 0.03606852889060974
7.423410892486572 7.416198253631592 0.03714645281434059
7.398216247558594 7.421767711639404 0.03718280419707298
7.3359456062316895 7.421548843383789 0.03766351938247681
7.31379508972168 7.43070125579834 0.03937004879117012
7.283605575561523 7.430932521820068 0.039290811866521835
7.263428688049316 7.4411749839782715 0.039899807423353195
7.231111526489258 7.439675331115723 0.039809323847293854
7.201162338256836 7.439810752868652 0.04036153107881546
7.177863121032715 7.447389602661133 0.040319837629795074
7.158701419830322 7.458542823791504 0.040930453687906265
7.117681980133057 7.4466776847839355 0.040784142911434174
7.096683502197266 7.456411838531494 0.04138290137052536
7.074005603790283 7.463659763336182 0.041341327130794525
7.0406718254089355 7.459432601928711 0.04123677313327789
7.009130001068115 7.457745552062988 0.041769690811634064
6.972675323486328 7.449998378753662 0.0416446328163147
6.952507019042969 7.45941686630249 0.042239006608724594
6.927885055541992 7.464787006378174 0.04218585416674614
6.887569427490234 7.452425479888916 0.04265405610203743
6.873352527618408 7.468868255615234 0.04266450181603432
6.842104911804199 7.46606969833374 0.043185118585824966
6.820945739746094 7.474059581756592 0.043149419128894806
6.791110038757324 7.473245620727539 0.043677590787410736
6.766262054443359 7.4771409034729 0.0436178520321846
6.728778839111328 7.466806411743164 0.04347596317529678
6.712185382843018 7.48034143447876 0.04408499225974083
6.685952663421631 7.4824090003967285 0.04401488974690437
6.656869888305664 7.481048107147217 0.045066505670547485
6.632019519805908 7.485259532928467 0.04508786275982857
6.607314586639404 7.488626480102539 0.04555375128984451
6.561538219451904 7.500178813934326 0.045536648482084274
6.521463394165039 7.485661506652832 0.04589107632637024
6.501488208770752 7.494998931884766 0.04594412446022034
6.480496406555176 7.502196311950684 0.04643022269010544
6.42422342300415 7.500676155090332 0.046333231031894684
6.39716911315918 7.500536918640137 0.04677186906337738
6.3404388427734375 7.497746467590332 0.046667300164699554
6.321512222290039 7.5069050788879395 0.04724165424704552
6.266353130340576 7.505328178405762 0.04758245870471001
6.249046802520752 7.5162506103515625 0.047648876905441284
6.216826915740967 7.510073661804199 0.04752548038959503
6.204574108123779 7.527017116546631 0.048067547380924225
6.149868965148926 7.524998188018799 0.04796749725937843
6.122766017913818 7.523644924163818 0.04839104786515236
6.095306873321533 7.52254581451416 0.04837897792458534
6.068687915802002 7.521677494049072 0.048291925340890884
6.038538932800293 7.516171932220459 0.04868598282337189
6.023996829986572 7.530965328216553 0.049208901822566986
5.997707843780518 7.530081272125244 0.0491996705532074
5.967242240905762 7.524635314941406 0.049081187695264816
5.959104061126709 7.546614170074463 0.049652740359306335
5.931755065917969 7.54411506652832 0.0496327206492424
5.894335746765137 7.529572486877441 0.04945407062768936
5.870207786560059 7.53089714050293 0.0498877689242363
5.850131511688232 7.537347793579102 0.049927763640880585
5.83122444152832 7.546213626861572 0.049903906881809235
5.811455249786377 7.552974700927734 0.050372954457998276
5.777092456817627 7.54146671295166 0.05029131472110748
5.763296604156494 7.556013107299805 0.05030820146203041
5.7403340339660645 7.558384418487549 0.050244491547346115
5.702519416809082 7.5418620109558105 0.0505535751581192
5.687343597412109 7.554455757141113 0.05063585937023163
5.666996002197266 7.5600266456604 0.05059449374675751
5.627525806427002 7.540884494781494 0.050883203744888306
5.613152503967285 7.554278373718262 0.050971366465091705
5.584690093994141 7.54864501953125 0.05085509270429611
5.558801651000977 7.547319412231445 0.05076589807868004
5.542080879211426 7.557412147521973 0.051328394562006
5.517738342285156 7.557892799377441 0.05125187337398529
5.5053887367248535 7.574060440063477 0.05128414183855057
5.478829860687256 7.570504665374756 0.051182862371206284
5.445715427398682 7.558692455291748 0.05102390795946121
5.429004669189453 7.568565368652344 0.05158335715532303
5.413361549377441 7.579919815063477 0.05158405378460884
5.378353595733643 7.565018653869629 0.05140409618616104
5.357275009155273 7.568580150604248 0.05135241150856018
5.339337348937988 7.577512741088867 0.05141104385256767
5.306678771972656 7.564454555511475 0.05173647776246071
5.285311222076416 7.567349433898926 0.05168113857507706
5.2606072425842285 7.566357612609863 0.05159740149974823
5.2516584396362305 7.587031364440918 0.0517391711473465
5.213670253753662 7.565650939941406 0.05200527235865593
5.192716598510742 7.569804668426514 0.05195757746696472
5.1709136962890625 7.571656703948975 0.05189654976129532
5.1588053703308105 7.588684558868408 0.051937952637672424
5.119542598724365 7.564644813537598 0.05177443474531174
5.106991291046143 7.579938888549805 0.052290044724941254
5.0914812088012695 7.591867923736572 0.05229751393198967
5.070725440979004 7.594942092895508 0.05224618688225746
5.043537139892578 7.588273048400879 0.052128054201602936
5.02131462097168 7.5899577140808105 0.05213972181081772
4.989529132843018 7.57603120803833 0.05245283991098404
4.977600574493408 7.593048095703125 0.05249724164605141
4.957586288452148 7.596987724304199 0.052453018724918365
4.930362224578857 7.58963680267334 0.0523313470184803
4.913038730621338 7.598453044891357 0.05231986194849014
4.8916754722595215 7.5999555587768555 0.052260078489780426
4.86379337310791 7.59120512008667 0.05213012173771858
4.842074394226074 7.592965602874756 0.05207110196352005
4.8236775398254395 7.598856449127197 0.052519332617521286
4.804565906524658 7.603713035583496 0.05255654826760292
4.776939392089844 7.595739364624023 0.05243109539151192
4.752749443054199 7.592189788818359 0.052338067442178726
4.731257438659668 7.593878746032715 0.05227985233068466
4.708757400512695 7.592826843261719 0.05220552161335945
4.696442604064941 7.608175277709961 0.052243899554014206
4.669694423675537 7.6011247634887695 0.052671320736408234
4.64235782623291 7.59190559387207 0.052540477365255356
4.626490592956543 7.602398872375488 0.05254505202174187
4.610760688781738 7.612076282501221 0.052545398473739624
4.589869022369385 7.613194465637207 0.05248735472559929
4.556602478027344 7.594658374786377 0.05229216068983078
4.549056529998779 7.617871284484863 0.052386973053216934
4.528285503387451 7.618961334228516 0.052329905331134796
4.505134105682373 7.617010593414307 0.05232198163866997
4.474225997924805 7.600706577301025 0.05261294171214104
4.461505889892578 7.615201950073242 0.052648983895778656
4.438096046447754 7.61248254776001 0.05256451293826103
4.417789936065674 7.613921165466309 0.05204515531659126
4.390260696411133 7.603850364685059 0.05191197246313095
4.348487854003906 7.591158390045166 0.05172369256615639
5.448450088500977 -10.308900833129883 -0.20888160169124603
5.481734275817871 -10.319982528686523 -0.21004988253116608
5.490490913391113 -10.283580780029297 -0.2102576196193695
5.515692710876465 -10.279184341430664 -0.21111485362052917
5.535707473754883 -10.263994216918945 -0.21113790571689606
5.556159019470215 -10.250943183898926 -0.21181786060333252
5.598799705505371 -10.278444290161133 -0.21334141492843628
5.649737358093262 -10.268770217895508 -0.2144422084093094
5.684171676635742 -10.280784606933594 -0.21546803414821625
5.7391204833984375 -10.27771282196045 -0.21734541654586792
