VERSION .7
FIELDS x y z
SIZE 4 4 4
TYPE F F F
COUNT 1 1 1
WIDTH 841
HEIGHT 1
VIEWPOINT 0 0 0 1 0 0 0
POINTS 841
DATA ascii
8.735334396362305 5.9794697761535645 0.043925151228904724
8.646711349487305 5.972195625305176 0.04361439496278763
8.626845359802246 5.985198974609375 0.04357246682047844
8.558768272399902 5.991275787353516 0.043350934982299805
8.51899528503418 5.990056037902832 0.04365251958370209
8.488882064819336 5.995780944824219 0.0435631237924099
8.4493408203125 5.9941725730896 0.043423958122730255
8.406655311584473 5.990396499633789 0.043275825679302216
8.366411209106445 5.988467216491699 0.04313035309314728
8.342591285705566 5.997879981994629 0.043074723333120346
8.306214332580566 5.998442649841309 0.042948465794324875
8.28056526184082 6.006104946136475 0.04288394749164581
8.231163024902344 5.996619701385498 0.04269422963261604
8.212606430053711 6.009757041931152 0.042659468948841095
8.172391891479492 6.006409645080566 0.0425151102244854
8.143997192382812 6.011849880218506 0.04262810945510864
8.096809387207031 6.003541946411133 0.04244747757911682
8.081181526184082 6.017983436584473 0.0424295999109745
8.044609069824219 6.0169806480407715 0.04230719804763794
8.01173210144043 6.018883228302002 0.040938083082437515
7.939450263977051 6.017054080963135 0.04069287329912186
7.903414726257324 6.01560640335083 0.040576156228780746
7.846592426300049 6.02471399307251 0.04041042551398277
7.820339202880859 6.030394554138184 0.040529631078243256
7.265357971191406 6.053503513336182 0.03921089321374893
7.2096734046936035 6.0587310791015625 0.03804649040102959
7.1855268478393555 6.0639238357543945 0.037977397441864014
7.112696647644043 6.053934097290039 0.0377337783575058
7.098338603973389 6.067159175872803 0.037717338651418686
7.047573089599609 6.075317859649658 0.03757993131875992
7.0018181800842285 6.061248779296875 0.037795692682266235
6.944064140319824 6.0625996589660645 0.03762328624725342
6.927143096923828 6.073205947875977 0.03760375827550888
6.886178493499756 6.063358306884766 0.03745061159133911
6.861752986907959 6.06717586517334 0.037385132163763046
6.825852870941162 6.060952186584473 0.037260688841342926
6.814609527587891 6.076820373535156 0.037270091474056244
6.79019832611084 6.080394744873047 0.03720919042825699
6.754619121551514 6.074584007263184 0.037080034613609314
6.7313432693481445 6.078967094421387 0.03702940046787262
6.705679893493652 6.081101894378662 0.037329114973545074
6.675807952880859 6.080051898956299 0.037411920726299286
6.650783538818359 6.0825581550598145 0.0373363234102726
6.624079704284668 6.083428382873535 0.037260107696056366
6.59085750579834 6.078923225402832 0.03715038672089577
6.558927059173584 6.074710845947266 0.03628850355744362
6.545778274536133 6.088329792022705 0.03628883510828018
6.5152506828308105 6.085434913635254 0.03618983179330826
6.494405269622803 6.09124755859375 0.036135073751211166
6.440814018249512 6.092172622680664 0.03598473221063614
6.412423133850098 6.090580940246582 0.035897452384233475
6.3609747886657715 6.0928754806518555 0.03612238168716431
6.340906620025635 6.098935127258301 0.03607949614524841
6.2944841384887695 6.105525016784668 0.035958074033260345
6.266185760498047 6.103876113891602 0.03587069362401962
6.214498519897461 6.104231357574463 0.0358874574303627
6.144004821777344 6.111866474151611 0.03606575354933739
6.065978050231934 6.110597133636475 0.035836704075336456
5.994008541107178 6.114737510681152 0.035285163670778275
5.921041011810303 6.116753101348877 0.035077814012765884
5.871953010559082 6.117152690887451 0.034932941198349
5.857198715209961 6.12741756439209 0.03492182120680809
5.813385009765625 6.132851600646973 0.03517140448093414
5.783657550811768 6.127140045166016 0.035068050026893616
5.737825870513916 6.130100727081299 0.034950029104948044
5.718897819519043 6.135348796844482 0.03490510210394859
5.66788911819458 6.132201194763184 0.0347486287355423
5.642395496368408 6.130092620849609 0.03467637300491333
5.616336345672607 6.127765655517578 0.035105083137750626
5.5934648513793945 6.1285295486450195 0.03504090756177902
5.578629493713379 6.137808322906494 0.035032693296670914
5.546433448791504 6.1284027099609375 0.034907929599285126
5.534256935119629 6.140747547149658 0.034909579902887344
5.505988121032715 6.135451316833496 0.034817274659872055
5.491299629211426 6.144924640655518 0.03479974716901779
5.454604148864746 6.129414081573486 0.0346493162214756
5.447501182556152 6.147592067718506 0.034683335572481155
5.419923782348633 6.142338275909424 0.03459503874182701
5.392471790313721 6.136850357055664 0.03450503572821617
5.37058162689209 6.138097763061523 0.03478659689426422
5.349178314208984 6.139533996582031 0.03472978249192238
5.3332672119140625 6.147501468658447 0.0347113311290741
5.302278518676758 6.137701988220215 0.03459249436855316
5.291349411010742 6.1508073806762695 0.03460516408085823
5.265898704528809 6.147500038146973 0.03452758491039276
5.232810020446777 6.134830951690674 0.03455398604273796
5.223812103271484 6.150084018707275 0.03456971049308777
5.19868803024292 6.146833419799805 0.03483162075281143
5.176847457885742 6.147072792053223 0.03477669507265091
5.155021667480469 6.147000789642334 0.03470631316304207
5.140141487121582 6.155680179595947 0.034692250192165375
5.116965293884277 6.154076099395752 0.03462325781583786
5.103541851043701 6.164433002471924 0.03462642431259155
5.060686111450195 6.164816856384277 0.03484043851494789
5.033836364746094 6.158649921417236 0.03474806994199753
4.987404823303223 6.1545586585998535 0.03460536152124405
4.980990409851074 6.172787666320801 0.03479833900928497
4.925529479980469 6.156933307647705 0.03492021560668945
4.906081676483154 6.158780097961426 0.03487939387559891
4.87071418762207 6.167502403259277 0.03480629622936249
4.84570837020874 6.162086486816406 0.03472350537776947
4.8151373863220215 6.176568031311035 0.03469410166144371
4.768357753753662 6.169975280761719 0.03487130254507065
4.751128196716309 6.174118995666504 0.03483305871486664
4.706873893737793 6.170200824737549 0.03470563516020775
4.691469192504883 6.176791191101074 0.034682705998420715
4.658275604248047 6.186766624450684 0.03509974107146263
4.628695964813232 6.174348831176758 0.0349784791469574
4.617395401000977 6.185980796813965 0.034990716725587845
4.593045234680176 6.180612564086914 0.03489910811185837
4.575082778930664 6.183448791503906 0.03486434742808342
4.554169654846191 6.182516098022461 0.034805502742528915
4.530467510223389 6.177143096923828 0.03472490981221199
4.5159125328063965 6.184415817260742 0.035032063722610474
4.4960455894470215 6.184658527374268 0.03497885912656784
4.474535942077637 6.182002067565918 0.03490999713540077
4.459956645965576 6.189655303955078 0.035371121019124985
4.436192512512207 6.183691024780273 0.035278819501399994
4.422569751739502 6.192039489746094 0.03527262061834335
4.401908874511719 6.190781593322754 0.03521225228905678
4.378779411315918 6.185393333435059 0.035134006291627884
4.35983943939209 6.186071395874023 0.03508544713258743
4.350288391113281 6.200354099273682 0.03542882949113846
4.325189590454102 6.19187068939209 0.035328395664691925
4.313380241394043 6.20259428024292 0.03533784672617912
4.2859320640563965 6.191046714782715 0.03536497801542282
4.271385669708252 6.197475433349609 0.03535154461860657
4.250452041625977 6.195384979248047 0.035284917801618576
4.233370780944824 6.198020935058594 0.03556710109114647
4.212086200714111 6.194674015045166 0.03549659252166748
4.199428081512451 6.2042670249938965 0.03549857810139656
4.170973777770996 6.189860820770264 0.03537044674158096
4.159080505371094 6.200191497802734 0.03537628799676895
4.13923454284668 6.198934078216553 0.03531859442591667
4.118782043457031 6.196108341217041 0.03525833785533905
4.098832607269287 6.194760799407959 0.035654403269290924
4.092313289642334 6.212885856628418 0.03570996969938278
4.048984050750732 6.203822612762451 0.03556232154369354
4.031217098236084 6.20469331741333 0.035517700016498566
3.9959192276000977 6.207429885864258 0.03574461489915848
3.986969232559204 6.221858501434326 0.03591892868280411
3.9601168632507324 6.209112644195557 0.03579532355070114
3.945307731628418 6.21429967880249 0.03577525541186333
3.9214253425598145 6.205103397369385 0.03599204123020172
3.9119110107421875 6.219428539276123 0.03602444380521774
3.887403964996338 6.209017753601074 0.03591276705265045
3.8603031635284424 6.223855018615723 0.03590787574648857
3.837705612182617 6.216184616088867 0.03582034632563591
3.8203227519989014 6.217702865600586 0.036222536116838455
3.8078083992004395 6.226265907287598 0.03622685372829437
3.7805867195129395 6.210675239562988 0.03609524294734001
3.771777629852295 6.226110458374023 0.0361347571015358
3.7503676414489746 6.219858646392822 0.036051467061042786
3.7302980422973633 6.215706825256348 0.03598981350660324
3.7157397270202637 6.221532344818115 0.036278869956731796
3.698239803314209 6.221523284912109 0.036229457706213
3.6799535751342773 6.22011137008667 0.036176349967718124
3.668074131011963 6.23036527633667 0.036331579089164734
3.6406686305999756 6.213270664215088 0.0361933633685112
3.6309900283813477 6.227212429046631 0.03622358292341232
3.607391357421875 6.216351509094238 0.036420393735170364
3.599360227584839 6.2322678565979 0.0361652635037899
3.5764284133911133 6.2232208251953125 0.0360683873295784
3.568812847137451 6.2399067878723145 0.03655555099248886
3.5435752868652344 6.226607322692871 0.036442048847675323
3.52774715423584 6.228828430175781 0.03641403838992119
3.5095624923706055 6.226819038391113 0.036352552473545074
3.498852252960205 6.238937854766846 0.036375172436237335
3.478877544403076 6.233606338500977 0.036607638001441956
3.465817928314209 6.240602493286133 0.0366055890917778
3.4492554664611816 6.242159366607666 0.03656744211912155
3.4343252182006836 6.245722770690918 0.03654276207089424
3.4112741947174072 6.234410285949707 0.03657896816730499
3.3995847702026367 6.244688034057617 0.036595702171325684
3.3773488998413086 6.234618663787842 0.036787353456020355
3.3637852668762207 6.241092681884766 0.03678754344582558
6.86887788772583 -12.105743408203125 0.0978199914097786
6.899739742279053 -12.101557731628418 0.09763865917921066
6.937310218811035 -12.108983993530273 0.0978115051984787
6.962553024291992 -12.093079566955566 0.09721127897500992
7.000578880310059 -12.100979804992676 0.09740065783262253
7.069326400756836 -12.101943969726562 0.0976426899433136
7.102005958557129 -12.100164413452148 0.09747787564992905
7.168023109436035 -12.095663070678711 0.09768785536289215
7.2066144943237305 -12.103445053100586 0.09786723554134369
7.274416923522949 -12.101090431213379 0.0980994775891304
7.367305278778076 -12.08293342590332 0.09805579483509064
7.407774925231934 -12.092259407043457 0.09765803068876266
7.436731338500977 -12.082024574279785 0.09769564121961594
7.474161148071289 -12.086061477661133 0.09785546362400055
7.502814292907715 -12.076300621032715 0.09790515899658203
7.549407958984375 -12.094099998474121 0.09851384907960892
7.572931289672852 -12.075410842895508 0.09848284721374512
7.608260154724121 -12.075996398925781 0.09889165312051773
7.643984794616699 -12.075933456420898 0.09902667999267578
7.679645538330078 -12.076236724853516 0.09889211505651474
7.711505889892578 -12.070941925048828 0.09896808862686157
7.747237682342529 -12.070469856262207 0.09910199791193008
7.778237342834473 -12.063117027282715 0.0991753414273262
7.820207595825195 -12.073123931884766 0.09939473867416382
7.845714569091797 -12.055981636047363 0.09939137101173401
7.885354995727539 -12.062067031860352 0.09929794073104858
7.9596357345581055 -12.06445026397705 0.09898857772350311
7.98673152923584 -12.05103874206543 0.0990108847618103
8.057424545288086 -12.04721736907959 0.09925781935453415
8.105660438537598 -12.065084457397461 0.09927108883857727
8.129585266113281 -12.046119689941406 0.09925856441259384
8.175382614135742 -12.058839797973633 0.09950171411037445
8.20638370513916 -12.050651550292969 0.09957429021596909
8.239559173583984 -12.043983459472656 0.0996531993150711
8.276176452636719 -12.043800354003906 0.09980954229831696
8.313457489013672 -12.044429779052734 0.09995651245117188
8.348615646362305 -12.040266036987305 0.09978814423084259
8.388408660888672 -12.04420280456543 0.10058949142694473
8.465119361877441 -12.045854568481445 0.10117858648300171
8.568252563476562 -12.031118392944336 0.10150671750307083
8.61087703704834 -12.038021087646484 0.10081500560045242
8.714274406433105 -12.022126197814941 0.10113601386547089
9.285489082336426 -11.996236801147461 0.10274471342563629
9.401285171508789 -11.989356994628906 0.1034822016954422
9.472841262817383 -11.976393699645996 0.10371352732181549
9.5189208984375 -11.983458518981934 0.10365284979343414
9.600357055664062 -11.982020378112793 0.10398820042610168
9.628623962402344 -11.966325759887695 0.10401822626590729
9.713943481445312 -11.968805313110352 0.1043996810913086
9.757345199584961 -11.971423149108887 0.1046038344502449
9.790002822875977 -11.959234237670898 0.10373619198799133
9.836784362792969 -11.9656343460083 0.10396771878004074
9.874938011169434 -11.961359024047852 0.10411201417446136
9.916046142578125 -11.959022521972656 0.10427285730838776
9.956637382507324 -11.957389831542969 0.10443761944770813
10.003689765930176 -11.962861061096191 0.10466824471950531
10.032801628112793 -11.946184158325195 0.10440358519554138
10.083829879760742 -11.956475257873535 0.1046842411160469
10.114029884338379 -11.941451072692871 0.10472997277975082
10.160892486572266 -11.945409774780273 0.10495418310165405
10.193199157714844 -11.933121681213379 0.10502985119819641
10.244636535644531 -11.942605972290039 0.10597290098667145
10.276188850402832 -11.928190231323242 0.1066356897354126
10.332146644592285 -11.942935943603516 0.10599283128976822
10.361209869384766 -11.924948692321777 0.1060236468911171
10.408101081848145 -11.928828239440918 0.10626034438610077
10.492374420166016 -11.92367172241211 0.1066054180264473
10.542054176330566 -11.930118560791016 0.10686573386192322
10.614959716796875 -11.911151885986328 0.10677805542945862
10.751042366027832 -11.91222858428955 0.10739786177873611
10.872600555419922 -11.895700454711914 0.10755796730518341
11.004046440124512 -11.88856315612793 0.10742546617984772
11.826207160949707 -11.846038818359375 0.11102344840765
11.95435905456543 -11.824786186218262 0.11049091815948486
12.003802299499512 -11.824061393737793 0.11071170121431351
12.106934547424316 -11.826056480407715 0.11121471971273422
12.13759994506836 -11.806437492370605 0.1112552210688591
12.238091468811035 -11.804740905761719 0.11140500009059906
12.29600715637207 -11.810997009277344 0.11170691251754761
12.43319320678711 -11.793391227722168 0.11260919272899628
12.481204986572266 -11.788829803466797 0.11281032860279083
12.528697967529297 -11.784141540527344 0.1130121648311615
12.594489097595215 -11.79686164855957 0.11339253187179565
12.624597549438477 -11.774981498718262 0.11342969536781311
12.678510665893555 -11.775713920593262 0.11369822174310684
12.729774475097656 -11.773225784301758 0.11321143805980682
12.790048599243164 -11.77981948852539 0.11352304369211197
12.823318481445312 -11.760923385620117 0.1132698580622673
12.886289596557617 -11.768540382385254 0.1136087104678154
12.94095230102539 -11.769302368164062 0.11387179791927338
12.991777420043945 -11.765908241271973 0.11409678310155869
13.03072738647461 -11.751062393188477 0.1142226830124855
13.132526397705078 -11.743952751159668 0.11468242853879929
13.190030097961426 -11.745210647583008 0.11462892591953278
13.29953384399414 -11.743667602539062 0.11515746265649796
13.335843086242676 -11.725573539733887 0.1152532771229744
14.492055892944336 -11.65139389038086 0.1187763661146164
14.664754867553711 -11.639219284057617 0.11881391704082489
14.844362258911133 -11.630417823791504 0.11930141597986221
15.200767517089844 -11.603748321533203 0.12055179476737976
15.317214965820312 -11.591327667236328 0.12072492390871048
15.375993728637695 -11.585247039794922 0.12100855261087418
15.427999496459961 -11.574317932128906 0.12121590971946716
15.486302375793457 -11.566896438598633 0.12147833406925201
15.548105239868164 -11.562411308288574 0.12177293002605438
15.61031436920166 -11.558441162109375 0.12124858051538467
15.680203437805176 -11.558412551879883 0.12161511927843094
15.745776176452637 -11.55639362335205 0.12156833708286285
15.799809455871582 -11.545677185058594 0.12178874760866165
15.859493255615234 -11.537402153015137 0.1220652312040329
15.930938720703125 -11.538896560668945 0.1224295124411583
15.989012718200684 -11.530449867248535 0.12269388139247894
16.115779876708984 -11.519012451171875 0.123291015625
16.19942855834961 -11.527059555053711 0.12374155223369598
16.332717895507812 -11.519631385803223 0.1231783926486969
16.3813419342041 -11.502065658569336 0.12251461297273636
16.51970100402832 -11.496678352355957 0.1231878250837326
16.70924949645996 -11.472315788269043 0.12406803667545319
18.484268188476562 -11.312906265258789 0.12867896258831024
18.71065902709961 -11.29039478302002 0.12975925207138062
18.94477081298828 -11.26980972290039 0.130889892578125
19.106691360473633 -11.257462501525879 0.13033001124858856
19.198820114135742 -11.258138656616211 0.13079768419265747
19.345947265625 -11.235191345214844 0.13148099184036255
19.418664932250977 -11.223599433898926 0.1318163424730301
19.57680320739746 -11.205276489257812 0.13255755603313446
19.672332763671875 -11.205821990966797 0.13305041193962097
19.82583236694336 -11.18293571472168 0.13332955539226532
19.90293312072754 -11.17204475402832 0.13273395597934723
20.08758544921875 -11.164705276489258 0.133660227060318
20.16991424560547 -11.155738830566406 0.13404186069965363
20.337799072265625 -11.137001037597656 0.13484108448028564
20.420656204223633 -11.127352714538574 0.1352503001689911
20.58731460571289 -11.105978012084961 0.13560453057289124
20.664281845092773 -11.09219741821289 0.1359589844942093
22.42784881591797 -9.881537437438965 0.13780899345874786
22.458003997802734 -9.78209114074707 0.1377403736114502
22.481613159179688 -9.736918449401855 0.1377534568309784
22.500972747802734 -9.632970809936523 0.13762342929840088
22.524555206298828 -9.587806701660156 0.13764211535453796
22.55698585510254 -9.489601135253906 0.13759459555149078
22.582763671875 -9.445337295532227 0.13763727247714996
22.60768699645996 -9.34408950805664 0.13753990828990936
22.655345916748047 -9.197463035583496 0.13599622249603271
22.693315505981445 -9.047120094299316 0.13586203753948212
22.71812629699707 -8.891902923583984 0.13566219806671143
19.386749267578125 -5.900152683258057 0.11090009659528732
19.357952117919922 -5.758674621582031 0.11054979264736176
19.36538314819336 -5.628614902496338 0.11001426726579666
19.468647003173828 -5.526127815246582 0.10940731316804886
19.378198623657227 -5.281285762786865 0.10834483802318573
22.224811553955078 -4.190523147583008 0.12098860740661621
22.200218200683594 -4.04152774810791 0.12069876492023468
22.352397918701172 -3.9242236614227295 0.120510533452034
23.081342697143555 -3.6540069580078125 0.12300128489732742
23.10811424255371 -3.5094785690307617 0.12429959326982498
5.672401428222656 5.836371421813965 -0.012348605319857597
5.574723720550537 5.857670307159424 -0.012262081727385521
4.798882961273193 5.922937870025635 -0.01015908271074295
4.7372941970825195 5.922659873962402 -0.009322196245193481
4.698536396026611 5.924676895141602 -0.009303756058216095
4.678729057312012 5.925426483154297 -0.009289132431149483
4.639193058013916 5.925990104675293 -0.009110032580792904
4.631110668182373 5.941540718078613 -0.00911836139857769
4.601739406585693 5.9294257164001465 -0.009091462939977646
4.589791297912598 5.939952850341797 -0.00909226294606924
4.561554908752441 5.928799152374268 -0.009055745787918568
4.549822807312012 5.939244747161865 -0.009058183059096336
4.529437065124512 5.93863582611084 -0.009051243774592876
4.510168552398682 5.9388909339904785 -0.009035099297761917
4.499847412109375 5.951135635375977 -0.00903044268488884
4.477100849151611 5.947185039520264 -0.009012272581458092
4.459291458129883 5.949415683746338 -0.009006323292851448
4.437544345855713 5.946073532104492 -0.008978649973869324
4.418255805969238 5.9464545249938965 -0.008960561826825142
4.40120267868042 5.949487209320068 -0.008959643542766571
4.381455898284912 5.948572635650635 -0.008943627588450909
4.370791435241699 5.960482597351074 -0.008942963555455208
4.3402605056762695 5.944913387298584 -0.008910112082958221
4.32655143737793 5.952033042907715 -0.008906741626560688
4.305926322937012 5.950345516204834 -0.008129201829433441
4.2927045822143555 5.958066940307617 -0.008136747404932976
4.2709245681762695 5.9538493156433105 -0.008116946555674076
4.229328155517578 5.9485979080200195 -0.008082687854766846
4.179670810699463 5.957709789276123 -0.007923961617052555
4.126584529876709 5.961404800415039 -0.007891732268035412
4.077943801879883 5.971001625061035 -0.007869756780564785
4.032878875732422 5.985712051391602 -0.007851449772715569
3.9710264205932617 5.974621772766113 -0.0078103202395141125
3.9185500144958496 5.9773850440979 -0.007779082283377647
3.879976272583008 5.972707748413086 -0.007322685327380896
3.8671391010284424 5.980627059936523 -0.007313902955502272
3.838352918624878 5.990740776062012 -0.0073140766471624374
3.8168373107910156 5.985018253326416 -0.007290378212928772
3.804692029953003 5.993623733520508 -0.007162720896303654
3.787320137023926 5.993710994720459 -0.007154752966016531
3.7633817195892334 5.983844757080078 -0.007131827995181084
3.745938777923584 5.983879089355469 -0.007116927765309811
3.7307045459747314 5.987693786621094 -0.0071196299977600574
3.7152814865112305 5.990603446960449 -0.007112562656402588
3.704582452774048 6.0013747215271 -0.0071147168055176735
3.6827621459960938 5.994383811950684 -0.007092793472111225
3.6656575202941895 5.994653701782227 -0.007087088190019131
3.6491940021514893 5.995649337768555 -0.007080228999257088
3.634639263153076 6.000304698944092 -0.007073466666042805
3.605342388153076 5.980164051055908 -0.007043852470815182
3.602910041809082 6.004273414611816 -0.007059888448566198
3.5875625610351562 6.007490158081055 -0.006921123713254929
3.5627522468566895 5.994426727294922 -0.0069003039970994
3.55594539642334 6.0113420486450195 -0.006907250732183456
3.5343754291534424 6.00385046005249 -0.006894858554005623
3.517568349838257 6.004025459289551 -0.0068863206543028355
3.4997873306274414 6.002197742462158 -0.006877467967569828
3.4861555099487305 6.008279323577881 -0.006582307629287243
3.466034412384033 6.002260684967041 -0.006563576869666576
5.734011650085449 6.152364730834961 0.055320896208286285
5.667366027832031 6.158024311065674 0.055915553122758865
5.49467658996582 6.175253868103027 0.05523090437054634
4.715513229370117 6.208743095397949 0.05352337285876274
4.655977725982666 6.211038112640381 0.0540911965072155
4.6363444328308105 6.2122087478637695 0.054010458290576935
4.604697227478027 6.22377347946167 0.05394910275936127
4.570817947387695 6.205415725708008 0.053694482892751694
4.557506561279297 6.214558124542236 0.05369587987661362
4.540172576904297 6.218487739562988 0.05379309877753258
4.5157084465026855 6.212007522583008 0.05365855619311333
4.498604774475098 6.215806007385254 0.05360310524702072
4.481463432312012 6.21980619430542 0.05356337130069733
4.463934421539307 6.222663879394531 0.05350581184029579
4.4415283203125 6.218885898590088 0.05339733883738518
4.428318977355957 6.2282304763793945 0.053394198417663574
4.398553371429443 6.213879108428955 0.05318854749202728
4.389113426208496 6.227910041809082 0.053235605359077454
4.373906135559082 6.234323024749756 0.053213149309158325
4.357151508331299 6.238185882568359 0.0531628355383873
4.328807830810547 6.2250847816467285 0.0529763326048851
4.316342353820801 6.23553466796875 0.05298687890172005
4.293432712554932 6.230025291442871 0.05286660045385361
4.279865264892578 6.238003730773926 0.05286325514316559
4.252973556518555 6.227282524108887 0.052685730159282684
4.23641300201416 6.2307586669921875 0.05342353135347366
4.207448959350586 6.244558334350586 0.05339367315173149
4.179821014404297 6.231419086456299 0.053194865584373474
4.128829479217529 6.239840030670166 0.053054530173540115
4.068551063537598 6.23354434967041 0.052917953580617905
4.028264999389648 6.257416725158691 0.05290753394365311
3.885477066040039 6.26444149017334 0.052407123148441315
3.832639217376709 6.2668681144714355 0.05236595869064331
3.809624671936035 6.258971214294434 0.05253567174077034
3.7734835147857666 6.258194923400879 0.05239329859614372
3.7501463890075684 6.249374866485596 0.052254222333431244
3.733112096786499 6.250619888305664 0.05234387889504433
3.7220451831817627 6.261570453643799 0.052367836236953735
3.7100718021392822 6.2716217041015625 0.05238332971930504
3.681588649749756 6.253320217132568 0.05217128247022629
3.6727092266082764 6.268556594848633 0.05222674831748009
3.6508705615997314 6.261035919189453 0.05210551992058754
3.6324234008789062 6.259487152099609 0.052030760794878006
3.6157660484313965 6.261282444000244 0.05197759345173836
3.602328300476074 6.268012523651123 0.05196956917643547
3.5814430713653564 6.261989593505859 0.05185651034116745
3.572258234024048 6.276731491088867 0.05192305147647858
3.546956777572632 6.2627458572387695 0.051746856421232224
3.538623809814453 6.278380870819092 0.05181709676980972
3.519686698913574 6.275809288024902 0.051729798316955566
3.5097908973693848 6.288998126983643 0.05192092806100845
3.481924057006836 6.269603729248047 0.05169017240405083
3.469736337661743 6.279223918914795 0.0517173632979393
3.454118251800537 6.281718730926514 0.05167154222726822
3.4331579208374023 6.274404525756836 0.051556676626205444
3.415651559829712 6.274201393127441 0.051493801176548004
3.397721767425537 6.272226810455322 0.05171838775277138
3.379903554916382 6.270368576049805 0.05164008215069771
23.972671508789062 0.011268587782979012 0.17927442491054535
23.951881408691406 0.060963474214076996 0.17911496758460999
23.981067657470703 0.11183048039674759 0.17933635413646698
23.94951820373535 0.16182173788547516 0.1786693036556244
23.941944122314453 0.21145761013031006 0.17861241102218628
23.950565338134766 0.26226606965065 0.17868047952651978
23.94195556640625 0.3122999370098114 0.17862440645694733
23.929706573486328 0.3618086576461792 0.17735916376113892
23.93582534790039 0.41261062026023865 0.1774100959300995
23.986154556274414 0.4637085199356079 0.1777946650981903
23.670686721801758 1.8017406463623047 0.17242692410945892
23.61349868774414 1.946770429611206 0.17108309268951416
23.597028732299805 2.0455002784729004 0.17102406919002533
23.581317901611328 2.0934505462646484 0.17093749344348907
23.546491622924805 2.190343141555786 0.17032235860824585
23.54109001159668 2.2391254901885986 0.17031656205654144
23.512001037597656 2.3363137245178223 0.17017388343811035
23.504745483398438 2.384861469268799 0.17015433311462402
23.493968963623047 2.434049367904663 0.16910557448863983
23.487878799438477 2.4831292629241943 0.16909849643707275
23.46826934814453 2.5313262939453125 0.16899313032627106
23.44756317138672 2.578763008117676 0.16888007521629333
23.434741973876953 2.626584529876709 0.1683972179889679
23.37670135498047 2.819208860397339 0.16900427639484406
23.367385864257812 2.867730140686035 0.168549582362175
23.345565795898438 2.914240837097168 0.16843253374099731
23.31157684326172 3.0589513778686523 0.16731663048267365
23.29487419128418 3.107393980026245 0.16724428534507751
23.257715225219727 3.151573657989502 0.16702300310134888
23.240501403808594 3.248971939086914 0.16700074076652527
23.228418350219727 3.2964425086975098 0.16652986407279968
23.199440002441406 3.3920605182647705 0.16642098128795624
23.1816463470459 3.4386086463928223 0.1663438081741333
23.15210723876953 3.5339388847351074 0.1652391403913498
23.130298614501953 3.5797433853149414 0.16513220965862274
23.08597183227539 3.672502040863037 0.16492390632629395
22.875526428222656 4.232758045196533 0.16369815170764923
22.807008743286133 4.3685431480407715 0.16241036355495453
22.762243270874023 4.5084967613220215 0.16229021549224854
22.740901947021484 4.65302848815918 0.16191135346889496
22.721881866455078 4.698283672332764 0.1608549952507019
22.72220802307129 4.748989105224609 0.16092941164970398
22.68499755859375 4.790365695953369 0.16073563694953918
22.65414810180664 4.832981109619141 0.16058823466300964
22.628143310546875 4.877994537353516 0.16047300398349762
22.583791732788086 4.917500019073486 0.1602361798286438
22.5853271484375 4.966948509216309 0.16074790060520172
22.552860260009766 5.010339736938477 0.16016227006912231
22.515785217285156 5.051156044006348 0.15997228026390076
22.475746154785156 5.092189311981201 0.15975400805473328
22.33015251159668 5.108377456665039 0.15877927839756012
22.223560333251953 5.1325459480285645 0.15808381140232086
22.044361114501953 5.140787124633789 0.15688374638557434
21.88766098022461 5.152159690856934 0.15584829449653625
21.73895263671875 5.164790153503418 0.1539168357849121
21.57338523864746 5.174166202545166 0.15240755677223206
21.422718048095703 5.1850666999816895 0.1514170616865158
21.270790100097656 5.196420669555664 0.15041974186897278
21.129989624023438 5.208512783050537 0.14950206875801086
21.001583099365234 5.223115921020508 0.14867085218429565
20.838455200195312 5.22983980178833 0.14759454131126404
20.6990966796875 5.240549087524414 0.14668364822864532
20.582304000854492 5.256453990936279 0.14463825523853302
20.433666229248047 5.265016555786133 0.1436704397201538
20.300220489501953 5.275580883026123 0.14280880987644196
20.18355369567871 5.289999008178711 0.14206279814243317
19.896793365478516 5.30449104309082 0.14019984006881714
19.505657196044922 5.331775188446045 0.13767465949058533
19.10849380493164 5.352539539337158 0.13426585495471954
18.728073120117188 5.373178958892822 0.13182207942008972
17.69081687927246 5.439883232116699 0.12374207377433777
17.480390548706055 5.455862045288086 0.12165987491607666
17.372934341430664 5.461913585662842 0.12099085003137589
17.148101806640625 5.47068977355957 0.11958266794681549
17.06375503540039 5.482821464538574 0.11907484382390976
16.848575592041016 5.492070198059082 0.11665104329586029
16.752674102783203 5.499294757843018 0.11639641225337982
16.552120208740234 5.510787010192871 0.11516331136226654
16.472393035888672 5.522241592407227 0.11436328291893005
16.359928131103516 5.523442268371582 0.113660529255867
16.276901245117188 5.533065319061279 0.11316286027431488
16.171005249023438 5.534529209136963 0.11178314685821533
16.09259796142578 5.546127796173096 0.11132408678531647
16.0034122467041 5.552572727203369 0.11078909039497375
15.90688419342041 5.55609130859375 0.11019967496395111
15.818424224853516 5.563135623931885 0.10935083031654358
15.72700309753418 5.567684173583984 0.10880003869533539
15.643965721130371 5.57484769821167 0.10760461539030075
15.566240310668945 5.584653854370117 0.10715284943580627
15.468659400939941 5.585904121398926 0.10655674338340759
15.40168571472168 5.598203182220459 0.10617908835411072
15.313783645629883 5.602991104125977 0.1056528240442276
15.228189468383789 5.607532978057861 0.10483679920434952
15.145609855651855 5.613894939422607 0.10434909909963608
15.056182861328125 5.616312026977539 0.10313523560762405
14.96963882446289 5.619765281677246 0.10262314230203629
14.898439407348633 5.629057884216309 0.1022164523601532
14.819385528564453 5.634359836578369 0.10175348818302155
14.6531982421875 5.64192008972168 0.10011214762926102
14.571664810180664 5.645276069641113 0.0996326208114624
14.420280456542969 5.656587600708008 0.09810685366392136
14.332544326782227 5.656518936157227 0.09758935868740082
14.186690330505371 5.668124198913574 0.09647206962108612
14.11672592163086 5.674478530883789 0.09607574343681335
13.978182792663574 5.686977863311768 0.09529399126768112
13.340075492858887 5.723202705383301 0.08989055454730988
13.159482955932617 5.7439470291137695 0.08891721814870834
13.030138969421387 5.7529401779174805 0.08640091121196747
12.955174446105957 5.752652168273926 0.08598446100950241
12.842215538024902 5.766711711883545 0.08539438992738724
12.76713752746582 5.7655134201049805 0.0849754586815834
12.644462585449219 5.773703098297119 0.08346976339817047
12.58359146118164 5.778139114379883 0.08314771205186844
12.52236270904541 5.781519889831543 0.08282293379306793
12.462491989135742 5.78620719909668 0.08250829577445984
12.411235809326172 5.793747901916504 0.0822484940290451
12.346811294555664 5.794909477233887 0.08132551610469818
12.28963851928711 5.800145149230957 0.08103055506944656
12.227846145629883 5.802038669586182 0.08044736832380295
12.1813383102417 5.811253070831299 0.08022096008062363
12.116689682006836 5.811938762664795 0.07987618446350098
12.065496444702148 5.818212509155273 0.07961760461330414
11.9978609085083 5.816595077514648 0.07868930697441101
11.940793991088867 5.820186614990234 0.07814428955316544
11.898959159851074 5.830386161804199 0.07795082032680511
11.829216957092285 5.827583312988281 0.07757443189620972
11.774771690368652 5.831155776977539 0.07729633152484894
11.73011302947998 5.839660167694092 0.07708387076854706
11.662444114685059 5.836817741394043 0.07616983354091644
11.618942260742188 5.845229625701904 0.0740736722946167
11.559839248657227 5.845861434936523 0.07401943951845169
11.505293846130371 5.84890079498291 0.07374978065490723
11.446283340454102 5.848825931549072 0.07344871014356613
11.392145156860352 5.851279258728027 0.07293829321861267
11.335714340209961 5.852661609649658 0.07265624403953552
11.293525695800781 5.860865592956543 0.07192734628915787
11.236454963684082 5.861480236053467 0.07164328545331955
11.186566352844238 5.865019798278809 0.07140293717384338
11.124408721923828 5.862162113189697 0.07084689289331436
11.027298927307129 5.8701910972595215 0.07038432359695435
10.971749305725098 5.870139122009277 0.06958399713039398
10.881674766540527 5.880760669708252 0.06916829198598862
10.722293853759766 5.882282733917236 0.06815880537033081
10.595739364624023 5.899814605712891 0.06707754731178284
10.449579238891602 5.904794216156006 0.06565329432487488
10.227753639221191 5.9219536781311035 0.06265362352132797
10.164986610412598 5.914383888244629 0.06234762817621231
10.086624145507812 5.925217628479004 0.06179603189229965
10.056389808654785 5.936132907867432 0.06168815866112709
9.988935470581055 5.924557209014893 0.06135124713182449
9.958894729614258 5.934710502624512 0.060753270983695984
9.898320198059082 5.927049160003662 0.060461971908807755
9.86695671081543 5.936376094818115 0.06012703478336334
9.829360961914062 5.941572189331055 0.05997307598590851
9.772579193115234 5.935537815093994 0.059703681617975235
9.736608505249023 5.941636562347412 0.059077031910419464
9.693623542785645 5.943609714508057 0.05889444798231125
9.65636920928955 5.948375701904297 0.05852894484996796
9.615911483764648 5.951266288757324 0.05835871770977974
9.562575340270996 5.946295738220215 0.05811229348182678
9.530538558959961 5.953835487365723 0.05799306184053421
9.481752395629883 5.951556205749512 0.0573025606572628
9.45043659210205 5.959273815155029 0.057186514139175415
9.40456771850586 5.957911491394043 0.05677434802055359
9.364677429199219 5.960463047027588 0.05520915985107422
9.31695556640625 5.957292556762695 0.05520908534526825
9.286428451538086 5.965207099914551 0.0551031157374382
9.22901725769043 5.955969333648682 0.054373808205127716
9.190194129943848 5.957965850830078 0.05421839654445648
9.158857345581055 5.964927673339844 0.05389915779232979
9.122150421142578 5.96856689453125 0.053759243339300156
9.087448120117188 5.973075866699219 0.053624458611011505
9.035577774047852 5.965870380401611 0.053393907845020294
9.00748062133789 5.9747419357299805 0.05284946411848068
8.960826873779297 5.970856189727783 0.05244332179427147
8.920308113098145 5.97116756439209 0.05228352174162865
8.886966705322266 5.975592136383057 0.05215888470411301
8.843363761901855 5.973203659057617 0.05197657644748688
8.808048248291016 5.976546764373779 0.0513952374458313
8.7793550491333 5.9839653968811035 0.05130193009972572
8.747989654541016 5.989212512969971 0.05098897963762283
8.704334259033203 5.986431121826172 0.05080680549144745
8.666956901550293 5.9874982833862305 0.0506637766957283
8.615565299987793 5.978445053100586 0.050437312573194504
8.593722343444824 5.990283966064453 0.049943819642066956
8.552766799926758 5.988388538360596 0.04957574978470802
8.476030349731445 5.987771511077881 0.0492793545126915
8.453230857849121 5.998242378234863 0.047913096845149994
8.382855415344238 6.0015435218811035 0.047850772738456726
8.345146179199219 6.000779628753662 0.047274887561798096
8.268377304077148 5.998564720153809 0.04679042845964432
8.169525146484375 6.005599021911621 0.04644374921917915
8.06771469116211 6.009247779846191 0.045463547110557556
8.006288528442383 6.01608419418335 0.04526233300566673
7.976679801940918 6.019775390625 0.045164428651332855
7.893315315246582 6.009203910827637 0.04423415660858154
7.867196083068848 6.015672206878662 0.044153328984975815
7.801987648010254 6.017525672912598 0.04392881318926811
7.767934799194336 6.017532825469971 0.04362556338310242
7.741853713989258 6.023314476013184 0.04313499107956886
7.704202651977539 6.01972770690918 0.042995963245630264
7.676204204559326 6.024068832397461 0.04291142150759697
7.64188814163208 6.023041248321533 0.041971124708652496
7.611086368560791 6.024412631988525 0.04205317795276642
7.583353042602539 6.028619289398193 0.04178548976778984
7.544729232788086 6.02374267578125 0.04164466634392738
7.517765522003174 6.02780294418335 0.04115872457623482
7.490872859954834 6.032575607299805 0.04108184576034546
7.45689058303833 6.030762195587158 0.040966324508190155
7.423528671264648 6.029821395874023 0.04067248851060867
7.396422386169434 6.033557891845703 0.04058751463890076
7.371919631958008 6.039092063903809 0.04052106291055679
7.3298869132995605 6.030636787414551 0.039966512471437454
7.30535364151001 6.036151885986328 0.03989729285240173
7.274253845214844 6.036416530609131 0.03961709141731262
7.241213798522949 6.034417152404785 0.03951028734445572
7.204648017883301 6.0295562744140625 0.03938116878271103
7.177711009979248 6.032899379730225 0.039303094148635864
7.138317108154297 6.02534294128418 0.03876330330967903
7.120937347412109 6.03602409362793 0.038560934364795685
7.087364196777344 6.033398628234863 0.03844625875353813
7.067975044250488 6.04246711730957 0.03840959444642067
7.035013675689697 6.039602279663086 0.0382944792509079
7.005697250366211 6.040245056152344 0.038210220634937286
6.972292900085449 6.036946773529053 0.03753701597452164
6.955244064331055 6.047483921051025 0.03750494867563248
6.927809715270996 6.0496673583984375 0.037045128643512726
6.894037246704102 6.045437812805176 0.03710654750466347
6.836387634277344 6.0460028648376465 0.03654276952147484
6.814995765686035 6.052334785461426 0.03632242605090141
6.753104209899902 6.048432350158691 0.036132555454969406
6.718366622924805 6.042491436004639 0.03601159155368805
6.669539451599121 6.049579620361328 0.03533809632062912
6.649343013763428 6.056459426879883 0.03529825806617737
6.613739490509033 6.049929618835449 0.035177141427993774
6.588826656341553 6.052303314208984 0.03511962294578552
6.537302017211914 6.055933952331543 0.03442610427737236
6.504293441772461 6.0504841804504395 0.034323155879974365
6.455554962158203 6.056058883666992 0.034196026623249054
6.443480014801025 6.069920063018799 0.03419991210103035
6.382122039794922 6.063050746917725 0.03347115218639374
6.349669456481934 6.057848930358887 0.03336971625685692
6.324767112731934 6.05944299697876 0.03330351412296295
6.296644687652588 6.057610034942627 0.033227257430553436
6.2755231857299805 6.062926292419434 0.03264717757701874
6.2431230545043945 6.0569539070129395 0.03271274268627167
6.215217590332031 6.054968357086182 0.03263569995760918
6.1951775550842285 6.061063766479492 0.03258979320526123
6.180666923522949 6.07225227355957 0.03241478651762009
6.1496453285217285 6.066905498504639 0.03196091204881668
6.1200642585754395 6.06357479095459 0.03187466412782669
6.098473072052002 6.067313194274902 0.031822383403778076
6.074190139770508 6.068797588348389 0.03176391124725342
6.047731399536133 6.067723274230957 0.031529899686574936
6.02503776550293 6.070096969604492 0.03147882968187332
5.996368408203125 6.066849231719971 0.03103635087609291
5.973702430725098 6.069287300109863 0.03098234534263611
5.941811561584473 6.061997413635254 0.030886955559253693
5.924002170562744 6.069480895996094 0.030694857239723206
5.897456169128418 6.067652702331543 0.03062531352043152
5.871493816375732 6.066076755523682 0.030558301135897636
5.847562789916992 6.067235946655273 0.030143866315484047
5.8267598152160645 6.0708136558532715 0.029941871762275696
5.801400184631348 6.069554805755615 0.029880136251449585
5.778049468994141 6.071035861968994 0.02982318215072155
5.757544994354248 6.074685573577881 0.029782356694340706
5.731754302978516 6.073175430297852 0.029713114723563194
5.705210208892822 6.070467948913574 0.029132768511772156
5.697329521179199 6.087347030639648 0.029161913320422173
5.660887718200684 6.074136734008789 0.029040571302175522
5.648976802825928 6.086864471435547 0.029037464410066605
5.628040313720703 6.090114593505859 0.028647860512137413
5.597787857055664 6.082886219024658 0.028563302010297775
5.571710586547852 6.079821586608887 0.028497613966464996
5.545429229736328 6.076923370361328 0.028267472982406616
5.52065372467041 6.075277328491211 0.028209233656525612
5.495407581329346 6.07276725769043 0.0281422920525074
5.476043701171875 6.077414035797119 0.02776065468788147
5.446990489959717 6.0704545974731445 0.027533356100320816
5.425180435180664 6.07144832611084 0.027483170852065086
5.414957046508789 6.086124897003174 0.02749386429786682
5.381804466247559 6.0741987228393555 0.02739284560084343
5.3682661056518555 6.0843095779418945 0.02738906815648079
5.345864295959473 6.0850725173950195 0.026842424646019936
5.325744152069092 6.087601661682129 0.026813574135303497
5.274460315704346 6.080465316772461 0.02667834982275963
5.2591094970703125 6.088248252868652 0.026663850992918015
5.242247581481934 6.094999313354492 0.026495562866330147
5.212924003601074 6.086409091949463 0.02606470137834549
5.200082302093506 6.096979141235352 0.026070980355143547
5.164916515350342 6.082015037536621 0.025958195328712463
5.145448207855225 6.084636688232422 0.025926316156983376
5.125115394592285 6.086163520812988 0.025553226470947266
5.1026201248168945 6.085788249969482 0.02535899728536606
5.0845746994018555 6.089890956878662 0.02532762475311756
5.043771743774414 6.0929951667785645 0.025252148509025574
5.025472640991211 6.096602439880371 0.02522551268339157
4.990431785583496 6.080512046813965 0.024632396176457405
4.981538772583008 6.095425605773926 0.024651259183883667
4.958662986755371 6.093196868896484 0.02460297755897045
4.936831474304199 6.0929107666015625 0.02455740235745907
4.915210247039795 6.092029094696045 0.024360014125704765
4.8921098709106445 6.08973503112793 0.024314027279615402
4.871315956115723 6.089929580688477 0.023948337882757187
4.8550920486450195 6.095535755157471 0.02392784133553505
4.832433223724365 6.093753814697266 0.023878108710050583
4.8228559494018555 6.107667922973633 0.023746732622385025
4.789967060089111 6.091967582702637 0.023647524416446686
4.7730865478515625 6.097259998321533 0.023625217378139496
4.752359867095947 6.096808910369873 0.023258963599801064
4.732257843017578 6.097071647644043 0.02323000505566597
4.711442947387695 6.097099304199219 0.02304423786699772
4.690974712371826 6.096719264984131 0.0230054073035717
4.669369697570801 6.095297813415527 0.022959992289543152
4.647091865539551 6.092605113983154 0.022919025272130966
4.630880355834961 6.097550392150879 0.022575564682483673
4.614902019500732 6.1035380363464355 0.02241143397986889
4.5928215980529785 6.10060977935791 0.022371210157871246
4.57425594329834 6.102262496948242 0.022343037649989128
4.558032989501953 6.107763290405273 0.022324567660689354
4.532802104949951 6.100324630737305 0.02226490154862404
4.519507884979248 6.108872413635254 0.021794844418764114
4.494838714599609 6.102751731872559 0.02174147218465805
4.4764509201049805 6.104274749755859 0.021711209788918495
4.4554972648620605 6.102215766906738 0.021673668175935745
4.439206123352051 6.107254981994629 0.021653801202774048
4.422414779663086 6.110777378082275 0.021493887528777122
4.394611835479736 6.099753379821777 0.021107960492372513
4.380380630493164 6.106680870056152 0.021096497774124146
4.363986492156982 6.110559463500977 0.02107427269220352
4.34378719329834 6.1098313331604 0.0210430845618248
4.323010444641113 6.107405662536621 0.02086283639073372
4.310029983520508 6.116734504699707 0.02086421102285385
4.2849555015563965 6.108028411865234 0.02049075812101364
4.269316673278809 6.1126790046691895 0.020473778247833252
4.242703437805176 6.102302551269531 0.020273447036743164
4.234050750732422 6.116901397705078 0.02028992772102356
4.210545063018799 6.1099982261657715 0.020240172743797302
4.187109470367432 6.103857040405273 0.01987602189183235
4.167522430419922 6.102413177490234 0.01984982192516327
4.1587066650390625 6.116720676422119 0.019866447895765305
4.143557548522949 6.122528076171875 0.019851407036185265
4.123542785644531 6.1202778816223145 0.019367126747965813
4.083610534667969 6.116439342498779 0.019299233332276344
4.062164783477783 6.1117448806762695 0.01926177740097046
4.046756267547607 6.1168670654296875 0.019248437136411667
4.03190803527832 6.121992111206055 0.01909473165869713
4.010921955108643 6.1177287101745605 0.01875084452331066
3.989591598510742 6.113636016845703 0.018714144825935364
3.9753499031066895 6.119523048400879 0.018703650683164597
3.9579176902770996 6.120453834533691 0.018543198704719543
3.931828498840332 6.1086883544921875 0.018481552600860596
3.9107961654663086 6.103806495666504 0.01844814047217369
3.898183584213257 6.112264633178711 0.018145713955163956
3.881540536880493 6.11468505859375 0.018124332651495934
3.86741304397583 6.120463848114014 0.017978006973862648
3.8449950218200684 6.113868713378906 0.017937740311026573
3.8253421783447266 6.110720634460449 0.017903082072734833
3.811321496963501 6.116509437561035 0.017896784469485283
3.7974729537963867 6.123390197753906 0.01758846454322338
3.7696402072906494 6.106767654418945 0.017390767112374306
3.7618188858032227 6.122747898101807 0.017106609418988228
3.7371842861175537 6.1116251945495605 0.01705397665500641
3.723465919494629 6.117678642272949 0.0170479416847229
3.702749729156494 6.113006591796875 0.017010660842061043
3.6880130767822266 6.117289066314697 0.01656966470181942
3.678271532058716 6.129863739013672 0.01657932624220848
3.658176898956299 6.12600040435791 0.016546588391065598
3.634881019592285 6.115784645080566 0.01650043949484825
3.619284152984619 6.118415832519531 0.016490312293171883
3.599608898162842 6.114927768707275 0.016322307288646698
3.587953567504883 6.1241631507873535 0.016329729929566383
3.570354461669922 6.123490810394287 0.016010934486985207
3.5410842895507812 6.102947235107422 0.015935327857732773
3.5339436531066895 6.119861602783203 0.01595723070204258
19.246179580688477 -5.15485954284668 0.15898562967777252
19.260047912597656 -5.02902889251709 0.15874478220939636
19.27549934387207 -4.90383768081665 0.15856802463531494
19.19676971435547 -4.797815799713135 0.15784922242164612
24.25687026977539 -3.887451648712158 0.1949547827243805
24.27434539794922 -3.7338852882385254 0.19445335865020752
24.303115844726562 -3.5820600986480713 0.19450320303440094
24.293060302734375 -3.4246835708618164 0.1942128986120224
24.29656219482422 -3.3208816051483154 0.1929151862859726
24.2701358795166 -3.265977621078491 0.19265247881412506
24.272705078125 -3.162307024002075 0.1925751268863678
24.28406524658203 -3.11255145072937 0.1926100105047226
24.27027130126953 -3.006946325302124 0.19136348366737366
24.272899627685547 -2.95613956451416 0.19090694189071655
24.2519588470459 -2.8499929904937744 0.1906323879957199
24.255882263183594 -2.7994351387023926 0.19062186777591705
24.229646682739258 -2.6930556297302246 0.19032864272594452
