VERSION .7
FIELDS x y z
SIZE 4 4 4
TYPE F F F
COUNT 1 1 1
WIDTH 827
HEIGHT 1
VIEWPOINT 0 0 0 1 0 0 0
POINTS 827
DATA ascii
14.05594253540039 5.411866188049316 -0.14464986324310303
14.031763076782227 5.436413764953613 -0.14412541687488556
13.99669361114502 5.490732669830322 -0.14407701790332794
13.987215042114258 5.520534992218018 -0.1441340297460556
13.960103988647461 5.577898025512695 -0.14350321888923645
13.954426765441895 5.609239101409912 -0.1434716284275055
13.928840637207031 5.667208671569824 -0.14348986744880676
13.860076904296875 5.741050720214844 -0.14314748346805573
13.73760986328125 5.7917680740356445 -0.14223313331604004
13.673942565917969 5.8328704833984375 -0.14221467077732086
13.63338851928711 5.84904146194458 -0.1419541984796524
13.572504043579102 5.89072322845459 -0.14147566258907318
13.529850006103516 5.906206130981445 -0.14135099947452545
13.45901107788086 5.942291736602783 -0.14026819169521332
13.432531356811523 5.964540481567383 -0.14024747908115387
13.366999626159668 6.0023627281188965 -0.13965900242328644
13.338963508605957 6.0236687660217285 -0.1396712064743042
13.304405212402344 6.04171085357666 -0.13960371911525726
13.266854286193848 6.058502197265625 -0.139136403799057
13.239797592163086 6.079383850097656 -0.1391816884279251
13.19633674621582 6.092992782592773 -0.13841094076633453
13.171531677246094 6.1153364181518555 -0.13845095038414001
13.138818740844727 6.133695125579834 -0.13834679126739502
13.109891891479492 6.153358459472656 -0.138400137424469
13.079305648803711 6.172763347625732 -0.1384386569261551
13.055753707885742 6.1951775550842285 -0.13834317028522491
13.013568878173828 6.20888614654541 -0.13771387934684753
13.000078201293945 6.235603332519531 -0.137893944978714
12.953073501586914 6.246520042419434 -0.13733640313148499
12.926162719726562 6.267247200012207 -0.13731749355793
12.878726959228516 6.277291297912598 -0.13705362379550934
12.839134216308594 6.291363716125488 -0.13687554001808167
12.805007934570312 6.308237075805664 -0.1361820548772812
12.78747844696045 6.332612991333008 -0.13633665442466736
12.749563217163086 6.347177982330322 -0.1361924260854721
12.710792541503906 6.361435890197754 -0.13604868948459625
12.689388275146484 6.3840460777282715 -0.1355915665626526
12.649744033813477 6.397643089294434 -0.13548427820205688
12.629194259643555 6.420196533203125 -0.13519145548343658
12.61324691772461 6.44542121887207 -0.13477881252765656
12.578361511230469 6.46116304397583 -0.13468846678733826
12.526686668395996 6.4675092697143555 -0.13439694046974182
12.493000030517578 6.483342170715332 -0.13426116108894348
12.446805000305176 6.492803573608398 -0.13389934599399567
12.374666213989258 6.487875938415527 -0.1326998770236969
12.225969314575195 6.508578300476074 -0.13127616047859192
12.075057983398438 6.525993347167969 -0.12958525121212006
11.979070663452148 6.539450168609619 -0.1289244443178177
11.826774597167969 6.553151607513428 -0.12696929275989532
11.68055534362793 6.568446159362793 -0.12584388256072998
11.545955657958984 6.5886335372924805 -0.12388559430837631
11.445318222045898 6.595256805419922 -0.12306314706802368
11.405172348022461 6.604279518127441 -0.12258055061101913
11.348337173461914 6.6028547286987305 -0.12215324491262436
11.293554306030273 6.602723121643066 -0.12109598517417908
11.25733470916748 6.613520622253418 -0.12095511704683304
11.205216407775879 6.614218711853027 -0.12051816284656525
11.166135787963867 6.622768402099609 -0.12028802186250687
11.119379043579102 6.6268534660339355 -0.11993119865655899
11.080162048339844 6.634679794311523 -0.11882047355175018
11.029423713684082 6.636348724365234 -0.11841831356287003
10.995277404785156 6.646920204162598 -0.11825267970561981
10.9417085647583 6.6455793380737305 -0.1179073378443718
10.89584732055664 6.649628639221191 -0.11699546128511429
10.847415924072266 6.651005744934082 -0.11660967767238617
10.812084197998047 6.660584926605225 -0.11646026372909546
10.765155792236328 6.663111209869385 -0.11582650244235992
10.720577239990234 6.666328430175781 -0.11493530869483948
10.685380935668945 6.675559997558594 -0.11480893194675446
10.644298553466797 6.681222915649414 -0.11450982093811035
10.594647407531738 6.681073188781738 -0.11415352672338486
10.563338279724121 6.6925835609436035 -0.1139540821313858
10.51192855834961 6.690622806549072 -0.1128125786781311
10.467753410339355 6.693395614624023 -0.1124887615442276
10.421586036682129 6.694957733154297 -0.11244319379329681
10.387223243713379 6.703374862670898 -0.11194467544555664
10.338809967041016 6.702886581420898 -0.11113378405570984
10.296144485473633 6.7061848640441895 -0.11078087985515594
10.256524085998535 6.710733890533447 -0.11052708327770233
10.218160629272461 6.716279983520508 -0.11025425046682358
10.185068130493164 6.72540807723999 -0.10969951748847961
10.148870468139648 6.732112884521484 -0.10938899219036102
10.057303428649902 6.7322163581848145 -0.108412005007267
10.007362365722656 6.729221343994141 -0.10755059868097305
9.940370559692383 6.744818687438965 -0.10714645683765411
9.82433795928955 6.756671905517578 -0.10563725978136063
9.711265563964844 6.769227504730225 -0.1045168861746788
9.588419914245605 6.773876190185547 -0.10334282368421555
9.480496406555176 6.787938117980957 -0.1022377461194992
9.410287857055664 6.797239303588867 -0.10151094198226929
9.381524085998535 6.806692123413086 -0.1009066253900528
9.307191848754883 6.812217712402344 -0.10043099522590637
9.262724876403809 6.809791088104248 -0.0998249351978302
9.188819885253906 6.814701557159424 -0.09897541254758835
9.16357707977295 6.8260579109191895 -0.09882178902626038
9.088786125183105 6.830048561096191 -0.09793553501367569
9.060972213745117 6.838615417480469 -0.0975273996591568
8.989917755126953 6.8446044921875 -0.09663078933954239
8.954113006591797 6.846743583679199 -0.09636256098747253
8.923389434814453 6.852954864501953 -0.09626630693674088
8.890042304992676 6.857274532318115 -0.09579458832740784
8.842768669128418 6.850126266479492 -0.09505518525838852
8.809698104858398 6.854671478271484 -0.09484540671110153
8.777261734008789 6.8587212562561035 -0.09461112320423126
8.72875690460205 6.850040435791016 -0.09374991059303284
8.709013938903809 6.864660739898682 -0.09400220215320587
8.671968460083008 6.864684581756592 -0.09329461306333542
8.646977424621582 6.874138832092285 -0.09321247786283493
7.6172566413879395 6.968446254730225 -0.08153177052736282
7.532062530517578 6.977993011474609 -0.08047071844339371
7.46129846572876 7.000112533569336 -0.07964733988046646
7.4194746017456055 6.989879131317139 -0.07933798432350159
7.385825157165527 6.987471580505371 -0.07910328358411789
7.361533164978027 6.994045257568359 -0.07868088781833649
7.342658042907715 7.005161285400391 -0.07838062196969986
7.306493759155273 7.000535011291504 -0.07813549041748047
7.290005683898926 7.013811111450195 -0.0778002142906189
7.2483415603637695 7.002748489379883 -0.07742568105459213
7.2287726402282715 7.013761520385742 -0.07741666585206985
7.19350528717041 7.008581161499023 -0.07697188854217529
7.164856910705566 7.010260581970215 -0.0764668881893158
7.142359256744385 7.017624855041504 -0.07638287544250488
7.1163482666015625 7.021151542663574 -0.07618981599807739
7.081704139709473 7.016888618469238 -0.07540667057037354
7.067051887512207 7.031494140625 -0.07549052685499191
7.032408237457275 7.026125907897949 -0.07524662464857101
7.009221076965332 7.032943248748779 -0.07472023367881775
6.98195743560791 7.034724235534668 -0.07443490624427795
6.944060325622559 7.025640487670898 -0.07415516674518585
6.92576789855957 7.03713846206665 -0.07373996824026108
6.902386665344238 7.042555332183838 -0.0736909955739975
6.869311332702637 7.0379638671875 -0.07321114838123322
6.851356506347656 7.04963493347168 -0.0728258416056633
6.817683219909668 7.04417610168457 -0.07264970242977142
6.788597106933594 7.044173240661621 -0.07207167893648148
6.767478942871094 7.051487922668457 -0.07178989052772522
6.741458892822266 7.05361795425415 -0.0716722309589386
6.708314895629883 7.04902458190918 -0.07106832414865494
6.7001752853393555 7.069793701171875 -0.07123557478189468
6.667888641357422 7.065032005310059 -0.07080932706594467
6.614505290985107 7.067865371704102 -0.07017073780298233
6.598402976989746 7.080361366271973 -0.07022813707590103
6.542731285095215 7.079863548278809 -0.06927739828824997
6.465083122253418 7.084680557250977 -0.06835240125656128
6.2389750480651855 7.102241516113281 -0.06549834460020065
6.178004264831543 7.122647285461426 -0.06479324400424957
6.099815368652344 7.122474193572998 -0.06383402645587921
6.030167579650879 7.131409168243408 -0.06302361190319061
5.973191738128662 7.124669075012207 -0.062402524054050446
5.958436012268066 7.137099266052246 -0.06201954185962677
5.903682231903076 7.132357597351074 -0.061600904911756516
5.881854057312012 7.136082649230957 -0.06115207076072693
5.860593795776367 7.1407470703125 -0.06080121546983719
5.839208602905273 7.145446300506592 -0.06051790714263916
5.810238838195801 7.14018440246582 -0.060319941490888596
5.790480136871338 7.147035121917725 -0.060239896178245544
5.770013809204102 7.152068138122559 -0.05964532122015953
5.746197700500488 7.152870178222656 -0.05957096442580223
5.722081184387207 7.154098033905029 -0.0591079518198967
5.693336486816406 7.148521900177002 -0.058982446789741516
5.680428504943848 7.163344860076904 -0.058858320116996765
5.6542158126831055 7.161081314086914 -0.05834997445344925
5.63982629776001 7.173415184020996 -0.058388851583004
5.6034650802612305 7.158265590667725 -0.057566847652196884
5.588134765625 7.169605255126953 -0.05756727606058121
5.565196990966797 7.1708173751831055 -0.05751386657357216
5.548715591430664 7.181200981140137 -0.05709989741444588
5.51947546005249 7.174079895019531 -0.05679277703166008
5.498315334320068 7.177346229553223 -0.05640909820795059
5.482105255126953 7.187941074371338 -0.05636398121714592
5.455027103424072 7.183302879333496 -0.05565866455435753
5.411698341369629 7.188905715942383 -0.05540403723716736
5.393400192260742 7.195627689361572 -0.05506502836942673
5.34567403793335 7.194891929626465 -0.05448221042752266
5.323395729064941 7.196052551269531 -0.054176077246665955
5.2906084060668945 7.215088844299316 -0.05386264622211456
5.261190414428711 7.206281661987305 -0.05351293087005615
5.215935707092285 7.207840919494629 -0.05304408445954323
5.203594207763672 7.222296714782715 -0.05269235000014305
4.833086967468262 7.239623546600342 -0.04800979048013687
4.813240051269531 7.242395401000977 -0.04761604964733124
4.775936603546143 7.2523369789123535 -0.04706638678908348
4.745029449462891 7.2380595207214355 -0.046838100999593735
4.711797714233398 7.253811359405518 -0.04635646566748619
4.696530342102051 7.263258934020996 -0.04605305194854736
4.645779609680176 7.251565933227539 -0.0455995574593544
4.627052307128906 7.255437850952148 -0.04519769921898842
4.605648040771484 7.256019592285156 -0.04514182731509209
4.590632915496826 7.2656450271606445 -0.04468482360243797
4.574582099914551 7.273625373840332 -0.044656772166490555
4.55180549621582 7.271833419799805 -0.0442805141210556
4.531571388244629 7.273022651672363 -0.04400314763188362
4.51005220413208 7.272705078125 -0.04365094006061554
4.491669178009033 7.277085304260254 -0.04359794780611992
4.47315788269043 7.280857086181641 -0.04306238889694214
4.457805633544922 7.290741920471191 -0.04306507855653763
4.427525997161865 7.275099277496338 -0.042415641248226166
4.411857604980469 7.283344268798828 -0.04241775721311569
4.393611907958984 7.288311958312988 -0.04207350313663483
4.375998497009277 7.293281555175781 -0.04179903492331505
4.35028600692749 7.28530216217041 -0.04137412831187248
4.334444046020508 7.293473243713379 -0.04142438992857933
4.3124589920043945 7.290885925292969 -0.040773071348667145
4.2957963943481445 7.297889709472656 -0.040759243071079254
4.279628753662109 7.305420875549316 -0.04048405960202217
4.257822513580322 7.302903652191162 -0.04021061956882477
4.212895393371582 7.296290874481201 -0.03970248997211456
5.811689376831055 -10.24205207824707 -0.03587741032242775
5.866121292114258 -10.237293243408203 -0.03638383373618126
5.887577533721924 -10.22548770904541 -0.03634903207421303
5.9469895362854 -10.228812217712402 -0.03721930831670761
5.972694396972656 -10.224136352539062 -0.03723781555891037
6.000748634338379 -10.222900390625 -0.037727922201156616
6.030517578125 -10.224014282226562 -0.03774803876876831
6.061437606811523 -10.227871894836426 -0.03835274279117584
6.092878818511963 -10.231966018676758 -0.03862719237804413
6.114995956420898 -10.219865798950195 -0.039140455424785614
6.145030975341797 -10.221858024597168 -0.03917704522609711
6.174759387969971 -10.221796989440918 -0.03947881609201431
6.260275840759277 -10.217668533325195 -0.040554679930210114
6.318699836730957 -10.217108726501465 -0.04140150919556618
6.339084148406982 -10.201766014099121 -0.04142434149980545
6.374472141265869 -10.211385726928711 -0.041945550590753555
6.398882865905762 -10.202818870544434 -0.0422445647418499
6.434434413909912 -10.21145248413086 -0.042328786104917526
6.457707405090332 -10.201387405395508 -0.04284692928195
6.489884376525879 -10.203920364379883 -0.04316554218530655
6.514327049255371 -10.195566177368164 -0.043675217777490616
6.570291996002197 -10.188332557678223 -0.044206783175468445
6.6030168533325195 -10.192574501037598 -0.044487856328487396
6.664257049560547 -10.192779541015625 -0.04523107036948204
6.688103199005127 -10.183052062988281 -0.04520973563194275
6.77528190612793 -10.175788879394531 -0.04605092480778694
7.315817832946777 -10.135689735412598 -0.05238402634859085
7.3784613609313965 -10.132286071777344 -0.052124276757240295
7.408019065856934 -10.128637313842773 -0.05261555314064026
7.466411113739014 -10.118764877319336 -0.05327959358692169
7.506321907043457 -10.128791809082031 -0.05368609353899956
7.571689128875732 -10.127555847167969 -0.0543692521750927
7.60231876373291 -10.124645233154297 -0.05467560887336731
7.634952545166016 -10.122995376586914 -0.05528959259390831
7.661633491516113 -10.114641189575195 -0.055285800248384476
7.6985273361206055 -10.119647979736328 -0.055931828916072845
7.7221808433532715 -10.105867385864258 -0.05622332915663719
7.7597246170043945 -10.111434936523438 -0.05627337843179703
7.788156032562256 -10.104559898376465 -0.05688633769750595
7.82330846786499 -10.10588264465332 -0.05693864822387695
7.856568813323975 -10.105454444885254 -0.05792471766471863
7.8944854736328125 -10.110418319702148 -0.058010246604681015
7.922533988952637 -10.102212905883789 -0.0580090656876564
7.959022521972656 -10.10548210144043 -0.058646801859140396
7.985737323760986 -10.094963073730469 -0.05903046578168869
8.051392555236816 -10.09116268157959 -0.05966368690133095
8.089361190795898 -10.09487533569336 -0.059786755591630936
8.119829177856445 -10.089917182922363 -0.060698654502630234
8.15077018737793 -10.08501148223877 -0.06018295884132385
8.184907913208008 -10.083545684814453 -0.06035206839442253
8.221732139587402 -10.086063385009766 -0.060976967215538025
8.28317928314209 -10.07451057434082 -0.061875104904174805
8.312034606933594 -10.066948890686035 -0.06199120357632637
8.376441955566406 -10.058372497558594 -0.06289979070425034
8.410369873046875 -10.056600570678711 -0.06298767030239105
8.483277320861816 -10.057404518127441 -0.06374900788068771
8.59040641784668 -10.055463790893555 -0.0649409145116806
8.690317153930664 -10.043865203857422 -0.06599331647157669
9.006525993347168 -10.019757270812988 -0.06909775733947754
9.107596397399902 -10.004965782165527 -0.07020442187786102
9.221268653869629 -10.002787590026855 -0.07147938013076782
9.330220222473145 -9.994161605834961 -0.07267257571220398
9.424612045288086 -9.968888282775879 -0.07342017441987991
9.473575592041016 -9.97911548614502 -0.07447758316993713
9.509092330932617 -9.973770141601562 -0.07460905611515045
9.547411918640137 -9.972442626953125 -0.07470883429050446
9.577940940856934 -9.962444305419922 -0.0753617212176323
9.623567581176758 -9.96761417388916 -0.07579915225505829
9.657119750976562 -9.960914611816406 -0.07652001082897186
9.702524185180664 -9.96506404876709 -0.07667561620473862
9.725509643554688 -9.947288513183594 -0.07698699831962585
9.76911735534668 -9.950496673583984 -0.07772229611873627
9.80428695678711 -9.94373893737793 -0.07780986279249191
9.876887321472168 -9.934558868408203 -0.0778026431798935
9.907807350158691 -9.923172950744629 -0.07841339707374573
9.95245361328125 -9.92660140991211 -0.07887647300958633
9.996323585510254 -9.92906379699707 -0.07910112291574478
10.030271530151367 -9.920305252075195 -0.07970183342695236
10.074921607971191 -9.923192977905273 -0.0799335464835167
10.107320785522461 -9.912654876708984 -0.0809064656496048
10.146327018737793 -9.909686088562012 -0.08105281740427017
10.1949462890625 -9.91591739654541 -0.08129484206438065
10.243988990783691 -9.921120643615723 -0.08208766579627991
10.268198013305664 -9.90335464477539 -0.08243586122989655
10.34696102142334 -9.895549774169922 -0.08329010009765625
10.388555526733398 -9.894133567810059 -0.08344032615423203
10.511704444885254 -9.886144638061523 -0.08484407514333725
10.631027221679688 -9.873156547546387 -0.0861814096570015
10.756353378295898 -9.864334106445312 -0.08821234107017517
11.265618324279785 -9.820263862609863 -0.09341097623109818
11.354278564453125 -9.813702583312988 -0.09437979757785797
11.402555465698242 -9.814165115356445 -0.09458708763122559
11.489606857299805 -9.805158615112305 -0.09585432708263397
11.531878471374512 -9.799948692321777 -0.09616795927286148
11.622257232666016 -9.79275894165039 -0.09743122011423111
11.670141220092773 -9.791766166687012 -0.09767445176839828
11.755043029785156 -9.778940200805664 -0.09863635152578354
11.80034065246582 -9.775260925292969 -0.09920718520879745
11.886820793151855 -9.76278018951416 -0.09955596923828125
11.937793731689453 -9.763230323791504 -0.10067542642354965
11.98885440826416 -9.762324333190918 -0.10137989372015
12.034056663513184 -9.757669448852539 -0.10153850167989731
12.07109260559082 -9.74625015258789 -0.10228731483221054
12.125682830810547 -9.747610092163086 -0.10260244458913803
12.216897964477539 -9.736522674560547 -0.10397933423519135
12.318807601928711 -9.734414100646973 -0.10448001325130463
12.356700897216797 -9.721550941467285 -0.10558798164129257
12.400110244750977 -9.714111328125 -0.10573151707649231
12.459583282470703 -9.719042778015137 -0.1060640960931778
12.505126953125 -9.711673736572266 -0.10698570311069489
12.552342414855957 -9.706650733947754 -0.10755327343940735
12.603984832763672 -9.704854965209961 -0.10843552649021149
12.649002075195312 -9.69654655456543 -0.10863208770751953
12.700847625732422 -9.694510459899902 -0.10883098095655441
12.75632095336914 -9.69421672821045 -0.11020747572183609
12.810955047607422 -9.693443298339844 -0.11052393913269043
12.8546142578125 -9.68459701538086 -0.11071007698774338
12.944706916809082 -9.667281150817871 -0.11204126477241516
13.013765335083008 -9.676851272583008 -0.11317335069179535
13.110477447509766 -9.663290023803711 -0.1139988899230957
13.258302688598633 -9.644207954406738 -0.1157246008515358
13.737381935119629 -9.6010160446167 -0.12097741663455963
13.903642654418945 -9.587252616882324 -0.12301812320947647
14.064506530761719 -9.568278312683105 -0.12458320707082748
14.229941368103027 -9.550519943237305 -0.1265515387058258
14.34952163696289 -9.543800354003906 -0.1289716511964798
14.412189483642578 -9.541971206665039 -0.1293749362230301
14.473212242126465 -9.539231300354004 -0.13090267777442932
14.536474227905273 -9.536447525024414 -0.1312703937292099
14.579421997070312 -9.521404266357422 -0.13144385814666748
14.641450881958008 -9.51862907409668 -0.13179835677146912
14.68953800201416 -9.50531005859375 -0.13283540308475494
14.76530647277832 -9.510927200317383 -0.13361071050167084
14.807414054870605 -9.49462890625 -0.1337861865758896
14.84080982208252 -9.471365928649902 -0.13448581099510193
14.879316329956055 -9.452544212341309 -0.1346324384212494
14.893077850341797 -9.416688919067383 -0.13460113108158112
14.926803588867188 -9.394709587097168 -0.13536813855171204
14.95833969116211 -9.371275901794434 -0.13526363670825958
14.971234321594238 -9.334878921508789 -0.13516467809677124
15.014418601989746 -9.318588256835938 -0.13587389886379242
15.046497344970703 -9.295300483703613 -0.1362181007862091
15.092378616333008 -9.279156684875488 -0.13629990816116333
15.097794532775879 -9.23936653137207 -0.1366327852010727
15.141820907592773 -9.222350120544434 -0.13672904670238495
15.177870750427246 -9.200735092163086 -0.13724330067634583
15.203777313232422 -9.173348426818848 -0.13708694279193878
15.222232818603516 -9.140183448791504 -0.13756000995635986
15.235138893127441 -9.104970932006836 -0.13869494199752808
15.258750915527344 -9.07615852355957 -0.13857990503311157
15.28257942199707 -9.046189308166504 -0.13948968052864075
15.312455177307129 -9.021016120910645 -0.13943566381931305
15.340557098388672 -8.994738578796387 -0.13930484652519226
15.395782470703125 -8.940200805664062 -0.14010827243328094
15.431466102600098 -8.917346954345703 -0.14011222124099731
15.485281944274902 -8.862464904785156 -0.1405278742313385
15.569526672363281 -8.78120231628418 -0.1414286494255066
15.651899337768555 -8.698415756225586 -0.14174489676952362
15.934465408325195 -8.464887619018555 -0.14467377960681915
15.986383438110352 -8.406803131103516 -0.14517280459403992
16.02631378173828 -8.38492202758789 -0.14559073746204376
16.076684951782227 -8.325223922729492 -0.1453133523464203
16.114341735839844 -8.302361488342285 -0.14599408209323883
16.186466217041016 -8.253440856933594 -0.14634361863136292
16.1951961517334 -8.215590476989746 -0.14673252403736115
16.238544464111328 -8.151773452758789 -0.14631317555904388
16.2612361907959 -8.12095832824707 -0.1460423469543457
16.29251480102539 -8.093619346618652 -0.14713932573795319
16.32040023803711 -8.064809799194336 -0.14705489575862885
16.352928161621094 -8.038702011108398 -0.14691179990768433
16.382518768310547 -8.010320663452148 -0.14749006927013397
16.423507690429688 -7.9876909255981445 -0.1475060135126114
16.433923721313477 -7.950629234313965 -0.14764857292175293
16.479206085205078 -7.929137229919434 -0.1476619988679886
16.503284454345703 -7.898586273193359 -0.14815357327461243
16.537412643432617 -7.872781753540039 -0.14816197752952576
16.579360961914062 -7.8493499755859375 -0.14817795157432556
16.60801887512207 -7.8207688331604 -0.1484222114086151
16.664474487304688 -7.803902626037598 -0.14923635125160217
16.682832717895508 -7.770326614379883 -0.14971508085727692
16.703445434570312 -7.737785339355469 -0.14972364902496338
16.709537506103516 -7.69729471206665 -0.14961397647857666
16.72002410888672 -7.660104751586914 -0.15019690990447998
16.723169326782227 -7.618856430053711 -0.15008331835269928
16.741634368896484 -7.584864616394043 -0.15008465945720673
16.758153915405273 -7.550474166870117 -0.1506236493587494
16.758316040039062 -7.508009910583496 -0.15125489234924316
16.761764526367188 -7.467341423034668 -0.15105478465557098
16.760761260986328 -7.425246238708496 -0.1507619470357895
16.767194747924805 -7.385774612426758 -0.15069080889225006
16.801212310791016 -7.31716251373291 -0.151821568608284
16.798141479492188 -7.231817245483398 -0.1515285074710846
16.80660629272461 -7.193427085876465 -0.15217292308807373
15.61220645904541 -6.60519552230835 -0.134703129529953
16.834306716918945 -7.080399036407471 -0.15250837802886963
16.858257293701172 -6.96606969833374 -0.15286391973495483
16.906044006347656 -6.6553850173950195 -0.1540849506855011
16.938793182373047 -6.545588493347168 -0.15511399507522583
16.94063949584961 -6.464909553527832 -0.15555956959724426
16.952247619628906 -6.428597450256348 -0.15554961562156677
16.944385528564453 -6.344593048095703 -0.15543095767498016
16.954835891723633 -6.307949066162109 -0.1554635614156723
16.933609008789062 -6.260076522827148 -0.15558627247810364
16.822744369506836 -6.178741931915283 -0.1538054198026657
16.92723274230957 -6.176815032958984 -0.15518437325954437
16.905532836914062 -6.1291728019714355 -0.15494713187217712
16.904010772705078 -6.048196792602539 -0.15593299269676208
16.88996696472168 -5.963054656982422 -0.15559735894203186
16.919483184814453 -5.934017181396484 -0.15572009980678558
16.906064987182617 -5.88924503326416 -0.1554953157901764
16.880319595336914 -5.840563774108887 -0.15462523698806763
16.85045051574707 -5.791103363037109 -0.15473151206970215
16.85749053955078 -5.753746032714844 -0.1546204686164856
16.842615127563477 -5.709214210510254 -0.15495221316814423
16.855606079101562 -5.673960208892822 -0.15485911071300507
16.874895095825195 -5.641035079956055 -0.15496030449867249
16.877120971679688 -5.602867603302002 -0.15508192777633667
16.872291564941406 -5.561736583709717 -0.15562036633491516
16.87262725830078 -5.52259635925293 -0.15551264584064484
16.871700286865234 -5.483555793762207 -0.15520532429218292
16.881671905517578 -5.408297538757324 -0.15564407408237457
16.900117874145508 -5.37488317489624 -0.1557415872812271
16.898420333862305 -5.335297584533691 -0.15607117116451263
16.903446197509766 -5.29833459854126 -0.15596435964107513
16.893482208251953 -5.256059169769287 -0.1557449847459793
16.889558792114258 -5.21596622467041 -0.1561764031648636
16.8897705078125 -5.177663326263428 -0.1560683697462082
16.89348602294922 -5.1398024559021 -0.15585903823375702
16.896329879760742 -5.063692569732666 -0.1560765653848648
16.89830207824707 -5.025422096252441 -0.15660756826400757
16.901798248291016 -4.9490814208984375 -0.15574565529823303
16.89904022216797 -4.833137512207031 -0.1553124040365219
16.888534545898438 -4.715481281280518 -0.15584324300289154
16.89000129699707 -4.525307655334473 -0.15612265467643738
16.855323791503906 -4.478102207183838 -0.15628834068775177
16.804420471191406 -4.389339923858643 -0.15580782294273376
16.804553985595703 -4.351701736450195 -0.15642625093460083
16.7791690826416 -4.307341575622559 -0.15619587898254395
16.79807472229004 -4.274616718292236 -0.15610967576503754
16.766754150390625 -4.229620933532715 -0.15604442358016968
16.812847137451172 -4.203505992889404 -0.15641191601753235
16.81741714477539 -4.167145729064941 -0.15629561245441437
16.818893432617188 -4.130484580993652 -0.15671414136886597
16.805973052978516 -4.089704990386963 -0.1567024439573288
16.795852661132812 -4.049903392791748 -0.15532074868679047
16.790159225463867 -4.011680603027344 -0.15528349578380585
16.776336669921875 -3.97094988822937 -0.1549755036830902
16.75905990600586 -3.929716110229492 -0.15590304136276245
16.771459579467773 -3.895280361175537 -0.15591081976890564
16.773021697998047 -3.858976364135742 -0.15595181286334991
16.74614906311035 -3.8157858848571777 -0.1555522233247757
16.74776840209961 -3.7789716720581055 -0.15550597012043
16.72936248779297 -3.7379181385040283 -0.15510374307632446
16.72539520263672 -3.7006072998046875 -0.1557232141494751
16.732105255126953 -3.665048599243164 -0.15575309097766876
16.72426414489746 -3.626544952392578 -0.15604287385940552
16.70207405090332 -3.585458755493164 -0.15560093522071838
16.7094783782959 -3.5501561164855957 -0.15570266544818878
16.698078155517578 -3.511104106903076 -0.1555779129266739
16.708873748779297 -3.476548671722412 -0.15620365738868713
16.704097747802734 -3.4394054412841797 -0.15608204901218414
16.691608428955078 -3.4003138542175293 -0.15598906576633453
16.692096710205078 -3.3637194633483887 -0.15626777708530426
16.6881103515625 -3.3264658451080322 -0.15615566074848175
16.67060089111328 -3.286391258239746 -0.1558445692062378
16.664091110229492 -3.249197483062744 -0.1564215123653412
16.675142288208008 -3.215020179748535 -0.15642577409744263
16.66594696044922 -3.176762819290161 -0.15630587935447693
16.64497184753418 -3.1008028984069824 -0.15473726391792297
16.658843994140625 -3.067004442214966 -0.15587110817432404
16.65087127685547 -2.9937169551849365 -0.15573564171791077
16.64063835144043 -2.9556169509887695 -0.15551546216011047
16.613222122192383 -2.878628730773926 -0.15556544065475464
16.615175247192383 -2.8434648513793945 -0.15618272125720978
16.592227935791016 -2.767665386199951 -0.15583491325378418
16.604557037353516 -2.7343177795410156 -0.1559739112854004
16.59708023071289 -2.6613430976867676 -0.15574075281620026
16.574148178100586 -2.5508978366851807 -0.15639065206050873
16.569747924804688 -2.4788310527801514 -0.15638843178749084
16.573673248291016 -2.444265604019165 -0.1564527004957199
16.56424331665039 -2.371642589569092 -0.1563662886619568
16.54351806640625 -2.333650827407837 -0.1559862643480301
16.535358428955078 -2.2964842319488525 -0.1564754694700241
16.541385650634766 -2.262342929840088 -0.15557335317134857
16.524330139160156 -2.224673271179199 -0.15546199679374695
16.51660919189453 -2.1881346702575684 -0.15573175251483917
16.529558181762695 -2.1549556255340576 -0.15646034479141235
16.516223907470703 -2.1179566383361816 -0.15624402463436127
16.50640296936035 -2.0812783241271973 -0.15619808435440063
16.50551986694336 -2.0463790893554688 -0.15611709654331207
16.48427963256836 -1.9732930660247803 -0.1557483971118927
16.471967697143555 -1.9367444515228271 -0.15564121305942535
16.47832489013672 -1.9022234678268433 -0.15562276542186737
16.47991371154785 -1.867760181427002 -0.15671294927597046
16.46953582763672 -1.8315653800964355 -0.15649190545082092
16.45833396911621 -1.7951443195343018 -0.15647241473197937
16.454940795898438 -1.7602283954620361 -0.15627484023571014
16.45340347290039 -1.7251276969909668 -0.15625503659248352
16.449739456176758 -1.6896336078643799 -0.15623138844966888
16.422161102294922 -1.652369499206543 -0.15589745342731476
16.42926597595215 -1.6182440519332886 -0.1558980494737625
16.419878005981445 -1.5823177099227905 -0.15635427832603455
16.42139434814453 -1.5476689338684082 -0.15638811886310577
16.410585403442383 -1.511696219444275 -0.15657253563404083
16.39820098876953 -1.4762437343597412 -0.15635859966278076
16.391315460205078 -1.4409327507019043 -0.1563602089881897
16.3988037109375 -1.406701922416687 -0.15637075901031494
16.387601852416992 -1.371489405632019 -0.15621690452098846
16.3681640625 -1.3346576690673828 -0.15628857910633087
16.37215232849121 -1.3007874488830566 -0.15651141107082367
16.378808975219727 -1.2671180963516235 -0.15651923418045044
16.359262466430664 -1.2304553985595703 -0.1562553495168686
16.354589462280273 -1.1959784030914307 -0.156545490026474
16.356613159179688 -1.1616019010543823 -0.15664003789424896
16.332996368408203 -1.1252669095993042 -0.15689891576766968
16.33169937133789 -1.0911301374435425 -0.15689778327941895
16.311481475830078 -1.0207971334457397 -0.15674597024917603
16.300203323364258 -0.95119309425354 -0.1566128134727478
16.285017013549805 -0.9164012670516968 -0.15648441016674042
16.26340675354004 -0.8464920520782471 -0.15623946487903595
16.265037536621094 -0.8127360343933105 -0.15672516822814941
16.24367332458496 -0.7431026697158813 -0.15711884200572968
16.26466941833496 -0.7102433443069458 -0.15727360546588898
16.236738204956055 -0.6405256986618042 -0.15696686506271362
16.23444938659668 -0.6066958904266357 -0.1569594144821167
16.2359561920166 -0.5720227956771851 -0.1575503796339035
16.218591690063477 -0.5377148389816284 -0.15731920301914215
16.221607208251953 -0.5037178993225098 -0.1577201783657074
16.21697235107422 -0.46929866075515747 -0.15770602226257324
16.20588493347168 -0.40067875385284424 -0.158074289560318
16.199058532714844 -0.36687490344047546 -0.1579580307006836
16.19533920288086 -0.3331664204597473 -0.158013254404068
16.207822799682617 -0.2987864017486572 -0.15807777643203735
16.18818473815918 -0.26482057571411133 -0.15793585777282715
16.1885929107666 -0.2312248945236206 -0.15791532397270203
16.185779571533203 -0.19660209119319916 -0.157802551984787
16.187530517578125 -0.16302691400051117 -0.15860214829444885
16.17289161682129 -0.12891820073127747 -0.15837953984737396
16.18435287475586 -0.09483127295970917 -0.15847153961658478
16.17172622680664 -0.061197005212306976 -0.15842506289482117
16.165985107421875 -0.026640750467777252 -0.15824289619922638
16.791555404663086 0.006823800504207611 -0.13262560963630676
16.770963668823242 0.04230550676584244 -0.13247570395469666
16.773054122924805 0.07745468616485596 -0.13246171176433563
16.756200790405273 0.11215046048164368 -0.13335570693016052
16.75127410888672 0.14756785333156586 -0.13330867886543274
16.743114471435547 0.18258021771907806 -0.13323760032653809
16.73124885559082 0.21717695891857147 -0.13316482305526733
16.729135513305664 0.2525579631328583 -0.133144810795784
16.65496063232422 0.5311471819877625 -0.13262107968330383
16.617361068725586 0.6345438957214355 -0.13268984854221344
16.439800262451172 1.3549734354019165 -0.13297712802886963
16.43440818786621 1.458602786064148 -0.13399329781532288
16.409137725830078 1.5260374546051025 -0.13387641310691833
16.397235870361328 1.5592586994171143 -0.13446053862571716
16.387821197509766 1.6280314922332764 -0.13442696630954742
16.37283706665039 1.6608624458312988 -0.1343322992324829
16.36494255065918 1.6947104930877686 -0.13428731262683868
16.34621238708496 1.727741003036499 -0.13418130576610565
16.339996337890625 1.7613790035247803 -0.13415123522281647
16.346935272216797 1.7967841625213623 -0.1342381089925766
16.331764221191406 1.8301026821136475 -0.13414348661899567
16.33444595336914 1.8650662899017334 -0.13418999314308167
16.312278747558594 1.8975131511688232 -0.1340479552745819
16.31525230407715 1.9321825504302979 -0.1340969204902649
16.30438995361328 1.9655461311340332 -0.13404971361160278
16.292011260986328 1.999039888381958 -0.13396333158016205
16.274999618530273 2.0658843517303467 -0.13390317559242249
16.26461410522461 2.0995492935180664 -0.13386157155036926
16.243688583374023 2.1664352416992188 -0.13376247882843018
16.250049591064453 2.20161509513855 -0.13385331630706787
16.244367599487305 2.2705538272857666 -0.13391925394535065
16.224687576293945 2.3021395206451416 -0.1337602436542511
16.187942504882812 2.366514205932617 -0.1348693072795868
16.15976333618164 2.4662532806396484 -0.13478104770183563
16.109703063964844 2.5623488426208496 -0.13449367880821228
15.846061706542969 3.0348453521728516 -0.1323462575674057
15.79583740234375 3.1282968521118164 -0.13341353833675385
15.7527494430542 3.222809076309204 -0.13223576545715332
15.722761154174805 3.2506818771362305 -0.13203969597816467
15.704692840576172 3.281944751739502 -0.13195978105068207
15.687227249145508 3.3122854232788086 -0.1322048306465149
15.672977447509766 3.343595027923584 -0.13180240988731384
15.658443450927734 3.375153064727783 -0.1317216455936432
15.648919105529785 3.407099485397339 -0.1317216157913208
15.614734649658203 3.433941125869751 -0.13150957226753235
15.61391830444336 3.468416690826416 -0.1315539926290512
15.588172912597656 3.496657609939575 -0.13138046860694885
15.577268600463867 3.529179573059082 -0.13136827945709229
15.573925018310547 3.562415838241577 -0.1313837766647339
15.541421890258789 3.5889365673065186 -0.13119198381900787
15.52573013305664 3.6202657222747803 -0.1311333179473877
15.521646499633789 3.653291702270508 -0.13116806745529175
15.519869804382324 3.6872100830078125 -0.13120819628238678
15.49978256225586 3.717106342315674 -0.131113201379776
15.478818893432617 3.7460649013519287 -0.13098472356796265
15.474388122558594 3.779331684112549 -0.13067641854286194
15.437507629394531 3.804959774017334 -0.12981684505939484
15.44048023223877 3.839698076248169 -0.129893958568573
15.420791625976562 3.869800567626953 -0.12981195747852325
15.417337417602539 3.9029593467712402 -0.12983110547065735
15.384696960449219 3.963714361190796 -0.12968824803829193
15.369255065917969 3.9937658309936523 -0.12964893877506256
15.317397117614746 4.08325719833374 -0.12942923605442047
15.27682113647461 4.175478935241699 -0.12864801287651062
15.070018768310547 4.633629322052002 -0.12615899741649628
15.029064178466797 4.690404891967773 -0.1259928196668625
15.007884979248047 4.717995643615723 -0.125919908285141
14.987871170043945 4.781154632568359 -0.12591864168643951
14.958255767822266 4.805929660797119 -0.12508751451969147
14.94343376159668 4.836409091949463 -0.12503817677497864
14.938054084777832 4.868937969207764 -0.12509052455425262
14.916839599609375 4.8962907791137695 -0.12499501556158066
14.909056663513184 4.929040908813477 -0.1250026375055313
14.881771087646484 4.954301834106445 -0.12489457428455353
14.878692626953125 4.987598896026611 -0.1249459832906723
14.874460220336914 5.021551609039307 -0.12498253583908081
14.86736011505127 5.0535478591918945 -0.12500713765621185
14.834468841552734 5.076733112335205 -0.1248370110988617
14.823976516723633 5.108545303344727 -0.12419847398996353
14.803598403930664 5.1359148025512695 -0.12380266189575195
14.798358917236328 5.169541358947754 -0.12384366989135742
14.785078048706055 5.1993536949157715 -0.12383174151182175
14.784051895141602 5.23349142074585 -0.12391170859336853
14.757851600646973 5.259720325469971 -0.12375743687152863
14.749483108520508 5.291259288787842 -0.12250848114490509
14.721384048461914 5.31568717956543 -0.12207313627004623
14.726264953613281 5.353036880493164 -0.12219060957431793
14.690974235534668 5.374750137329102 -0.12202109396457672
14.690092086791992 5.4090189933776855 -0.12210661172866821
14.679620742797852 5.440802097320557 -0.1221211850643158
14.661909103393555 5.468869209289551 -0.12205300480127335
14.639747619628906 5.530946731567383 -0.12142197787761688
14.611650466918945 5.555008888244629 -0.12127472460269928
14.601703643798828 5.621722221374512 -0.12137004733085632
14.58034610748291 5.648955345153809 -0.12131363898515701
14.562934875488281 5.712175369262695 -0.1210658997297287
14.513065338134766 5.79815149307251 -0.1203041598200798
14.475946426391602 5.8891191482543945 -0.12026764452457428
14.415567398071289 5.971142768859863 -0.11914299428462982
14.377344131469727 6.061820983886719 -0.11851230263710022
14.327011108398438 6.146962642669678 -0.11781148612499237
14.264482498168945 6.226607322692871 -0.11762040853500366
14.25815200805664 6.295120716094971 -0.11742274463176727
14.24441146850586 6.324751853942871 -0.11680576205253601
14.185739517211914 6.370355606079102 -0.11655174195766449
14.167229652404785 6.397405624389648 -0.1165090799331665
14.112691879272461 6.408764839172363 -0.11621291935443878
14.055564880371094 6.418383598327637 -0.1152721643447876
14.009706497192383 6.432611465454102 -0.11505066603422165
13.96137809753418 6.446225643157959 -0.11484608799219131
13.917075157165527 6.461187362670898 -0.11465395987033844
13.87884521484375 6.478481769561768 -0.11418460309505463
13.830846786499023 6.492096900939941 -0.11389189958572388
13.771835327148438 6.499307632446289 -0.1135377436876297
13.704872131347656 6.502514362335205 -0.1125233918428421
13.65146541595459 6.512938499450684 -0.11153611540794373
13.580987930297852 6.513947486877441 -0.11109599471092224
13.524883270263672 6.522271633148193 -0.11074014008045197
13.472487449645996 6.531839370727539 -0.10981037467718124
13.420392036437988 6.541013240814209 -0.10950002819299698
13.351572036743164 6.542466163635254 -0.10908560454845428
13.292134284973145 6.547921180725098 -0.10870193690061569
13.234109878540039 6.553499698638916 -0.10804317891597748
13.184566497802734 6.564075469970703 -0.10773904621601105
13.119481086730957 6.565680980682373 -0.10672411322593689
13.060242652893066 6.569960594177246 -0.10636018216609955
13.001579284667969 6.575291633605957 -0.10599440336227417
12.952131271362305 6.584072113037109 -0.10570909082889557
12.885160446166992 6.584370136260986 -0.10526959598064423
12.854528427124023 6.60272741317749 -0.10453547537326813
12.786389350891113 6.6012983322143555 -0.10407811403274536
12.732112884521484 6.607432842254639 -0.10345745086669922
12.676656723022461 6.612410545349121 -0.10314199328422546
12.623035430908203 6.618452072143555 -0.10280539095401764
12.450601577758789 6.6281633377075195 -0.10117385536432266
12.303584098815918 6.649500846862793 -0.09975515305995941
12.034126281738281 6.6680450439453125 -0.09730253368616104
11.887537002563477 6.684840202331543 -0.09590630233287811
11.734807968139648 6.6964006423950195 -0.09473167359828949
11.595163345336914 6.714012145996094 -0.09340931475162506
11.544778823852539 6.716867446899414 -0.09313449263572693
11.501160621643066 6.724099159240723 -0.09208977222442627
11.455392837524414 6.7295942306518555 -0.09180663526058197
11.416406631469727 6.7385969161987305 -0.09158043563365936
11.35106086730957 6.732450485229492 -0.09119179844856262
11.307395935058594 6.738624572753906 -0.09094006568193436
11.259465217590332 6.741764545440674 -0.09015411883592606
11.202775001525879 6.740060329437256 -0.08983114361763
11.160856246948242 6.746735572814941 -0.08959108591079712
11.126626014709473 6.758228302001953 -0.088878333568573
11.073095321655273 6.757521629333496 -0.088578000664711
11.027138710021973 6.760923385620117 -0.08808472752571106
10.984292030334473 6.766669750213623 -0.08785030245780945
10.946186065673828 6.774881362915039 -0.08713274449110031
10.888346672058105 6.770375728607178 -0.08678142726421356
10.847280502319336 6.776704788208008 -0.08657583594322205
10.813735961914062 6.78729772567749 -0.0864088237285614
10.773270606994629 6.793103218078613 -0.08566251397132874
10.728679656982422 6.797061443328857 -0.08517873287200928
10.682660102844238 6.799014091491699 -0.08493837714195251
10.64206600189209 6.804856300354004 -0.08473944664001465
10.599955558776855 6.809268951416016 -0.08398319780826569
10.549555778503418 6.807860374450684 -0.08370330929756165
10.516677856445312 6.818202972412109 -0.08356393873691559
10.470598220825195 6.819537162780762 -0.08304506540298462
10.421728134155273 6.818552017211914 -0.08227835595607758
10.380430221557617 6.822937965393066 -0.08206707239151001
10.345601081848145 6.831137657165527 -0.08191433548927307
10.2945556640625 6.828150749206543 -0.08162751793861389
10.217766761779785 6.83935546875 -0.08048522472381592
10.180774688720703 6.845828056335449 -0.08029581606388092
10.097070693969727 6.850872993469238 -0.07987186312675476
10.055221557617188 6.8535895347595215 -0.07914730906486511
9.977119445800781 6.8620710372924805 -0.07852809876203537
9.937111854553223 6.8649749755859375 -0.07831943780183792
9.861571311950684 6.874320983886719 -0.07746189087629318
9.736734390258789 6.878655433654785 -0.07609790563583374
9.631765365600586 6.895676612854004 -0.07560388743877411
9.556347846984863 6.902741432189941 -0.07477311789989471
9.512787818908691 6.901661396026611 -0.07431859523057938
9.437898635864258 6.907885551452637 -0.07347738742828369
9.395702362060547 6.90728759765625 -0.07328622043132782
9.340779304504395 6.927399635314941 -0.0723513662815094
9.292380332946777 6.921738624572754 -0.07209943234920502
8.31534194946289 7.018852233886719 -0.06328443437814713
8.267745018005371 7.008400917053223 -0.06259923428297043
8.242385864257812 7.0169267654418945 -0.062491949647665024
8.212331771850586 7.020786285400391 -0.06217004358768463
8.181589126586914 7.024236679077148 -0.061608485877513885
8.151508331298828 7.028423309326172 -0.061527494341135025
8.09272575378418 7.036799430847168 -0.060821712017059326
8.058560371398926 7.037087440490723 -0.06047435849905014
8.002405166625977 7.047670841217041 -0.059852391481399536
7.969255447387695 7.047894477844238 -0.059707000851631165
7.908967018127441 7.0541582107543945 -0.05926026776432991
7.874032974243164 7.052394390106201 -0.05868462100625038
7.817187309265137 7.061035633087158 -0.058498315513134
7.726042747497559 7.06741189956665 -0.05750594660639763
7.660617828369141 7.067052364349365 -0.0565708726644516
7.634946823120117 7.07275390625 -0.05649876967072487
7.582965850830078 7.084173202514648 -0.056322358548641205
7.551460266113281 7.084437370300293 -0.055571652948856354
7.520984172821045 7.08524751663208 -0.055465031415224075
7.496100902557373 7.091799736022949 -0.055380649864673615
7.4685211181640625 7.095427513122559 -0.0548555813729763
7.439560890197754 7.097346305847168 -0.05477685481309891
7.41477108001709 7.1037211418151855 -0.05407675728201866
7.381590366363525 7.101661682128906 -0.053935833275318146
7.347821235656738 7.099168300628662 -0.053819019347429276
7.321966648101807 7.103626251220703 -0.05333349108695984
7.304045677185059 7.116016387939453 -0.05307210236787796
7.2627716064453125 7.105816841125488 -0.05290713533759117
7.241729736328125 7.114995002746582 -0.05243354290723801
7.212660312652588 7.11591100692749 -0.05233312398195267
7.1982421875 7.131801605224609 -0.05213233456015587
7.158238410949707 7.121956825256348 -0.0515189990401268
7.137990951538086 7.131925582885742 -0.05148475244641304
7.10023307800293 7.1237053871154785 -0.05132503807544708
7.08126163482666 7.134513854980469 -0.05088614299893379
7.043272018432617 7.12632942199707 -0.05053611472249031
7.021806716918945 7.134161949157715 -0.050459422171115875
6.995039939880371 7.136823654174805 -0.049783408641815186
6.971718788146973 7.143198490142822 -0.0497206375002861
6.942048072814941 7.142390727996826 -0.04961944371461868
6.913540840148926 7.14353084564209 -0.04953666031360626
6.890072345733643 7.1489081382751465 -0.04886999726295471
6.863465309143066 7.1512346267700195 -0.04875481128692627
6.828490257263184 7.144991874694824 -0.04865901172161102
6.807839870452881 7.153043746948242 -0.048212166875600815
6.783417701721191 7.157361030578613 -0.04793959856033325
6.753087043762207 7.155618190765381 -0.047437191009521484
6.709076881408691 7.1686506271362305 -0.0473085418343544
6.674181938171387 7.161675453186035 -0.0465887151658535
6.627890586853027 7.171746253967285 -0.04649249464273453
6.605469703674316 7.177892684936523 -0.0460440069437027
6.543524265289307 7.170953750610352 -0.0451943501830101
6.518664360046387 7.1735520362854 -0.0451570488512516
6.473906993865967 7.184861183166504 -0.04444345831871033
6.451715469360352 7.190179824829102 -0.044407039880752563
6.430837154388428 7.197786331176758 -0.04436345770955086
6.409041404724121 7.2034220695495605 -0.04389745742082596
6.356041431427002 7.20472526550293 -0.04358820617198944
6.318058013916016 7.191697120666504 -0.04302451014518738
6.275221824645996 7.2039008140563965 -0.042380474507808685
6.253147125244141 7.208708763122559 -0.042305998504161835
6.199098587036133 7.207500457763672 -0.041755300015211105
6.18030309677124 7.215883255004883 -0.04154194891452789
6.155645847320557 7.21824836730957 -0.04107581824064255
6.127738952636719 7.215799808502197 -0.04100951552391052
6.11048698425293 7.226123809814453 -0.04098105430603027
6.078492164611816 7.219208717346191 -0.04028630256652832
6.062091827392578 7.230130195617676 -0.04030055180191994
6.032208442687988 7.225191593170166 -0.03983011841773987
6.0054121017456055 7.224106788635254 -0.03953768312931061
5.981407165527344 7.225681304931641 -0.039506591856479645
5.966876983642578 7.2389607429504395 -0.03909841924905777
5.940720558166504 7.238375663757324 -0.03905247151851654
5.920364856719971 7.244481086730957 -0.03844179958105087
5.893307685852051 7.242588996887207 -0.038374945521354675
5.8696818351745605 7.244211196899414 -0.03828988969326019
5.843062877655029 7.242336273193359 -0.03785421699285507
5.818479537963867 7.243169784545898 -0.03759732469916344
5.8021931648254395 7.25367546081543 -0.03700567036867142
5.7796196937561035 7.25657844543457 -0.03696787357330322
5.748984336853027 7.24953556060791 -0.03648337721824646
5.728677749633789 7.254801273345947 -0.03646000474691391
5.703550815582275 7.254791259765625 -0.03620632737874985
5.690032958984375 7.268590450286865 -0.03584109991788864
5.647336006164551 7.245282173156738 -0.03571585193276405
5.640390396118164 7.268031120300293 -0.03537727892398834
5.613328456878662 7.264233589172363 -0.03510662168264389
5.583279132843018 7.256730079650879 -0.0350419357419014
5.563079833984375 7.2622151374816895 -0.034633468836545944
5.549215316772461 7.275341033935547 -0.03441443294286728
5.522146224975586 7.271404266357422 -0.033994484692811966
5.502522945404053 7.277480125427246 -0.0339667871594429
5.468887805938721 7.2642822265625 -0.033502209931612015
5.457934379577637 7.281441688537598 -0.033338021486997604
5.433037281036377 7.280269622802734 -0.03324761614203453
