VERSION .7
FIELDS x y z
SIZE 4 4 4
TYPE F F F
COUNT 1 1 1
WIDTH 828
HEIGHT 1
VIEWPOINT 0 0 0 1 0 0 0
POINTS 828
DATA ascii
11.351396560668945 -1.8699771165847778 -0.42566198110580444
11.340576171875 -1.8440303802490234 -0.425112247467041
11.34045124053955 -1.8191522359848022 -0.42496049404144287
11.359085083007812 -1.7979705333709717 -0.4255185127258301
11.328093528747559 -1.7687236070632935 -0.42491838335990906
11.3308687210083 -1.7446218729019165 -0.42488324642181396
11.321063995361328 -1.7190696001052856 -0.42438024282455444
11.328509330749512 -1.695449709892273 -0.42452317476272583
11.314538955688477 -1.6693603992462158 -0.42431893944740295
11.301939964294434 -1.6435446739196777 -0.42396610975265503
11.30482292175293 -1.619310975074768 -0.4239445626735687
11.299047470092773 -1.594562292098999 -0.42360174655914307
11.301921844482422 -1.5703506469726562 -0.42502567172050476
11.30133056640625 -1.5463703870773315 -0.4248819053173065
11.273968696594238 -1.4704852104187012 -0.4241921901702881
11.258352279663086 -1.4202542304992676 -0.42337581515312195
11.249958038330078 -1.3710882663726807 -0.4235318899154663
11.238243103027344 -1.3459985256195068 -0.422984778881073
11.237425804138184 -1.2979199886322021 -0.4227445125579834
11.244800567626953 -1.2751308679580688 -0.4231678545475006
11.231990814208984 -1.2493815422058105 -0.4230291247367859
11.218381881713867 -1.2243046760559082 -0.4224199950695038
11.214624404907227 -1.200350284576416 -0.4221837818622589
11.223482131958008 -1.1770532131195068 -0.4224216639995575
11.206016540527344 -1.1517161130905151 -0.42167335748672485
11.206657409667969 -1.1275945901870728 -0.4218510389328003
11.1941499710083 -1.1028757095336914 -0.42173588275909424
11.190702438354492 -1.0788469314575195 -0.42151981592178345
11.173139572143555 -1.0533133745193481 -0.420773446559906
11.1903657913208 -1.0315133333206177 -0.4213406443595886
11.170852661132812 -1.0060954093933105 -0.42052555084228516
11.163883209228516 -0.9816749095916748 -0.4216025173664093
11.164344787597656 -0.9583724737167358 -0.4217872619628906
11.1614351272583 -0.9341080188751221 -0.42204129695892334
11.146437644958496 -0.9095638394355774 -0.42140263319015503
11.142048835754395 -0.8856899738311768 -0.42116454243659973
11.145624160766602 -0.8622618913650513 -0.4212297201156616
11.152244567871094 -0.8394961357116699 -0.42141279578208923
11.130901336669922 -0.8144197463989258 -0.4205423891544342
11.125666618347168 -0.7903896570205688 -0.4205227792263031
11.108084678649902 -0.7659761905670166 -0.42023539543151855
11.106300354003906 -0.7420182824134827 -0.42010653018951416
11.100103378295898 -0.7184696197509766 -0.4198148846626282
11.10210132598877 -0.6947861909866333 -0.4198338985443115
11.088347434997559 -0.6708278656005859 -0.41926109790802
11.077829360961914 -0.6233789920806885 -0.41875892877578735
11.075983047485352 -0.6002202033996582 -0.41864144802093506
11.06209659576416 -0.5527539849281311 -0.4187015891075134
11.050633430480957 -0.5291940569877625 -0.4182260036468506
11.05504322052002 -0.5057373046875 -0.41835087537765503
11.037483215332031 -0.4819833040237427 -0.41764748096466064
11.029678344726562 -0.43511149287223816 -0.4172786474227905
11.028071403503418 -0.41212892532348633 -0.4194495379924774
10.993633270263672 -0.36448541283607483 -0.41807979345321655
10.985410690307617 -0.3413924276828766 -0.4177379608154297
10.983497619628906 -0.3178485631942749 -0.4176381826400757
10.967613220214844 -0.29461121559143066 -0.4170108735561371
10.952699661254883 -0.2707975506782532 -0.41642045974731445
10.928001403808594 -0.24749641120433807 -0.41546154022216797
10.916228294372559 -0.22432780265808105 -0.4149952530860901
10.91171646118164 -0.20115427672863007 -0.41480553150177
10.904092788696289 -0.17837873101234436 -0.41450148820877075
10.901951789855957 -0.1554771512746811 -0.414406418800354
10.89584732055664 -0.13234743475914001 -0.41416311264038086
10.891908645629883 -0.10969394445419312 -0.4140026271343231
10.889010429382324 -0.08640143275260925 -0.41431260108947754
10.88885498046875 -0.06380261480808258 -0.4143017530441284
10.872775077819824 -0.040907956659793854 -0.41368526220321655
10.876068115234375 -0.017923224717378616 -0.41380783915519714
12.50228500366211 0.004850174766033888 -0.3733085095882416
12.463479995727539 0.031189195811748505 -0.37242159247398376
12.460357666015625 0.05703938752412796 -0.37233203649520874
12.435653686523438 0.08349257707595825 -0.3715985417366028
12.428081512451172 0.10923400521278381 -0.3713786005973816
12.430913925170898 0.13532814383506775 -0.37146976590156555
12.426791191101074 0.1615634560585022 -0.371355801820755
12.407439231872559 0.18706479668617249 -0.3707888424396515
12.39894962310791 0.2134307324886322 -0.3705481290817261
12.346269607543945 0.34220224618911743 -0.3690617084503174
12.33101749420166 0.3673899173736572 -0.36862850189208984
12.305118560791016 0.3924464285373688 -0.3678783178329468
12.314567565917969 0.4188145399093628 -0.3681855797767639
12.302230834960938 0.4439558684825897 -0.3678438067436218
12.285921096801758 0.4691661596298218 -0.36738520860671997
12.280588150024414 0.4949691891670227 -0.3672557473182678
12.269373893737793 0.5200220346450806 -0.3696860671043396
12.246927261352539 0.5452823638916016 -0.36904364824295044
12.246480941772461 0.57072913646698 -0.36906540393829346
12.240386962890625 0.6221169829368591 -0.3689565658569336
12.220511436462402 0.6727169156074524 -0.3684399425983429
12.197328567504883 0.6968321800231934 -0.3677849769592285
12.185781478881836 0.7476722002029419 -0.3675268590450287
12.186214447021484 0.7730860114097595 -0.3675881624221802
12.168708801269531 0.7980788946151733 -0.3671112060546875
12.166376113891602 0.8232855796813965 -0.36709141731262207
12.158255577087402 0.8483524322509766 -0.36689984798431396
12.141189575195312 0.8729619979858398 -0.36596137285232544
12.126045227050781 0.897170901298523 -0.365294873714447
12.124649047851562 0.922636091709137 -0.3653101921081543
12.129520416259766 0.948806643486023 -0.3655160367488861
12.09439468383789 0.9713149070739746 -0.36451900005340576
12.095779418945312 0.9974366426467896 -0.36462318897247314
12.079792976379395 1.0213611125946045 -0.3642043471336365
12.073596954345703 1.046340823173523 -0.36408257484436035
12.066020965576172 1.071393609046936 -0.36392199993133545
12.047040939331055 1.095174789428711 -0.3634181022644043
12.047876358032227 1.1209406852722168 -0.3666817247867584
12.039426803588867 1.145359992980957 -0.36649635434150696
12.02790355682373 1.1697198152542114 -0.3662196099758148
12.004718780517578 1.1930932998657227 -0.3655893802642822
12.009674072265625 1.2187596559524536 -0.36581671237945557
12.003480911254883 1.244042992591858 -0.36570796370506287
11.978872299194336 1.266623616218567 -0.36503803730010986
11.962345123291016 1.2902475595474243 -0.3646160364151001
11.972021102905273 1.31690514087677 -0.3649950623512268
11.963621139526367 1.3411140441894531 -0.3645598292350769
11.950286865234375 1.3650004863739014 -0.3637681007385254
11.935953140258789 1.3889360427856445 -0.3634200692176819
11.930584907531738 1.413675308227539 -0.3633464574813843
11.922063827514648 1.4382338523864746 -0.36317843198776245
11.906036376953125 1.4613735675811768 -0.36278200149536133
11.913251876831055 1.4880988597869873 -0.3630977272987366
11.898597717285156 1.5113520622253418 -0.36274605989456177
11.873451232910156 1.5589964389801025 -0.36144471168518066
11.868985176086426 1.5834720134735107 -0.36140793561935425
11.84028434753418 1.630423665046692 -0.3607400357723236
11.842447280883789 1.6557700634002686 -0.36090970039367676
11.830873489379883 1.6799273490905762 -0.36040446162223816
11.816411972045898 1.7028967142105103 -0.36392420530319214
11.803348541259766 1.751786708831787 -0.363485187292099
11.78494644165039 1.7740581035614014 -0.363031268119812
11.778228759765625 1.7987864017486572 -0.3624735176563263
11.756708145141602 1.8204741477966309 -0.361927330493927
11.759464263916016 1.846160888671875 -0.36213043332099915
11.750086784362793 1.8701534271240234 -0.36170297861099243
11.75112247467041 1.8953301906585693 -0.3618543744087219
11.74925422668457 1.9207897186279297 -0.3619225025177002
11.73123550415039 1.9428478479385376 -0.3610241115093231
11.72010612487793 1.9662655591964722 -0.3608078360557556
11.707939147949219 1.989684820175171 -0.360561728477478
11.691320419311523 2.011831760406494 -0.35991978645324707
11.698222160339355 2.0387589931488037 -0.3602633774280548
11.677295684814453 2.060089588165283 -0.35928595066070557
11.670587539672852 2.084151268005371 -0.35921329259872437
11.66201114654541 2.1080734729766846 -0.3590857982635498
11.645173072814941 2.1299948692321777 -0.35844287276268005
11.641555786132812 2.1545727252960205 -0.3580058813095093
11.647087097167969 2.1810762882232666 -0.3583170771598816
11.630647659301758 2.2029895782470703 -0.35795116424560547
11.618959426879883 2.2264974117279053 -0.35747742652893066
11.617485046386719 2.251218795776367 -0.3575758934020996
11.612781524658203 2.276057004928589 -0.3609347641468048
11.601069450378418 2.2987711429595947 -0.36045917868614197
11.580606460571289 2.345445156097412 -0.3596635162830353
11.588449478149414 2.3720788955688477 -0.3600594699382782
11.543246269226074 2.413520336151123 -0.3587072491645813
11.538522720336914 2.437534809112549 -0.35825634002685547
11.530210494995117 2.4615211486816406 -0.3581591844558716
11.515098571777344 2.483290910720825 -0.3578508496284485
11.508380889892578 2.532609701156616 -0.35725075006484985
11.502178192138672 2.556281089782715 -0.3572219908237457
11.497467041015625 2.5810208320617676 -0.35698795318603516
11.490385055541992 2.604489326477051 -0.3569333255290985
11.485122680664062 2.628631114959717 -0.3564801812171936
11.466751098632812 2.6499533653259277 -0.35608208179473877
11.469280242919922 2.67562198638916 -0.3560742735862732
11.459968566894531 2.6992764472961426 -0.35596370697021484
11.454357147216797 2.723055362701416 -0.3555030822753906
11.439201354980469 2.7448105812072754 -0.3552092909812927
11.431124687194824 2.7684457302093506 -0.3548802435398102
11.434221267700195 2.794328451156616 -0.3546958565711975
11.419052124023438 2.816011428833008 -0.35440951585769653
11.412775039672852 2.8400745391845703 -0.3579345643520355
11.413052558898926 2.8653078079223633 -0.3576693534851074
11.388456344604492 2.8850083351135254 -0.3570898771286011
11.3837890625 2.9089789390563965 -0.3568758964538574
11.37596321105957 2.932407855987549 -0.3563602566719055
11.367746353149414 2.955935478210449 -0.35630249977111816
11.366003036499023 2.9806771278381348 -0.35617899894714355
11.347993850708008 3.001878261566162 -0.355355441570282
11.33378791809082 3.023299217224121 -0.3551065921783447
11.337593078613281 3.0502729415893555 -0.35517263412475586
11.330589294433594 3.073617458343506 -0.354690819978714
11.327061653137207 3.0979104042053223 -0.35478293895721436
11.305187225341797 3.1178998947143555 -0.3540526032447815
11.284383773803711 3.1373753547668457 -0.35314202308654785
11.275886535644531 3.1605029106140137 -0.353079229593277
11.253911972045898 3.1800217628479004 -0.35234761238098145
11.254533767700195 3.2054331302642822 -0.35211822390556335
11.238334655761719 3.226789951324463 -0.3518253564834595
11.230606079101562 3.2498130798339844 -0.35153406858444214
11.226301193237305 3.299868106842041 -0.35137295722961426
11.224414825439453 3.324634313583374 -0.35127127170562744
11.19685173034668 3.3678267002105713 -0.35013893246650696
11.178241729736328 3.387540340423584 -0.35262948274612427
11.154388427734375 3.4063448905944824 -0.3521072566509247
11.11249828338623 3.4187796115875244 -0.35075172781944275
11.078459739685059 3.4342312812805176 -0.3494569957256317
11.02609634399414 3.4430952072143555 -0.34802842140197754
10.986015319824219 3.455881118774414 -0.34628820419311523
10.962224006652832 3.4738852977752686 -0.34576982259750366
10.918135643005371 3.484862804412842 -0.3443562090396881
10.862695693969727 3.4922854900360107 -0.34238770604133606
10.828466415405273 3.506559371948242 -0.34154263138771057
10.788190841674805 3.5182690620422363 -0.3398103415966034
10.749299049377441 3.531008243560791 -0.3388219475746155
10.697267532348633 3.5385279655456543 -0.3374119997024536
10.647745132446289 3.546936511993408 -0.33539721369743347
10.623503684997559 3.5638322830200195 -0.3348727226257324
10.573492050170898 3.571484088897705 -0.3328465521335602
10.542938232421875 3.586273193359375 -0.33212217688560486
10.501812934875488 3.596616268157959 -0.3308198153972626
10.446602821350098 3.6019468307495117 -0.32888495922088623
10.407108306884766 3.613223075866699 -0.3278840184211731
10.377363204956055 3.627044200897217 -0.326508104801178
10.345879554748535 3.640859603881836 -0.3257656395435333
10.305292129516602 3.650628089904785 -0.324054479598999
10.261033058166504 3.658932685852051 -0.3229001462459564
10.241716384887695 3.6767241954803467 -0.3247731328010559
10.194124221801758 3.6835381984710693 -0.3232690691947937
10.149557113647461 3.6919655799865723 -0.32168135046958923
10.107190132141113 3.700322389602661 -0.3203429579734802
10.089229583740234 3.717508316040039 -0.32002028822898865
10.043257713317871 3.7249560356140137 -0.3183937072753906
10.019804000854492 3.739928960800171 -0.3176613450050354
9.935216903686523 3.7561025619506836 -0.3148297071456909
9.910916328430176 3.7704403400421143 -0.31389349699020386
9.867880821228027 3.778219223022461 -0.31255146861076355
9.839948654174805 3.790956497192383 -0.3115047514438629
9.798209190368652 3.798245668411255 -0.3102000653743744
9.759830474853516 3.807370185852051 -0.30883312225341797
9.720193862915039 3.8151676654815674 -0.307599276304245
9.698307037353516 3.8305068016052246 -0.3067551553249359
9.649480819702148 3.8343892097473145 -0.30523353815078735
9.612276077270508 3.8429651260375977 -0.3039071559906006
9.5805025100708 3.8537769317626953 -0.3029310703277588
9.542293548583984 3.8614325523376465 -0.3015737533569336
9.51923942565918 3.875789165496826 -0.300880491733551
9.475395202636719 3.8808798789978027 -0.299349308013916
9.4586763381958 3.896973133087158 -0.2988530993461609
9.415575981140137 3.9027655124664307 -0.29735368490219116
9.377547264099121 3.909825086593628 -0.298492431640625
9.350346565246582 3.921520709991455 -0.2972705364227295
9.31492805480957 3.929847240447998 -0.2964046597480774
9.274617195129395 3.935532569885254 -0.29476794600486755
9.24652099609375 3.946941375732422 -0.2941398322582245
9.227653503417969 3.961545705795288 -0.2931894063949585
9.1897554397583 3.968308448791504 -0.2922500967979431
9.150313377380371 3.9740641117095947 -0.2906515896320343
9.124547004699707 3.9854001998901367 -0.2897033393383026
9.088555335998535 3.992820978164673 -0.28861624002456665
9.058542251586914 4.002081871032715 -0.2875356078147888
9.014355659484863 4.0051751136779785 -0.28618285059928894
8.996648788452148 4.020106792449951 -0.2855035662651062
8.976856231689453 4.033631801605225 -0.28492769598960876
8.929887771606445 4.0354766845703125 -0.28332334756851196
8.894744873046875 4.041844844818115 -0.2822624742984772
8.888141632080078 4.061118125915527 -0.28172141313552856
8.832019805908203 4.0583038330078125 -0.2802165448665619
8.805841445922852 4.068428039550781 -0.27906161546707153
8.752530097961426 4.088613510131836 -0.2773236036300659
8.711614608764648 4.091545104980469 -0.2759188413619995
8.695550918579102 4.106697082519531 -0.27547645568847656
8.66309928894043 4.113380432128906 -0.2741331160068512
8.624591827392578 4.1170501708984375 -0.27497854828834534
8.598675727844238 4.127255916595459 -0.27385056018829346
8.56591510772705 4.133424758911133 -0.27249830961227417
8.541433334350586 4.144129276275635 -0.27200084924697876
8.509286880493164 4.150369644165039 -0.2706727087497711
8.451958656311035 4.166562080383301 -0.26882848143577576
8.430547714233398 4.177775859832764 -0.26842352747917175
8.39207935333252 4.181066513061523 -0.26690882444381714
8.36974811553955 4.191643238067627 -0.26590389013290405
8.339984893798828 4.198409080505371 -0.2652338147163391
8.313218116760254 4.207216739654541 -0.26409924030303955
8.284652709960938 4.214378833770752 -0.26290038228034973
8.253393173217773 4.220286846160889 -0.2621897757053375
8.236496925354004 4.233639717102051 -0.26137053966522217
8.19845962524414 4.23561954498291 -0.2604427933692932
8.172243118286133 4.2442169189453125 -0.2593337893486023
8.148268699645996 4.25325870513916 -0.25829148292541504
8.117806434631348 4.258817672729492 -0.25760507583618164
8.096546173095703 4.269744873046875 -0.2566605508327484
8.059185028076172 4.271442413330078 -0.255398154258728
8.04084300994873 4.283747673034668 -0.25490838289260864
8.009441375732422 4.2883806228637695 -0.2536390423774719
7.983818054199219 4.296003341674805 -0.2531098425388336
7.959812164306641 4.305037498474121 -0.2537844181060791
7.931907653808594 4.311245441436768 -0.25262802839279175
7.907565116882324 4.31951904296875 -0.25194409489631653
7.874091148376465 4.322876453399658 -0.2508155107498169
7.857687950134277 4.335116386413574 -0.2500310242176056
7.816855430603027 4.334395408630371 -0.2488306164741516
7.800339698791504 4.346426963806152 -0.24824106693267822
7.778232574462891 4.355508327484131 -0.2472826987504959
7.750431060791016 4.36149263381958 -0.24649767577648163
7.719898223876953 4.365428924560547 -0.24546566605567932
7.695013046264648 4.372678279876709 -0.244424968957901
7.670184135437012 4.380050182342529 -0.2437373697757721
7.646572113037109 4.387634754180908 -0.242929607629776
7.620462894439697 4.394318103790283 -0.24186059832572937
7.592195510864258 4.3990373611450195 -0.24106121063232422
7.541146755218506 4.411984443664551 -0.23915141820907593
7.518295764923096 4.419582843780518 -0.23852688074111938
7.494268894195557 4.427027702331543 -0.23772242665290833
7.467861175537109 4.432359218597412 -0.2366451919078827
7.417494773864746 4.444814205169678 -0.23492370545864105
7.397555351257324 4.4537553787231445 -0.2342454195022583
7.348123073577881 4.466264724731445 -0.2345120906829834
7.33148193359375 4.477011203765869 -0.2337513267993927
7.3014421463012695 4.480108737945557 -0.23257574439048767
7.280953884124756 4.4883623123168945 -0.23221831023693085
7.256233215332031 4.494149208068848 -0.2312088906764984
7.234004974365234 4.501573085784912 -0.23028221726417542
7.218320846557617 4.512619972229004 -0.22956125438213348
7.1882829666137695 4.515227317810059 -0.2289123386144638
7.16854190826416 4.5236005783081055 -0.22806444764137268
7.137524604797363 4.524764060974121 -0.22685950994491577
7.126084327697754 4.538881301879883 -0.22628775238990784
7.096470832824707 4.540748119354248 -0.22564566135406494
7.065484523773193 4.54222297668457 -0.22445610165596008
7.060840606689453 4.559974670410156 -0.22409501671791077
7.025097370147705 4.557577133178711 -0.2227495014667511
7.011242866516113 4.569899559020996 -0.22243601083755493
6.983294486999512 4.572360038757324 -0.22152277827262878
6.956972122192383 4.575995922088623 -0.2204824984073639
6.937216758728027 4.58404541015625 -0.21965524554252625
6.912442207336426 4.588312149047852 -0.2189909815788269
6.892540454864502 4.596343040466309 -0.21834592521190643
6.872123718261719 4.603360176086426 -0.21749505400657654
6.847484588623047 4.60746955871582 -0.21651378273963928
6.822162628173828 4.611633777618408 -0.21584486961364746
6.810395240783691 4.624298095703125 -0.21696075797080994
6.790693283081055 4.631755352020264 -0.2161390483379364
6.751286506652832 4.625823974609375 -0.2151961773633957
6.738049030303955 4.637331008911133 -0.21458110213279724
6.719098091125488 4.645471096038818 -0.2137937843799591
6.707257270812988 4.657886981964111 -0.21322527527809143
6.6653971672058105 4.649349212646484 -0.21170537173748016
6.6537251472473145 4.6623687744140625 -0.21164944767951965
6.6226983070373535 4.661149024963379 -0.210475891828537
6.608458995819092 4.672269821166992 -0.20984551310539246
6.586525917053223 4.67729377746582 -0.20896458625793457
6.570254802703857 4.686278820037842 -0.20826342701911926
6.552624702453613 4.694855690002441 -0.20802041888237
6.537059783935547 4.704264163970947 -0.20734407007694244
6.491340637207031 4.712984561920166 -0.20554125308990479
6.467288970947266 4.716048717498779 -0.2046014666557312
6.443861961364746 4.720083236694336 -0.20369085669517517
6.431039333343506 4.731228828430176 -0.20359554886817932
6.409869194030762 4.736186981201172 -0.20274852216243744
6.371795654296875 4.729130744934082 -0.2013796716928482
6.367177963256836 4.746227264404297 -0.20105919241905212
6.350088119506836 4.754234790802002 -0.20034897327423096
6.31003475189209 4.7451019287109375 -0.1989196538925171
6.300446510314941 4.758391857147217 -0.20068511366844177
6.289936542510986 4.771589756011963 -0.20019245147705078
6.269383430480957 4.776528358459473 -0.19937178492546082
6.254620552062988 4.785826683044434 -0.1987365484237671
6.224032402038574 4.783535957336426 -0.1976097822189331
6.21052360534668 4.793687343597412 -0.19732539355754852
6.177874565124512 4.789581298828125 -0.19630563259124756
6.162938117980957 4.798511028289795 -0.1956697404384613
6.141195297241211 4.802084922790527 -0.1948195993900299
6.130703926086426 4.815021514892578 -0.19433608651161194
6.100644588470459 4.811915397644043 -0.1932249665260315
6.084873676300049 4.8202080726623535 -0.19257104396820068
6.064032077789307 4.824602127075195 -0.19176100194454193
6.048431873321533 4.832720756530762 -0.19141560792922974
6.027279853820801 4.8365631103515625 -0.19076329469680786
6.006794452667236 4.841039657592773 -0.18996727466583252
5.998673915863037 4.855064392089844 -0.18955710530281067
5.974079132080078 4.856316089630127 -0.18863677978515625
5.9556498527526855 4.861895561218262 -0.18790385127067566
5.936128616333008 4.866522312164307 -0.18713751435279846
5.920131206512451 4.87459135055542 -0.18649286031723022
5.899046897888184 4.8778076171875 -0.18567927181720734
5.880188941955566 4.883011341094971 -0.18494080007076263
5.860282897949219 4.887454032897949 -0.18567246198654175
5.837301731109619 4.888862609863281 -0.18546393513679504
5.818090915679932 4.89395809173584 -0.1847209930419922
5.801498889923096 4.900595188140869 -0.18405291438102722
5.763040542602539 4.909846305847168 -0.182562455534935
5.741235733032227 4.911867618560791 -0.18173280358314514
5.725423812866211 4.919562339782715 -0.1814001053571701
5.714168071746826 4.930540084838867 -0.1809067726135254
5.687807083129883 4.928422451019287 -0.17993557453155518
5.674012660980225 4.937729835510254 -0.17937372624874115
5.6602373123168945 4.946422100067139 -0.17880302667617798
5.612096786499023 4.94619083404541 -0.17702466249465942
5.595897674560547 4.952584743499756 -0.1765439808368683
5.582320690155029 4.9618754386901855 -0.17599356174468994
5.5648627281188965 4.967067718505859 -0.17531222105026245
5.540551662445068 4.966063976287842 -0.17441624402999878
5.531149864196777 4.978986740112305 -0.17400023341178894
5.510915279388428 4.981513500213623 -0.17323485016822815
5.488327980041504 4.981831073760986 -0.17239679396152496
5.472323417663574 4.9886674880981445 -0.17177622020244598
5.454586029052734 4.993262767791748 -0.17109271883964539
5.432800769805908 4.994298934936523 -0.1702868640422821
5.419426441192627 5.003189563751221 -0.17119938135147095
5.40333366394043 5.00914192199707 -0.17104844748973846
5.389049053192139 5.01734733581543 -0.17048627138137817
5.366926670074463 5.01758337020874 -0.16966624557971954
5.347990036010742 5.021114349365234 -0.16895580291748047
5.330087661743164 5.025375843048096 -0.16827437281608582
5.321232318878174 5.03792667388916 -0.16787780821323395
5.300515174865723 5.039828300476074 -0.16711604595184326
5.2767653465271 5.038137912750244 -0.1662517488002777
5.268444061279297 5.051133632659912 -0.16587337851524353
5.246230125427246 5.051389694213867 -0.16506892442703247
5.230984687805176 5.057671546936035 -0.1644745022058487
5.213842391967773 5.062074184417725 -0.16382133960723877
5.197214126586914 5.067542552947998 -0.16319513320922852
5.179562091827393 5.071340560913086 -0.16252923011779785
5.156728744506836 5.070606231689453 -0.1617099493741989
5.147345066070557 5.082432270050049 -0.16130439937114716
5.125692844390869 5.0821027755737305 -0.16051460802555084
5.113348960876465 5.091571807861328 -0.16002902388572693
5.091098785400391 5.0904998779296875 -0.1592225432395935
5.083635330200195 5.104177951812744 -0.15888090431690216
5.060286998748779 5.102489471435547 -0.15805190801620483
5.046548843383789 5.109801769256592 -0.1575162261724472
5.026398181915283 5.110567569732666 -0.15649732947349548
5.013099670410156 5.118873596191406 -0.15711641311645508
4.989725589752197 5.116201877593994 -0.15674257278442383
4.976019859313965 5.124002456665039 -0.15621967613697052
4.962063789367676 5.130892753601074 -0.15567946434020996
4.95292854309082 5.142760753631592 -0.15513695776462555
4.931487083435059 5.142438888549805 -0.15437297523021698
4.912470817565918 5.143934726715088 -0.15367724001407623
4.885560989379883 5.159082889556885 -0.1526470184326172
4.859454154968262 5.152890205383301 -0.15173126757144928
4.851785659790039 5.166828155517578 -0.15140365064144135
4.832597732543945 5.167843341827393 -0.15070754289627075
4.816478252410889 5.172079086303711 -0.15010720491409302
4.800119400024414 5.176640510559082 -0.14923276007175446
4.790657043457031 5.18798828125 -0.14884240925312042
4.769683837890625 5.186829566955566 -0.14809396862983704
4.759775638580322 5.198299407958984 -0.1477014571428299
4.740298748016357 5.198647499084473 -0.1470009833574295
4.718001365661621 5.196447372436523 -0.1462254673242569
4.697375297546387 5.195352077484131 -0.1453392505645752
4.68619966506958 5.2046613693237305 -0.144900843501091
4.674478530883789 5.214000225067139 -0.144453763961792
4.663565635681152 5.223597526550293 -0.1440250426530838
4.641428470611572 5.22056770324707 -0.14324811100959778
4.620659828186035 5.219620704650879 -0.14334803819656372
4.610355377197266 5.229806900024414 -0.14339378476142883
4.588423728942871 5.227169513702393 -0.14263015985488892
4.575686931610107 5.234759330749512 -0.1419992744922638
4.559823036193848 5.238509178161621 -0.1414211392402649
4.5579938888549805 5.259052276611328 -0.14128699898719788
4.534256458282471 5.2536516189575195 -0.14046423137187958
4.513785362243652 5.251928806304932 -0.1394716203212738
4.505122661590576 5.264557838439941 -0.13912878930568695
4.491296291351318 5.27050256729126 -0.1386169195175171
4.472898483276367 5.271451950073242 -0.13797080516815186
4.45768928527832 5.275912284851074 -0.1372697353363037
4.445376873016357 5.283541679382324 -0.13680870831012726
4.419524192810059 5.275418758392334 -0.13593389093875885
4.402826309204102 5.277929306030273 -0.13507039844989777
4.394824504852295 5.290618896484375 -0.13474231958389282
4.3796515464782715 5.295093059539795 -0.13420100510120392
4.367311477661133 5.3027753829956055 -0.1337425261735916
4.349165916442871 5.303130149841309 -0.13310518860816956
4.34350061416626 5.319356918334961 -0.132711261510849
4.318859100341797 5.311640739440918 -0.13187815248966217
4.294978618621826 5.304722785949707 -0.13079747557640076
4.288395881652832 5.319789409637451 -0.13052621483802795
4.275406360626221 5.326260089874268 -0.1300501823425293
4.259559631347656 5.329801559448242 -0.13059887290000916
4.235729217529297 5.322593688964844 -0.12979058921337128
4.235166549682617 5.344613075256348 -0.12942913174629211
4.2065348625183105 5.331840991973877 -0.12848684191703796
4.188801288604736 5.332081317901611 -0.1278681457042694
4.178959846496582 5.3423380851745605 -0.12749183177947998
4.166553974151611 5.349989414215088 -0.12690193951129913
4.151487827301025 5.353524208068848 -0.1263669729232788
4.136209964752197 5.356741905212402 -0.12556011974811554
4.1269850730896 5.368463516235352 -0.12521404027938843
4.113945960998535 5.374546527862549 -0.12474464625120163
4.087095260620117 5.362488746643066 -0.12385421991348267
4.083132266998291 5.381093502044678 -0.1235257089138031
4.065952777862549 5.381608963012695 -0.12266462296247482
4.051188945770264 5.385951042175293 -0.12215501070022583
4.030097007751465 5.3811187744140625 -0.1214451864361763
4.023011207580566 5.394955635070801 -0.12115789949893951
4.011575698852539 5.403669834136963 -0.12060272693634033
3.9970932006835938 5.4075727462768555 -0.11983088403940201
3.98122239112854 5.409550189971924 -0.11927986145019531
3.9651222229003906 5.411852836608887 -0.11873438209295273
3.947275400161743 5.411011219024658 -0.11812716722488403
3.9165568351745605 5.416667461395264 -0.11666516959667206
3.9082579612731934 5.428881645202637 -0.11716251075267792
3.8744354248046875 5.429981708526611 -0.11601763963699341
3.864354133605957 5.439692497253418 -0.11523887515068054
3.852292537689209 5.447323799133301 -0.11481931805610657
3.8313682079315186 5.441655158996582 -0.11412488669157028
3.8204522132873535 5.450142860412598 -0.11373081803321838
3.796677589416504 5.440918922424316 -0.11255796253681183
3.7900748252868652 5.4555463790893555 -0.11229301244020462
3.7773399353027344 5.461366653442383 -0.11184476315975189
3.765673875808716 5.469438076019287 -0.11144107580184937
3.751708507537842 5.473437309265137 -0.110552579164505
3.7373199462890625 5.4772443771362305 -0.11006534844636917
3.7192916870117188 5.475449085235596 -0.109467051923275
3.708042621612549 5.483335018157959 -0.10906754434108734
3.6951956748962402 5.4895734786987305 -0.10862935334444046
3.674557685852051 5.483443260192871 -0.10755209624767303
3.659761428833008 5.4859466552734375 -0.10704819858074188
3.6511647701263428 5.498467445373535 -0.10673767328262329
3.632565975189209 5.4951701164245605 -0.1061246246099472
3.620027542114258 5.500984191894531 -0.10528825223445892
3.6061811447143555 5.505518913269043 -0.10482455044984818
3.596414566040039 5.515545845031738 -0.10447157919406891
3.5820257663726807 5.518475532531738 -0.10372576117515564
3.566087245941162 5.519704341888428 -0.10360616445541382
3.547043561935425 5.515303611755371 -0.1029832512140274
3.536135196685791 5.523503303527832 -0.10260020941495895
3.51884126663208 5.522434711456299 -0.10164003074169159
3.5037941932678223 5.524081707000732 -0.1011371836066246
3.492550849914551 5.532183647155762 -0.10075076669454575
3.48284649848938 5.542524337768555 -0.10040690004825592
3.4637861251831055 5.537668228149414 -0.09939022362232208
3.459271192550659 5.556817531585693 -0.09920219331979752
3.446981906890869 5.562773704528809 -0.09878039360046387
3.4310455322265625 5.56280517578125 -0.09799852222204208
3.4121971130371094 5.5587873458862305 -0.097259022295475
3.4057350158691406 5.5741729736328125 -0.09700635075569153
3.388019561767578 5.571130752563477 -0.09643290936946869
3.3772480487823486 5.580234527587891 -0.09566923975944519
3.354022264480591 5.567911148071289 -0.09494076669216156
3.3447835445404053 5.578733444213867 -0.09460960328578949
3.330441474914551 5.581814765930176 -0.09388819336891174
3.314699172973633 5.581723213195801 -0.09323348850011826
3.303816080093384 5.590288162231445 -0.09286309778690338
3.294829845428467 5.60186767578125 -0.09254390001296997
3.27675724029541 5.597691535949707 -0.09157030284404755
3.265000820159912 5.604756832122803 -0.09117686748504639
3.254502296447754 5.613766193389893 -0.09081587940454483
3.238873243331909 5.613623142242432 -0.09045016765594482
3.2277657985687256 5.621800422668457 -0.08968029171228409
3.2117295265197754 5.621134281158447 -0.08916676044464111
3.2017335891723633 5.630734443664551 -0.08881823718547821
3.1841156482696533 5.627695083618164 -0.08787335455417633
3.1654224395751953 5.621845722198486 -0.0872851088643074
3.152860641479492 5.6268157958984375 -0.08686661720275879
3.142674446105957 5.6368408203125 -0.08626994490623474
3.128122329711914 5.638216972351074 -0.0856580063700676
3.1155738830566406 5.643172264099121 -0.08524102717638016
3.1100199222564697 5.661663055419922 -0.08477157354354858
3.0909721851348877 5.6547651290893555 -0.08403873443603516
3.0817341804504395 5.665769577026367 -0.08371370285749435
3.065906047821045 5.665470123291016 -0.08296532928943634
3.052987575531006 5.669675827026367 -0.08240136504173279
6.6291327476501465 -11.688201904296875 -0.11916099488735199
6.664364337921143 -11.693704605102539 -0.12017963826656342
6.6912665367126465 -11.684476852416992 -0.1210491806268692
6.726806640625 -11.688566207885742 -0.12206374853849411
6.767017364501953 -11.702198028564453 -0.12317794561386108
6.789604187011719 -11.685232162475586 -0.12397170066833496
6.823698043823242 -11.68636703491211 -0.12496480345726013
6.851967811584473 -11.679054260253906 -0.12586362659931183
6.917571067810059 -11.677913665771484 -0.12782154977321625
6.949526309967041 -11.676531791687012 -0.12879407405853271
7.016628265380859 -11.67709732055664 -0.13078820705413818
7.043007850646973 -11.666093826293945 -0.13165992498397827
7.1091084480285645 -11.664274215698242 -0.1336437165737152
7.141573905944824 -11.661979675292969 -0.13462552428245544
7.175251007080078 -11.661996841430664 -0.135633647441864
7.20745849609375 -11.660058975219727 -0.1366221010684967
7.238691329956055 -11.65540885925293 -0.13758420944213867
7.271461486816406 -11.653581619262695 -0.13966065645217896
7.311105728149414 -11.663153648376465 -0.14109696447849274
7.337642192840576 -11.650671005249023 -0.1419748067855835
7.36650276184082 -11.64228630065918 -0.1428990513086319
7.4076690673828125 -11.653754234313965 -0.1440727263689041
7.426753044128418 -11.629386901855469 -0.14480730891227722
7.464423656463623 -11.634519577026367 -0.1459096521139145
7.4990434646606445 -11.635284423828125 -0.14695806801319122
7.531774520874023 -11.631978988647461 -0.14796429872512817
7.56090784072876 -11.623476028442383 -0.14890289306640625
7.598651885986328 -11.628634452819824 -0.15001948177814484
7.626765251159668 -11.617385864257812 -0.15093208849430084
7.663272857666016 -11.620360374450684 -0.15202666819095612
7.698846340179443 -11.62076187133789 -0.15309593081474304
7.733262062072754 -11.61971664428711 -0.15414805710315704
7.764269828796387 -11.613981246948242 -0.1551365852355957
7.800612926483154 -11.615111351013184 -0.15622715651988983
7.831691741943359 -11.608720779418945 -0.15721522271633148
7.871042728424072 -11.614988327026367 -0.15837828814983368
7.903167247772217 -11.60891342163086 -0.15938271582126617
7.931514739990234 -11.598739624023438 -0.16032683849334717
7.964003562927246 -11.594533920288086 -0.16135497391223907
8.002180099487305 -11.596952438354492 -0.16248631477355957
8.034356117248535 -11.592048645019531 -0.1635112464427948
8.069192886352539 -11.590861320495605 -0.16570474207401276
8.103240966796875 -11.586904525756836 -0.16675737500190735
8.13419246673584 -11.579920768737793 -0.16776354610919952
8.168641090393066 -11.576839447021484 -0.16883425414562225
8.207073211669922 -11.57968521118164 -0.16999293863773346
8.238276481628418 -11.57273006439209 -0.17100632190704346
8.269535064697266 -11.564803123474121 -0.17201751470565796
8.30514144897461 -11.563273429870605 -0.1731206774711609
8.343836784362793 -11.566414833068848 -0.17429901659488678
8.377445220947266 -11.5614013671875 -0.17535936832427979
8.417010307312012 -11.564886093139648 -0.1765555441379547
8.434541702270508 -11.538570404052734 -0.17729046940803528
8.47808837890625 -11.546289443969727 -0.1785624921321869
8.522112846374512 -11.555902481079102 -0.17986080050468445
8.581602096557617 -11.534558296203613 -0.1818440556526184
8.618345260620117 -11.53388786315918 -0.18299412727355957
8.693805694580078 -11.533258438110352 -0.1853276789188385
8.722467422485352 -11.521463394165039 -0.18630892038345337
8.796285629272461 -11.517852783203125 -0.18861815333366394
8.844120025634766 -11.530799865722656 -0.1900194138288498
8.913614273071289 -11.520608901977539 -0.1931348443031311
8.94866943359375 -11.516458511352539 -0.19426709413528442
9.012468338012695 -11.498287200927734 -0.19606320559978485
9.048321723937988 -11.494819641113281 -0.19721922278404236
9.091997146606445 -11.499674797058105 -0.1985284686088562
9.126626014709473 -11.494362831115723 -0.1996614933013916
9.20234489440918 -11.490028381347656 -0.2020546793937683
9.241679191589355 -11.490188598632812 -0.20329183340072632
9.278580665588379 -11.485742568969727 -0.20446598529815674
9.324548721313477 -11.493769645690918 -0.20585602521896362
9.352498054504395 -11.479450225830078 -0.2068515419960022
9.385331153869629 -11.469625473022461 -0.20793749392032623
9.432709693908691 -11.478838920593262 -0.20936927199363708
9.463090896606445 -11.467214584350586 -0.21042093634605408
9.509086608886719 -11.472938537597656 -0.21180936694145203
9.537256240844727 -11.458444595336914 -0.212816059589386
9.581737518310547 -11.463420867919922 -0.2141893357038498
9.619752883911133 -11.459065437316895 -0.2154044508934021
9.651674270629883 -11.448761940002441 -0.21650102734565735
9.690727233886719 -11.445883750915527 -0.2177492380142212
9.734235763549805 -11.448507308959961 -0.2187790870666504
9.769123077392578 -11.441341400146484 -0.2199467122554779
9.807332992553711 -11.437028884887695 -0.2215087115764618
9.841249465942383 -11.428000450134277 -0.22265252470970154
9.889176368713379 -11.435574531555176 -0.2241242527961731
9.919671058654785 -11.42143440246582 -0.22518405318260193
9.965753555297852 -11.426511764526367 -0.22661831974983215
9.999382019042969 -11.417152404785156 -0.227769136428833
10.042831420898438 -11.417459487915039 -0.22913195192813873
10.079431533813477 -11.411229133605957 -0.23035664856433868
10.125397682189941 -11.414533615112305 -0.2317865490913391
10.153531074523926 -11.398014068603516 -0.23281413316726685
10.203330993652344 -11.406173706054688 -0.23434756696224213
10.229900360107422 -11.387324333190918 -0.23500528931617737
10.280773162841797 -11.395795822143555 -0.23656269907951355
10.31243896484375 -11.383312225341797 -0.23768296837806702
10.367276191711426 -11.394826889038086 -0.23932811617851257
10.398578643798828 -11.381692886352539 -0.24044537544250488
10.446561813354492 -11.386669158935547 -0.2419523149728775
10.528776168823242 -11.379703521728516 -0.24402877688407898
10.56358814239502 -11.369009017944336 -0.2452225387096405
10.60544204711914 -11.36616325378418 -0.24658998847007751
10.64909839630127 -11.365575790405273 -0.24800658226013184
10.686996459960938 -11.3572998046875 -0.24893808364868164
10.732552528381348 -11.358391761779785 -0.2504017949104309
10.77424144744873 -11.355215072631836 -0.2521205544471741
10.80752944946289 -11.3416748046875 -0.2532908618450165
10.853748321533203 -11.342951774597168 -0.2547784149646759
10.896889686584473 -11.340829849243164 -0.25619757175445557
10.945592880249023 -11.342916488647461 -0.25773704051971436
10.984509468078613 -11.33607292175293 -0.2590622305870056
11.02468490600586 -11.330390930175781 -0.2604169249534607
11.076953887939453 -11.33555793762207 -0.26204752922058105
11.1066312789917 -11.318843841552734 -0.2628213167190552
11.202207565307617 -11.320480346679688 -0.26526856422424316
11.233625411987305 -11.30521011352539 -0.2664288580417633
11.286701202392578 -11.310197830200195 -0.26808831095695496
11.328943252563477 -11.305508613586426 -0.269512414932251
11.375791549682617 -11.305240631103516 -0.2710484266281128
11.407852172851562 -11.288766860961914 -0.2722129225730896
11.46504020690918 -11.298364639282227 -0.27400314807891846
11.538810729980469 -11.27566909790039 -0.27624812722206116
11.589010238647461 -11.277804374694824 -0.2772388756275177
11.686162948608398 -11.27691650390625 -0.2804073393344879
11.721826553344727 -11.264449119567871 -0.2816949188709259
11.821808815002441 -11.265151977539062 -0.28530383110046387
11.859819412231445 -11.25450325012207 -0.2866533100605011
11.893686294555664 -11.238452911376953 -0.2878919839859009
11.940349578857422 -11.235734939575195 -0.2884547710418701
12.040897369384766 -11.235116958618164 -0.29174917936325073
12.085376739501953 -11.229795455932617 -0.2932705581188202
12.135868072509766 -11.228497505187988 -0.2949215769767761
12.192536354064941 -11.234057426452637 -0.2967434227466583
12.229022979736328 -11.220843315124512 -0.29807811975479126
12.279655456542969 -11.21907901763916 -0.299384206533432
12.327880859375 -11.216291427612305 -0.30035200715065
12.369412422180176 -11.20724868774414 -0.30181533098220825
12.413934707641602 -11.199393272399902 -0.30333849787712097
12.449474334716797 -11.184679985046387 -0.3046601414680481
12.517745971679688 -11.199158668518066 -0.3067864775657654
12.55941390991211 -11.188224792480469 -0.307883620262146
12.604572296142578 -11.181625366210938 -0.3087870180606842
12.655567169189453 -11.179133415222168 -0.310486376285553
12.705793380737305 -11.176155090332031 -0.312177449464798
12.756848335266113 -11.174193382263184 -0.31389880180358887
12.79782485961914 -11.161860466003418 -0.3153544068336487
12.84567642211914 -11.156745910644531 -0.3166322410106659
12.88322639465332 -11.142539978027344 -0.3173554241657257
12.939122200012207 -11.142656326293945 -0.31925782561302185
12.97867488861084 -11.129894256591797 -0.32033422589302063
13.043664932250977 -11.137848854064941 -0.32240504026412964
13.090164184570312 -11.13017463684082 -0.32402554154396057
13.134008407592773 -11.120576858520508 -0.325590044260025
13.19050407409668 -11.120611190795898 -0.3274596929550171
13.243865966796875 -11.118171691894531 -0.3285808861255646
13.297332763671875 -11.116097450256348 -0.33001554012298584
13.336618423461914 -11.100625991821289 -0.3314615488052368
13.399965286254883 -11.106359481811523 -0.3335244059562683
13.447650909423828 -11.098886489868164 -0.3352033197879791
13.493046760559082 -11.087980270385742 -0.33680829405784607
13.539961814880371 -11.079541206359863 -0.3374052047729492
13.592811584472656 -11.074390411376953 -0.33920255303382874
13.643943786621094 -11.069021224975586 -0.3409779369831085
13.70325756072998 -11.070066452026367 -0.3429597020149231
13.756828308105469 -11.064859390258789 -0.3447870910167694
13.818044662475586 -11.066950798034668 -0.3457445800304413
13.859865188598633 -11.053313255310059 -0.347299724817276
13.9090576171875 -11.044014930725098 -0.3490239083766937
13.96957778930664 -11.044880867004395 -0.35105377435684204
14.018778800964355 -11.036581039428711 -0.35210105776786804
14.077207565307617 -11.033951759338379 -0.353680819272995
14.123339653015137 -11.022872924804688 -0.35535746812820435
14.233161926269531 -11.012446403503418 -0.3588307201862335
14.281599044799805 -11.002618789672852 -0.360576331615448
14.348546981811523 -11.005434036254883 -0.3627762794494629
14.406225204467773 -11.002264022827148 -0.3640499413013458
14.519207000732422 -10.992048263549805 -0.3675607740879059
14.5742826461792 -10.98624038696289 -0.3694916367530823
14.684915542602539 -10.972956657409668 -0.37224093079566956
14.747682571411133 -10.972238540649414 -0.37437617778778076
14.797063827514648 -10.959949493408203 -0.3761588931083679
14.854930877685547 -10.955144882202148 -0.37745171785354614
14.894697189331055 -10.936824798583984 -0.37861168384552
14.96512222290039 -10.939407348632812 -0.38093918561935425
15.028308868408203 -10.937817573547363 -0.38310396671295166
15.086894989013672 -10.931732177734375 -0.3844115436077118
15.146463394165039 -10.926531791687012 -0.3860796093940735
15.20527458190918 -10.92105484008789 -0.3881438672542572
15.26224136352539 -10.912622451782227 -0.3901473879814148
15.31588363647461 -10.9030179977417 -0.39134740829467773
15.379619598388672 -10.900369644165039 -0.3931388556957245
15.440099716186523 -10.893758773803711 -0.39524340629577637
15.498642921447754 -10.88696002960205 -0.3973190188407898
15.558992385864258 -10.881202697753906 -0.39985787868499756
15.619983673095703 -10.874244689941406 -0.40198957920074463
15.684864044189453 -10.871155738830566 -0.4030778408050537
15.740240097045898 -10.86033821105957 -0.40507757663726807
15.805242538452148 -10.856340408325195 -0.407334566116333
15.923673629760742 -10.839271545410156 -0.4103829264640808
15.988260269165039 -10.834750175476074 -0.41264647245407104
16.06070327758789 -10.834357261657715 -0.4151069223880768
16.120502471923828 -10.825579643249512 -0.4168294668197632
16.174686431884766 -10.813331604003906 -0.41807132959365845
16.239595413208008 -10.807109832763672 -0.4203486442565918
16.304624557495117 -10.801122665405273 -0.4226388931274414
16.358360290527344 -10.787942886352539 -0.4234505891799927
16.431629180908203 -10.785966873168945 -0.4259501099586487
16.49317741394043 -10.777459144592285 -0.4281679391860962
16.553081512451172 -10.767650604248047 -0.4291420578956604
16.589269638061523 -10.740827560424805 -0.4306912422180176
16.62467384338379 -10.71485424041748 -0.43223991990089417
16.64670181274414 -10.678787231445312 -0.43300166726112366
16.671798706054688 -10.646116256713867 -0.43350350856781006
16.68536376953125 -10.606100082397461 -0.4344903826713562
16.65573501586914 -10.537375450134277 -0.4343351721763611
16.610361099243164 -10.460466384887695 -0.434143602848053
16.58424186706543 -10.396016120910645 -0.43373245000839233
16.567211151123047 -10.336106300354004 -0.43390095233917236
16.541213989257812 -10.272263526916504 -0.4338499903678894
16.496906280517578 -10.148728370666504 -0.43274569511413574
16.470949172973633 -10.085704803466797 -0.4326942265033722
16.455156326293945 -10.027765274047852 -0.43171563744544983
16.433250427246094 -9.967706680297852 -0.4317709803581238
16.410099029541016 -9.907139778137207 -0.43179211020469666
16.38941764831543 -9.846942901611328 -0.43069347739219666
16.301971435546875 -9.655448913574219 -0.42910587787628174
16.269329071044922 -9.59056568145752 -0.42887523770332336
16.269502639770508 -9.543893814086914 -0.4294931888580322
16.24763298034668 -9.485799789428711 -0.4283953309059143
16.212547302246094 -9.420258522033691 -0.4280989170074463
16.198978424072266 -9.366144180297852 -0.4283539652824402
16.184274673461914 -9.312882423400879 -0.4274531900882721
16.134937286376953 -9.238666534423828 -0.42676326632499695
16.112287521362305 -9.181352615356445 -0.426791787147522
16.084720611572266 -9.121479988098145 -0.42555931210517883
16.058658599853516 -9.061416625976562 -0.4254826307296753
16.011919021606445 -8.991286277770996 -0.42632460594177246
15.99507999420166 -8.93822193145752 -0.4265006184577942
15.97476863861084 -8.8821439743042 -0.42656856775283813
15.958108901977539 -8.82957649230957 -0.4256342649459839
15.928727149963379 -8.770194053649902 -0.425473690032959
15.900373458862305 -8.710371017456055 -0.4253252148628235
15.881414413452148 -8.657186508178711 -0.4243372678756714
15.845888137817383 -8.593962669372559 -0.4239966869354248
15.812434196472168 -8.533400535583496 -0.42301273345947266
15.800178527832031 -8.484496116638184 -0.4229229986667633
15.775518417358398 -8.427886009216309 -0.42287176847457886
15.741493225097656 -8.367765426635742 -0.421493262052536
15.738911628723145 -8.323751449584961 -0.4220392107963562
15.707948684692383 -8.265276908874512 -0.4211251735687256
15.670907974243164 -8.204307556152344 -0.4203745126724243
15.647958755493164 -8.149750709533691 -0.42036837339401245
15.568013191223145 -8.026150703430176 -0.4183919429779053
15.540557861328125 -7.970019340515137 -0.4182615280151367
15.547536849975586 -7.932892799377441 -0.41800713539123535
15.492709159851074 -7.863250255584717 -0.4171414375305176
15.419246673583984 -7.785765647888184 -0.41509854793548584
15.392239570617676 -7.732084274291992 -0.41462063789367676
15.364030838012695 -7.676855087280273 -0.4144672751426697
15.324294090270996 -7.6173014640808105 -0.4156782627105713
15.288782119750977 -7.560122966766357 -0.4150208830833435
15.26426887512207 -7.507463455200195 -0.4149561822414398
15.23618221282959 -7.454423427581787 -0.4144449234008789
15.199285507202148 -7.3973188400268555 -0.4133836627006531
15.174468994140625 -7.345188617706299 -0.4129484295845032
15.129987716674805 -7.284941673278809 -0.4116843342781067
15.120073318481445 -7.240420341491699 -0.4120195508003235
15.089948654174805 -7.187537670135498 -0.4107900857925415
15.070114135742188 -7.139759063720703 -0.41086500883102417
15.052862167358398 -7.092251777648926 -0.410639226436615
15.03719711303711 -7.046776294708252 -0.41016900539398193
