VERSION .7
FIELDS x y z
SIZE 4 4 4
TYPE F F F
COUNT 1 1 1
WIDTH 852
HEIGHT 1
VIEWPOINT 0 0 0 1 0 0 0
POINTS 852
DATA ascii
5.473681926727295 7.366537094116211 0.13911840319633484
5.458133697509766 7.378486156463623 0.13856291770935059
5.434417247772217 7.378400802612305 0.1383490115404129
5.414389610290527 7.384154319763184 0.13770464062690735
5.370692253112793 7.356563568115234 0.136957585811615
5.3620429039001465 7.37681245803833 0.13712728023529053
5.335812568664551 7.3737568855285645 0.13632699847221375
5.301889896392822 7.359023094177246 0.1358267217874527
5.282628536224365 7.3644633293151855 0.1357244998216629
5.238865852355957 7.368780136108398 0.13484491407871246
5.2226948738098145 7.378409385681152 0.13429367542266846
5.1771464347839355 7.3797712326049805 0.13389770686626434
5.142628192901611 7.363020896911621 0.13287362456321716
5.1106276512146 7.383245468139648 0.13284984230995178
5.075172424316406 7.364674091339111 0.1317790299654007
5.034502029418945 7.371871471405029 0.1310054212808609
5.010880470275879 7.3701171875 0.130766361951828
4.9600605964660645 7.361820220947266 0.12970520555973053
4.900108337402344 7.372475624084473 0.1288079023361206
4.82590913772583 7.360802173614502 0.12753324210643768
4.766504764556885 7.371784210205078 0.1266612708568573
4.695916175842285 7.3637309074401855 0.12496905773878098
4.653147220611572 7.363945007324219 0.12464328110218048
4.633126258850098 7.367023468017578 0.1239963173866272
4.5906500816345215 7.367197036743164 0.12316922098398209
4.566709041595459 7.363734722137451 0.12292644381523132
4.526463508605957 7.366970062255859 0.12215981632471085
4.503815650939941 7.365297317504883 0.12195073068141937
4.477059841156006 7.355796813964844 0.12113485485315323
4.461539268493652 7.364706993103027 0.12110789120197296
4.439254283905029 7.3633270263671875 0.12092897295951843
4.423892974853516 7.372446537017822 0.12042438983917236
4.386290073394775 7.344282627105713 0.11979309469461441
4.381977558135986 7.3727521896362305 0.11960309743881226
4.349918365478516 7.353557109832764 0.11912340670824051
4.321552753448486 7.341306209564209 0.1187739372253418
4.305324077606201 7.348577499389648 0.11824879795312881
4.285360336303711 7.34946870803833 0.1181192621588707
4.259232521057129 7.340610504150391 0.11780989170074463
4.237359046936035 7.3379926681518555 0.1171301007270813
4.220600605010986 7.344122886657715 0.11708780378103256
4.201571464538574 7.34725284576416 0.11647778004407883
4.184383869171143 7.352606773376465 0.11642546206712723
4.15488862991333 7.336152076721191 0.11602742969989777
4.1413350105285645 7.348742961883545 0.11557186394929886
4.1213202476501465 7.348884582519531 0.11543910950422287
4.095328330993652 7.338190078735352 0.11513778567314148
4.089776515960693 7.365127086639404 0.11490927636623383
4.060109615325928 7.347629547119141 0.114503413438797
4.042255878448486 7.351315021514893 0.11393914371728897
4.0206732749938965 7.349206924438477 0.11375229060649872
4.006404876708984 7.359354496002197 0.11378034949302673
3.979522705078125 7.347263336181641 0.11295197159051895
3.957612991333008 7.343203544616699 0.11276239901781082
29.58057403564453 0.010902084410190582 0.5224573016166687
29.54500389099121 0.13531650602817535 0.5218347311019897
29.476266860961914 0.2574146091938019 0.520633339881897
29.47162437438965 0.3202691674232483 0.5205615758895874
29.455381393432617 0.38122692704200745 0.5202885270118713
29.427093505859375 0.4437362849712372 0.5232594013214111
29.428470611572266 0.5048426985740662 0.5233019590377808
29.433786392211914 0.5661041736602783 0.5216869711875916
29.498106002807617 0.6303127408027649 0.5228500366210938
29.315866470336914 0.9953011274337769 0.5197989344596863
29.241458892822266 1.1160835027694702 0.5184897780418396
29.220779418945312 1.1760262250900269 0.5181638598442078
29.179092407226562 1.2974547147750854 0.5158023238182068
29.140785217285156 1.479364275932312 0.5152801871299744
29.086345672607422 1.6599878072738647 0.5144897699356079
29.043262481689453 1.840775966644287 0.5138525366783142
28.899065017700195 2.381354331970215 0.5120050311088562
28.854270935058594 2.5603880882263184 0.5097845196723938
28.80601692199707 2.678421974182129 0.509056806564331
28.793909072875977 2.7375779151916504 0.5089412927627563
28.76909828186035 2.857522487640381 0.5087113380432129
28.753629684448242 2.9162566661834717 0.5068488121032715
28.722795486450195 2.9734294414520264 0.5064125061035156
28.708538055419922 3.033884048461914 0.5062737464904785
28.716230392456055 3.0949673652648926 0.5064531564712524
28.69559097290039 3.1530659198760986 0.5062034130096436
28.63304328918457 3.2080445289611816 0.5052183866500854
28.561080932617188 3.3218328952789307 0.5042591094970703
28.487747192382812 3.433197259902954 0.5031433701515198
28.437198638916016 3.4887521266937256 0.5023796558380127
28.37108039855957 3.540417194366455 0.4996621012687683
28.25545883178711 3.7065305709838867 0.4980264902114868
28.21595573425293 3.762678861618042 0.4974703788757324
28.20124626159668 3.8202977180480957 0.4972822070121765
28.122520446777344 3.930311918258667 0.49451518058776855
28.09039306640625 3.9852712154388428 0.494093120098114
28.009767532348633 4.094240665435791 0.4929753541946411
27.974987030029297 4.148468017578125 0.4925121068954468
27.9167537689209 4.260063171386719 0.49007487297058105
27.859539031982422 4.310512065887451 0.4892261326313019
27.82183265686035 4.424731254577637 0.4888874292373657
27.34038734436035 5.057773590087891 0.4774850010871887
27.218626022338867 5.212425708770752 0.47429677844047546
27.11874771118164 5.3702521324157715 0.4730689525604248
27.049253463745117 5.474972724914551 0.4722549617290497
26.99082374572754 5.5214762687683105 0.4698156714439392
26.944034576416016 5.570183753967285 0.4692014455795288
26.915006637573242 5.624162673950195 0.4688388407230377
26.881206512451172 5.675345420837402 0.46845436096191406
26.836050033569336 5.7240095138549805 0.46787241101264954
26.800491333007812 5.776309013366699 0.46585813164711
26.74846839904785 5.823209762573242 0.4651619493961334
26.69118881225586 5.87048864364624 0.4611756205558777
26.696243286132812 5.929706573486328 0.46147602796554565
26.639524459838867 5.975144386291504 0.4607085883617401
26.607524871826172 6.027695178985596 0.4603769779205322
26.55150604248047 6.072959899902344 0.4580260217189789
26.535730361938477 6.127326488494873 0.45790770649909973
26.48098373413086 6.174300670623779 0.4571884274482727
26.455228805541992 6.226207256317139 0.45696672797203064
26.412853240966797 6.274110317230225 0.45645764470100403
26.384984970092773 6.327066421508789 0.4546172320842743
26.339887619018555 6.37408447265625 0.4540022015571594
26.302217483520508 6.4244771003723145 0.4535883069038391
26.26766586303711 6.473829746246338 0.4532232880592346
26.24211311340332 6.525327205657959 0.4530150592327118
26.195865631103516 6.57327938079834 0.45087310671806335
26.144107818603516 6.617992401123047 0.45015251636505127
26.121891021728516 6.729554176330566 0.450255423784256
26.090286254882812 6.779177665710449 0.44837135076522827
25.764747619628906 6.867786884307861 0.443438321352005
25.235836029052734 6.897009372711182 0.4289911985397339
23.25973892211914 6.938900947570801 0.39505335688591003
22.811115264892578 6.961590766906738 0.38671284914016724
22.641460418701172 6.961208820343018 0.38408032059669495
22.48590087890625 6.965930938720703 0.38025492429733276
22.33927345275879 6.971407890319824 0.37801969051361084
22.201339721679688 6.978954792022705 0.37593019008636475
22.067476272583008 6.988708972930908 0.3739151656627655
21.94355010986328 6.999599456787109 0.3706551492214203
21.80573272705078 7.005527019500732 0.3685716986656189
21.690351486206055 7.019611358642578 0.36687490344047546
21.53462028503418 7.018615245819092 0.3644857108592987
21.4012451171875 7.024307727813721 0.35730767250061035
21.284936904907227 7.03653621673584 0.3543030619621277
21.16058921813965 7.044173240661621 0.35242077708244324
21.004322052001953 7.041974067687988 0.3500674366950989
20.889070510864258 7.051647186279297 0.3483901917934418
20.744470596313477 7.0508222579956055 0.34493809938430786
20.63075828552246 7.061370849609375 0.3432435989379883
20.49695587158203 7.063126564025879 0.34126046299934387
20.360069274902344 7.063257694244385 0.3392246961593628
20.217432022094727 7.062198162078857 0.33584412932395935
20.10506248474121 7.0697922706604 0.3342205584049225
19.97067642211914 7.069139003753662 0.3321772813796997
19.824275970458984 7.065008163452148 0.3299921751022339
19.712345123291016 7.071255207061768 0.3271460235118866
19.587902069091797 7.073825359344482 0.32527899742126465
19.45393943786621 7.071170330047607 0.3232976496219635
19.332530975341797 7.0724945068359375 0.32152310013771057
19.21875762939453 7.077459335327148 0.31868213415145874
19.09552574157715 7.077113628387451 0.31683096289634705
18.97348976135254 7.077967166900635 0.3150559663772583
18.740652084350586 7.079905033111572 0.31050169467926025
18.424152374267578 7.093008041381836 0.3014145791530609
18.100969314575195 7.099567890167236 0.29566490650177
17.745004653930664 7.090193271636963 0.2894604802131653
17.142549514770508 7.1007490158081055 0.279888778924942
16.88345718383789 7.118105411529541 0.2752648591995239
16.704242706298828 7.125500202178955 0.27172085642814636
16.614601135253906 7.12809944152832 0.2705029249191284
16.436416625976562 7.133763313293457 0.2670394480228424
16.327381134033203 7.1267409324646 0.26546353101730347
16.267963409423828 7.142169952392578 0.2647443115711212
16.16952133178711 7.1390581130981445 0.26036563515663147
16.070573806762695 7.135258197784424 0.2579804062843323
15.991786003112793 7.141212463378906 0.2569599449634552
15.922877311706543 7.150109767913818 0.2560465335845947
15.820817947387695 7.143769264221191 0.25464382767677307
15.7352294921875 7.145628929138184 0.2524990141391754
15.64818286895752 7.14530611038208 0.2513400912284851
15.559659957885742 7.1439433097839355 0.25011327862739563
15.484405517578125 7.149482727050781 0.24814938008785248
15.402899742126465 7.150665283203125 0.2470806986093521
15.314553260803223 7.149410724639893 0.24586552381515503
15.227201461791992 7.147201061248779 0.24470160901546478
15.129616737365723 7.139749050140381 0.24239128828048706
15.061556816101074 7.1470112800598145 0.24150344729423523
14.97482681274414 7.143967151641846 0.2403506487607956
14.877429962158203 7.135439395904541 0.23805882036685944
14.798541069030762 7.136528491973877 0.237039253115654
14.712088584899902 7.132505416870117 0.235850989818573
14.624703407287598 7.127661228179932 0.2346866875886917
14.548169136047363 7.1288604736328125 0.23275405168533325
14.481505393981934 7.133500099182129 0.23188333213329315
14.403853416442871 7.133481025695801 0.23088333010673523
14.327234268188477 7.13264274597168 0.22895574569702148
14.244112968444824 7.128184795379639 0.22782336175441742
14.087167739868164 7.123987197875977 0.22402231395244598
14.012823104858398 7.123976707458496 0.22304129600524902
13.863617897033691 7.120730400085449 0.22022351622581482
13.642742156982422 7.116028785705566 0.21648268401622772
13.252861976623535 7.127044200897217 0.20987018942832947
13.057464599609375 7.128194332122803 0.2074442058801651
12.882157325744629 7.137975692749023 0.2044687122106552
12.68488597869873 7.133263111114502 0.2011568248271942
12.545326232910156 7.124447822570801 0.19860979914665222
12.498451232910156 7.132211208343506 0.19722315669059753
12.371912956237793 7.129239559173584 0.195699080824852
12.307236671447754 7.126031875610352 0.19404132664203644
12.2455415725708 7.125241279602051 0.1933082491159439
12.18723201751709 7.125248908996582 0.19262081384658813
12.140203475952148 7.131598472595215 0.1912512630224228
12.093409538269043 7.138862609863281 0.1907530575990677
12.041887283325195 7.142228126525879 0.1901739537715912
11.98415470123291 7.141645431518555 0.18864427506923676
11.931180000305176 7.144659042358398 0.18804983794689178
11.876591682434082 7.1454973220825195 0.18742279708385468
11.830503463745117 7.151247501373291 0.1860859990119934
11.766044616699219 7.146646976470947 0.1853119134902954
11.705705642700195 7.143292427062988 0.1845608949661255
11.665764808654785 7.153125286102295 0.18336957693099976
11.597046852111816 7.144186019897461 0.18252232670783997
11.548727035522461 7.147522449493408 0.18196116387844086
11.493850708007812 7.147522449493408 0.1805438995361328
11.445833206176758 7.15068244934082 0.18002207577228546
11.379226684570312 7.141944408416748 0.17917485535144806
11.335016250610352 7.1479949951171875 0.17793402075767517
11.281182289123535 7.146810054779053 0.17732137441635132
11.240791320800781 7.153953552246094 0.17691892385482788
11.189115524291992 7.154696464538574 0.17556872963905334
11.136387825012207 7.1535820960998535 0.17497368156909943
11.080863952636719 7.151360511779785 0.17430752515792847
11.023016929626465 7.146512985229492 0.17286281287670135
10.965428352355957 7.141540050506592 0.17215923964977264
10.918484687805176 7.144191741943359 0.17166075110435486
10.875751495361328 7.148545742034912 0.17045995593070984
10.820399284362793 7.1452717781066895 0.16979901492595673
10.683786392211914 7.151916027069092 0.1675720512866974
10.318473815917969 7.161046981811523 0.16140417754650116
10.165581703186035 7.150042533874512 0.15895457565784454
10.031846046447754 7.150664329528809 0.1575636863708496
9.97059440612793 7.1382927894592285 0.15608614683151245
9.899701118469238 7.150790691375732 0.15544553101062775
9.85310173034668 7.1482930183410645 0.15420374274253845
9.808574676513672 7.147982597351074 0.15374498069286346
9.772629737854004 7.152923583984375 0.15338337421417236
9.732671737670898 7.154741287231445 0.15228179097175598
9.677801132202148 7.146263122558594 0.15166215598583221
9.626436233520508 7.139288902282715 0.15035822987556458
9.590932846069336 7.1447296142578125 0.15004105865955353
9.561046600341797 7.153365135192871 0.1497751772403717
9.514528274536133 7.14944314956665 0.1485828459262848
9.468042373657227 7.146172046661377 0.1480942666530609
9.43600845336914 7.152816295623779 0.14779584109783173
9.399068832397461 7.155575275421143 0.14675751328468323
9.347373962402344 7.147775650024414 0.14615926146507263
9.306140899658203 7.146935939788818 0.1450594961643219
9.268320083618164 7.148515701293945 0.14470036327838898
9.226900100708008 7.148058891296387 0.14426250755786896
9.204659461975098 7.16144323348999 0.14346382021903992
9.149141311645508 7.14963960647583 0.14280711114406586
9.115458488464355 7.153872489929199 0.14251326024532318
9.06564712524414 7.145230293273926 0.14196664094924927
9.039992332458496 7.1563334465026855 0.14180311560630798
8.98897647857666 7.1463775634765625 0.14053462445735931
8.962889671325684 7.1560444831848145 0.14035847783088684
8.920891761779785 7.153735160827637 0.1399110108613968
8.880773544311523 7.1519317626953125 0.13884694874286652
8.8447847366333 7.153258323669434 0.13851621747016907
8.756597518920898 7.1431450843811035 0.13691581785678864
8.735359191894531 7.156915187835693 0.13679277896881104
8.657098770141602 7.153087139129639 0.13537412881851196
8.618571281433105 7.152252197265625 0.1343265324831009
8.538896560668945 7.147071838378906 0.13352471590042114
8.5183687210083 7.16000509262085 0.13278448581695557
8.4384126663208 7.153659820556641 0.13133162260055542
8.402774810791016 7.153469085693359 0.13100741803646088
8.331316947937012 7.153370380401611 0.12969143688678741
8.226222038269043 7.153463363647461 0.12808777391910553
8.151467323303223 7.148967742919922 0.12736383080482483
8.107322692871094 7.14010763168335 0.12627407908439636
8.043667793273926 7.144384860992432 0.12509305775165558
8.008505821228027 7.1429762840271 0.12474977225065231
7.9469804763793945 7.148383140563965 0.12360630184412003
7.908483028411865 7.1435370445251465 0.123238205909729
7.844388008117676 7.145825386047363 0.12205956131219864
7.814717769622803 7.148563861846924 0.12182824313640594
7.774462699890137 7.142268180847168 0.12079400569200516
7.731980800628662 7.132922172546387 0.1203639805316925
7.713955879211426 7.1459808349609375 0.11967145651578903
7.686203479766846 7.150806903839111 0.11947722733020782
7.638364315032959 7.135964393615723 0.11896464973688126
7.604751110076904 7.134174823760986 0.11803548783063889
7.5806474685668945 7.142033100128174 0.11789654195308685
7.538765907287598 7.132200241088867 0.11684280633926392
7.5088605880737305 7.1343302726745605 0.11661436408758163
7.477230072021484 7.1338605880737305 0.11632667481899261
7.445729732513428 7.133416652679443 0.11546362936496735
7.419873237609863 7.139070987701416 0.11529888957738876
7.390368938446045 7.1402764320373535 0.11446848511695862
7.374349594116211 7.154483795166016 0.11442401260137558
7.328805446624756 7.140716075897217 0.11335483193397522
7.295617580413818 7.137988567352295 0.11304569244384766
7.268071174621582 7.140618324279785 0.11225133389234543
7.234511852264404 7.138047218322754 0.11194248497486115
7.201582431793213 7.135146617889404 0.1110689714550972
7.167823791503906 7.132071018218994 0.11078328639268875
7.14248514175415 7.136452674865723 0.11059461534023285
7.110484600067139 7.134027004241943 0.10973893851041794
7.079039096832275 7.132851600646973 0.109463632106781
7.044137954711914 7.127241611480713 0.10856639593839645
7.022451400756836 7.134853363037109 0.10843409597873688
6.992687225341797 7.135001182556152 0.1076246052980423
6.957579612731934 7.128747463226318 0.10728716105222702
6.930744647979736 7.130796909332275 0.10710105299949646
6.895875453948975 7.125277042388916 0.10621745139360428
6.875156402587891 7.133468151092529 0.10610082745552063
6.846145153045654 7.133767604827881 0.10530898720026016
6.820972442626953 7.137125492095947 0.10512452572584152
6.791739463806152 7.136163234710693 0.10432557761669159
6.756944179534912 7.1300048828125 0.10400044173002243
6.704233646392822 7.134324073791504 0.10305240750312805
6.669101715087891 7.126516342163086 0.10219400376081467
6.6130290031433105 7.126519203186035 0.10119965672492981
6.592833042144775 7.134390830993652 0.10109245777130127
6.53294563293457 7.129589557647705 0.10006813704967499
6.502304553985596 7.125782012939453 0.09923602640628815
6.453604698181152 7.132509231567383 0.09836360812187195
6.355301380157471 7.113242149353027 0.09696348756551743
6.312794208526611 7.1258416175842285 0.09618933498859406
6.2844038009643555 7.123521327972412 0.09595844149589539
6.256392955780029 7.121541976928711 0.09520149976015091
6.233402252197266 7.125979900360107 0.09505878388881683
6.2028913497924805 7.120902061462402 0.0942663922905922
6.174147129058838 7.117672443389893 0.09402977675199509
6.140782833099365 7.109800338745117 0.09375371038913727
6.12168550491333 7.1175312995910645 0.09311362355947495
6.10396671295166 7.1267924308776855 0.09306912869215012
6.074772357940674 7.123414039611816 0.09230811148881912
6.046263694763184 7.119893550872803 0.09207537025213242
6.030871391296387 7.132556915283203 0.09100288152694702
6.002874851226807 7.129400253295898 0.09080351144075394
5.9730610847473145 7.123981475830078 0.09000866115093231
5.94689416885376 7.123590469360352 0.08984383940696716
5.933376789093018 7.137490272521973 0.08929590880870819
5.903321266174316 7.132237911224365 0.08907236158847809
5.867461204528809 7.1189374923706055 0.08819183707237244
5.849895477294922 7.127747535705566 0.08814962953329086
5.824059009552002 7.127224445343018 0.08796605467796326
5.791458606719971 7.117422103881836 0.0871606096625328
5.775694370269775 7.1282501220703125 0.08712153881788254
5.755103588104248 7.133903503417969 0.0865040123462677
5.7198896408081055 7.120439529418945 0.08617449551820755
5.699191093444824 7.124943256378174 0.08555155992507935
5.6743927001953125 7.125054359436035 0.08538386970758438
5.651047706604004 7.126072883605957 0.0852559432387352
5.622193813323975 7.120842933654785 0.08449582755565643
5.594541549682617 7.116135120391846 0.08430197089910507
5.567744731903076 7.1124138832092285 0.0835699811577797
5.550573348999023 7.12173318862915 0.0835397019982338
5.538335800170898 7.136526584625244 0.08302582800388336
5.499701976776123 7.1172261238098145 0.0826684981584549
5.481936454772949 7.125607490539551 0.08210395276546478
5.42615270614624 7.1140360832214355 0.08066391199827194
5.410650253295898 7.125187397003174 0.08011262863874435
5.363916873931885 7.124887466430664 0.07931364327669144
5.3376898765563965 7.121622562408447 0.07914981245994568
5.298096179962158 7.1311798095703125 0.07846590876579285
5.273359298706055 7.128739833831787 0.07777688652276993
5.225693225860596 7.126884937286377 0.07697644829750061
5.1941237449646 7.114744663238525 0.07672984898090363
5.179058074951172 7.126023769378662 0.07670893520116806
5.150157451629639 7.1172685623168945 0.0759856328368187
5.105218410491943 7.118093013763428 0.07522956281900406
5.084935665130615 7.120968818664551 0.07512523233890533
5.038498878479004 7.119144916534424 0.07434949278831482
5.013688564300537 7.115355491638184 0.07369226217269897
4.96419095993042 7.108502388000488 0.07338158041238785
4.946187973022461 7.1141276359558105 0.0728055015206337
4.921624183654785 7.1111602783203125 0.07266686111688614
4.892328262329102 7.100274085998535 0.07192634046077728
4.884909629821777 7.121129035949707 0.07104520499706268
4.862853050231934 7.1215033531188965 0.07044053077697754
4.839694499969482 7.119267463684082 0.07029684633016586
4.821930885314941 7.124933242797852 0.06975017488002777
4.79931640625 7.124218463897705 0.069621242582798
4.778228759765625 7.12477970123291 0.06953014433383942
4.750669956207275 7.115602016448975 0.06882187724113464
4.728845119476318 7.115743637084961 0.06872604042291641
4.70576810836792 7.113034248352051 0.06808483600616455
4.6860671043396 7.115298271179199 0.06799173355102539
4.666050434112549 7.117921829223633 0.0674225315451622
4.643702507019043 7.116033554077148 0.0672922134399414
4.621924877166748 7.115789413452148 0.06670050323009491
4.607729911804199 7.126266002655029 0.06668645143508911
4.577994346618652 7.112644195556641 0.06597526371479034
4.552679061889648 7.1065850257873535 0.06580796837806702
4.525710105895996 7.096868515014648 0.06563138961791992
4.522637844085693 7.125581741333008 0.06529084593057632
4.488462924957275 7.104281902313232 0.06501055508852005
4.471306800842285 7.109797477722168 0.06446390599012375
4.4458231925964355 7.102860450744629 0.06431497633457184
4.433778285980225 7.1164116859436035 0.06384216994047165
4.403244495391846 7.100231170654297 0.06361448764801025
4.389461040496826 7.111839771270752 0.06312423199415207
4.3695268630981445 7.112524032592773 0.06258296221494675
4.353937149047852 7.120275020599365 0.06206163763999939
4.327076435089111 7.110391616821289 0.06189464032649994
4.306636333465576 7.109986305236816 0.06130669638514519
4.289604187011719 7.1151862144470215 0.06127345561981201
4.261569023132324 7.102916240692139 0.06058483198285103
4.24399471282959 7.107012748718262 0.06054436042904854
4.2228102684021 7.105978488922119 0.0599537193775177
4.207170009613037 7.1132307052612305 0.05994023010134697
4.181560516357422 7.103574275970459 0.05976536124944687
4.166146278381348 7.112056732177734 0.059279318898916245
4.138267517089844 7.098199367523193 0.059071946889162064
4.09297513961792 7.088956356048584 0.05835200473666191
5.771164417266846 -10.912986755371094 0.12126722186803818
5.804272174835205 -10.92062759399414 0.12151879817247391
5.847691059112549 -10.89139175415039 0.1229444071650505
5.877410888671875 -10.892448425292969 0.12309392541646957
5.903299331665039 -10.884788513183594 0.12390568107366562
5.932084560394287 -10.883843421936035 0.12403497099876404
5.991091728210449 -10.882848739624023 0.12579423189163208
6.030149936676025 -10.900131225585938 0.12616947293281555
6.053654670715332 -10.889209747314453 0.1269170343875885
6.093067169189453 -10.905245780944824 0.1272885650396347
6.125569820404053 -10.910120964050293 0.12822581827640533
6.148772716522217 -10.898406028747559 0.12900055944919586
6.21629524230957 -10.910466194152832 0.1302206814289093
6.239624977111816 -10.898767471313477 0.13023309409618378
6.302793979644775 -10.902361869812012 0.1320997178554535
6.383433818817139 -10.883366584777832 0.13315321505069733
6.417778491973877 -10.888616561889648 0.13341733813285828
6.487147808074951 -10.902551651000977 0.13543467223644257
7.349651336669922 -10.846900939941406 0.15107063949108124
7.4416985511779785 -10.835430145263672 0.15313123166561127
7.545124053955078 -10.839366912841797 0.1546943038702011
7.612515449523926 -10.83854866027832 0.15672224760055542
7.675723075866699 -10.832670211791992 0.15787369012832642
7.711533546447754 -10.834074020385742 0.15816791355609894
7.734865665435791 -10.819257736206055 0.1589626967906952
7.771031379699707 -10.822303771972656 0.15927745401859283
7.806863784790039 -10.823328971862793 0.16032059490680695
7.836122512817383 -10.816512107849121 0.16049233078956604
7.89901065826416 -10.807228088378906 0.1600951999425888
7.927338123321533 -10.798874855041504 0.1609991490840912
8.039651870727539 -10.808762550354004 0.16275463998317719
9.100228309631348 -10.749185562133789 0.1821640282869339
9.286836624145508 -10.738938331604004 0.1853642612695694
9.31278133392334 -10.72387981414795 0.18626877665519714
9.370262145996094 -10.74494743347168 0.18700885772705078
9.39408016204834 -10.725919723510742 0.18786080181598663
9.431780815124512 -10.723981857299805 0.18816889822483063
9.469898223876953 -10.722369194030762 0.1893593817949295
9.51542854309082 -10.72764778137207 0.18981041014194489
9.575927734375 -10.704753875732422 0.19015103578567505
9.625383377075195 -10.715152740478516 0.19069331884384155
9.667231559753418 -10.716919898986816 0.1919253170490265
9.781195640563965 -10.707145690917969 0.19377054274082184
9.893925666809082 -10.694746017456055 0.19555571675300598
11.001482963562012 -10.616162300109863 0.21543464064598083
11.135236740112305 -10.61080265045166 0.21862097084522247
11.180350303649902 -10.609610557556152 0.21907532215118408
11.224130630493164 -10.605730056762695 0.22039173543453217
11.25489330291748 -10.590622901916504 0.22060123085975647
11.313315391540527 -10.601418495178223 0.2213171273469925
11.348244667053223 -10.588709831237793 0.2224634438753128
11.401407241821289 -10.59414005279541 0.22311511635780334
11.449570655822754 -10.594704627990723 0.22453944385051727
11.482192039489746 -10.579449653625488 0.22473430633544922
11.53551959991455 -10.584406852722168 0.2253880351781845
11.582619667053223 -10.583436012268066 0.22675855457782745
11.668281555175781 -10.57188606262207 0.228522390127182
11.804969787597656 -10.561359405517578 0.2308626025915146
11.941314697265625 -10.54893684387207 0.2331981360912323
12.077723503112793 -10.533759117126465 0.23553036153316498
13.257238388061523 -10.435678482055664 0.2592073380947113
13.318242073059082 -10.438955307006836 0.25997599959373474
13.405563354492188 -10.416556358337402 0.26185572147369385
13.470784187316895 -10.422473907470703 0.26270756125450134
13.523595809936523 -10.417280197143555 0.2643023431301117
13.579556465148926 -10.415504455566406 0.2649732828140259
13.635637283325195 -10.413644790649414 0.2656886577606201
13.745062828063965 -10.405860900878906 0.26797425746917725
13.769618034362793 -10.379568099975586 0.26807209849357605
13.89462661743164 -10.38232421875 0.2706703543663025
13.95846939086914 -10.384958267211914 0.2735309302806854
14.0560884475708 -10.365909576416016 0.2756511867046356
14.230696678161621 -10.357195854187012 0.27886801958084106
14.395960807800293 -10.3396635055542 0.2818646728992462
14.582353591918945 -10.33391284942627 0.2853177785873413
15.905102729797363 -10.202942848205566 0.3119431436061859
16.019472122192383 -10.181394577026367 0.3145015239715576
16.096874237060547 -10.183695793151855 0.31560513377189636
16.220890045166016 -10.166752815246582 0.3183135688304901
16.301061630249023 -10.169946670532227 0.31952252984046936
16.363195419311523 -10.160269737243652 0.3203141689300537
16.42083168029785 -10.148848533630371 0.32103052735328674
16.490795135498047 -10.144854545593262 0.32311782240867615
16.620359420776367 -10.128326416015625 0.32486578822135925
16.69597625732422 -10.12695026397705 0.3270757496356964
16.833740234375 -10.113781929016113 0.32898831367492676
16.905717849731445 -10.107995986938477 0.33227723836898804
17.03872299194336 -10.091702461242676 0.3352259397506714
17.23664093017578 -10.063093185424805 0.33908435702323914
17.686779022216797 -10.028505325317383 0.3466642498970032
19.35232925415039 -9.872678756713867 0.37832364439964294
19.439189910888672 -9.866145133972168 0.3809516429901123
19.604450225830078 -9.846471786499023 0.3833703398704529
19.688377380371094 -9.837451934814453 0.3846135139465332
19.77963638305664 -9.830367088317871 0.3872779905796051
19.86164093017578 -9.819716453552246 0.3885400891304016
19.964584350585938 -9.819108009338379 0.3901561200618744
20.036439895629883 -9.801410675048828 0.3911517262458801
20.1324405670166 -9.796586036682129 0.3939388394355774
20.217605590820312 -9.786189079284668 0.39520683884620667
20.40483856201172 -9.770967483520508 0.3981146514415741
20.49308204650879 -9.75952434539795 0.4007607400417328
20.6845645904541 -9.745538711547852 0.40371063351631165
20.77335548400879 -9.733262062072754 0.40380772948265076
20.963481903076172 -9.716379165649414 0.40806880593299866
21.25688362121582 -9.690496444702148 0.41264650225639343
21.5308837890625 -9.650871276855469 0.4181494116783142
24.098800659179688 -9.3756103515625 0.46319660544395447
24.225496292114258 -9.366997718811035 0.4652577042579651
24.35036277770996 -9.355602264404297 0.4672721028327942
24.459453582763672 -9.339241027832031 0.46899017691612244
24.58604621887207 -9.329163551330566 0.47111159563064575
24.702774047851562 -9.313206672668457 0.4745146632194519
24.81972885131836 -9.298450469970703 0.4763873219490051
24.926666259765625 -9.279570579528809 0.47806787490844727
25.182546615600586 -9.254263877868652 0.4822244644165039
26.337627410888672 -9.117024421691895 0.49782368540763855
26.75237464904785 -9.072664260864258 0.5063021183013916
29.330366134643555 -8.7264404296875 0.5522958636283875
29.776390075683594 -8.655756950378418 0.552487313747406
29.922821044921875 -8.630945205688477 0.5548790097236633
30.085662841796875 -8.608418464660645 0.5594019293785095
30.227365493774414 -8.581140518188477 0.561714231967926
30.276945114135742 -8.5272855758667 0.5623095035552979
30.28044319152832 -8.458572387695312 0.562035083770752
30.327016830444336 -8.403698921203613 0.5625747442245483
30.334087371826172 -8.337916374206543 0.5623875856399536
30.357763290405273 -8.274789810180664 0.5625705718994141
30.37849998474121 -8.212678909301758 0.5626368522644043
30.369794845581055 -8.14082145690918 0.562147855758667
30.400537490844727 -8.013896942138672 0.5639436841011047
30.408615112304688 -7.946666717529297 0.5637760162353516
30.399263381958008 -7.809507846832275 0.5629937052726746
30.41263198852539 -7.743798732757568 0.5629333853721619
30.4542236328125 -7.617963790893555 0.5631040334701538
30.493854522705078 -7.560671329498291 0.5635499954223633
30.493873596191406 -7.424499034881592 0.5630376935005188
30.52025604248047 -7.2279887199401855 0.5572217702865601
22.545211791992188 -4.447293281555176 0.4095308482646942
22.625595092773438 -4.315557956695557 0.4104968011379242
22.83980369567871 -4.256808280944824 0.41146671772003174
23.00164794921875 -4.237600326538086 0.41422680020332336
22.953571319580078 -4.179452896118164 0.4132012724876404
23.284866333007812 -4.1884660720825195 0.41902250051498413
23.395965576171875 -4.158347129821777 0.4208749830722809
23.5283260345459 -4.131464004516602 0.4231049120426178
23.54736328125 -4.08303165435791 0.4232896566390991
23.538835525512695 -4.031196117401123 0.4229874610900879
23.34563446044922 -3.9468512535095215 0.41935113072395325
23.60341453552246 -3.940065860748291 0.42378947138786316
22.767383575439453 -3.7519030570983887 0.4086392819881439
22.73160743713379 -3.599372386932373 0.40759557485580444
22.73232650756836 -3.5497827529907227 0.4074728190898895
22.804475784301758 -3.414332628250122 0.40837711095809937
23.274442672729492 -3.3845436573028564 0.4165337383747101
24.443828582763672 -3.3978171348571777 0.4370706081390381
30.3757381439209 -4.027904987335205 0.5411301255226135
30.208755493164062 -3.2333037853240967 0.5365323424339294
30.189695358276367 -3.0394251346588135 0.5358433723449707
30.1456298828125 -2.906799077987671 0.5348391532897949
30.142539978027344 -2.8433802127838135 0.534678041934967
30.096145629882812 -2.7111785411834717 0.5336474180221558
30.090518951416016 -2.647732973098755 0.5334491729736328
30.094615936279297 -2.5850980281829834 0.5352702140808105
30.079914093017578 -2.519186019897461 0.5349118709564209
30.04679298400879 -2.4536325931549072 0.5342296361923218
30.050180435180664 -2.3892982006073 0.5324286222457886
30.052555084228516 -2.3267383575439453 0.5341547727584839
30.02328109741211 -2.261733293533325 0.5317811965942383
30.01451873779297 -2.196672201156616 0.5315411686897278
30.00676155090332 -2.1335105895996094 0.531324565410614
29.997140884399414 -2.0702006816864014 0.5310773849487305
29.985015869140625 -2.0050835609436035 0.530785858631134
29.953805923461914 -1.8763195276260376 0.5300884246826172
29.959896087646484 -1.814292311668396 0.5301287770271301
29.95554542541504 -1.6874421834945679 0.5299209952354431
29.91766357421875 -1.6230332851409912 0.5291898250579834
29.903600692749023 -1.4959911108016968 0.528826117515564
29.908367156982422 -1.3077932596206665 0.5287545323371887
29.87079429626465 -1.1180542707443237 0.5279564261436462
29.69635009765625 -0.3624526858329773 0.5262861251831055
29.647258758544922 -0.17545652389526367 0.5236449241638184
29.61424446105957 -0.05054094269871712 0.5230535268783569
35.45962905883789 0.3095834255218506 0.9164857268333435
35.29185104370117 0.9739576578140259 0.9124565720558167
35.15568542480469 1.1183865070343018 0.9089664220809937
35.1444206237793 1.1911208629608154 0.9087358713150024
35.09339141845703 1.2643682956695557 0.9054221510887146
35.0832405090332 1.336907148361206 0.9052298665046692
35.05512237548828 1.408776044845581 0.9045767784118652
35.01472473144531 1.4819968938827515 0.9036126136779785
34.99970245361328 1.5541291236877441 0.9075023531913757
34.985321044921875 1.6283818483352661 0.9072180986404419
34.96961212158203 1.7003836631774902 0.9068999290466309
34.93073654174805 1.7712428569793701 0.9059016704559326
34.914493560791016 1.845122218132019 0.9055805802345276
34.895259857177734 1.916730523109436 0.903131365776062
34.86099624633789 1.987500786781311 0.9023480415344238
34.82352066040039 2.0599238872528076 0.9014883041381836
34.81924057006836 2.1321892738342285 0.9014919996261597
34.79334259033203 2.203169345855713 0.9009363651275635
34.7554931640625 2.2752435207366943 0.9000807404518127
34.755287170410156 2.347673177719116 0.9001991152763367
34.714778900146484 2.4918453693389893 0.899330735206604
34.59651184082031 2.7020740509033203 0.894649088382721
34.374263763427734 3.558396577835083 0.8908516764640808
34.31068801879883 3.7699697017669678 0.8877732157707214
34.189697265625 3.9743616580963135 0.8851888179779053
34.09947204589844 4.109493732452393 0.8832908868789673
34.056129455566406 4.175987720489502 0.8823909163475037
33.948341369628906 4.307967185974121 0.8780508637428284
33.882484436035156 4.371074676513672 0.8765783309936523
33.78030014038086 4.5026021003723145 0.8743382692337036
33.75593948364258 4.570669174194336 0.8739526271820068
33.69886779785156 4.6362714767456055 0.8727272748947144
33.6502685546875 4.70075798034668 0.8697254061698914
33.60102462768555 4.765071392059326 0.8687058091163635
33.55421447753906 4.831494331359863 0.8677603006362915
33.5195426940918 4.897524833679199 0.8671255111694336
33.51021194458008 4.969298362731934 0.8671566247940063
33.45741653442383 5.032448768615723 0.8660577535629272
33.424720764160156 5.098484516143799 0.8654841184616089
33.37028884887695 5.163151741027832 0.8643575310707092
33.34379959106445 5.2299275398254395 0.8638702630996704
33.31680679321289 5.296637535095215 0.8614757657051086
33.26844024658203 5.361757278442383 0.8605194687843323
33.21457290649414 5.423816680908203 0.8594140410423279
33.1316032409668 5.553619384765625 0.8578646779060364
33.096275329589844 5.61833381652832 0.8571699261665344
33.02423095703125 5.749293327331543 0.8539564609527588
32.96533966064453 5.809549808502197 0.8527423143386841
32.88747024536133 5.938738822937012 0.8513689041137695
32.766658782958984 6.129875659942627 0.8471861481666565
32.640594482421875 6.318925380706787 0.8449375033378601
32.423805236816406 6.703025817871094 0.8374859094619751
32.29220962524414 6.887783050537109 0.833249032497406
32.1988410949707 7.079787254333496 0.8318933844566345
32.10981750488281 7.202110290527344 0.828439474105835
32.073490142822266 7.263902187347412 0.8278096318244934
31.992591857910156 7.387362003326416 0.8265180587768555
31.949331283569336 7.4472432136535645 0.8238716125488281
31.880739212036133 7.572952747344971 0.8228402137756348
31.875579833984375 7.641641616821289 0.8231189250946045
31.814393997192383 7.696904182434082 0.8219465017318726
31.55957794189453 7.706578254699707 0.8138710260391235
31.303560256958008 7.712931156158447 0.8076690435409546
31.06797218322754 7.7253193855285645 0.8020085692405701
30.79833221435547 7.726171493530273 0.7917324304580688
30.54478645324707 7.729976177215576 0.7856244444847107
30.279483795166016 7.7316999435424805 0.7773905396461487
30.041444778442383 7.737360000610352 0.7716148495674133
29.772857666015625 7.736041069030762 0.7651388049125671
29.53437614440918 7.739538669586182 0.7594223022460938
29.29012107849121 7.740524768829346 0.7535529732704163
29.079557418823242 7.7513747215271 0.7467957139015198
28.83903694152832 7.751396179199219 0.7409573197364807
28.6400146484375 7.761666297912598 0.7362568974494934
28.409154891967773 7.764285087585449 0.7307466864585876
28.17681884765625 7.763662815093994 0.7234678268432617
27.737756729125977 7.76851749420166 0.7129560708999634
27.51024055480957 7.7664008140563965 0.7075192332267761
27.05982780456543 7.762434482574463 0.6951178908348083
26.87815284729004 7.770722389221191 0.6907946467399597
26.480756759643555 7.776823043823242 0.681415319442749
26.26552963256836 7.7728590965271 0.6746848225593567
25.88080406188965 7.777694225311279 0.6655710339546204
25.683923721313477 7.778319358825684 0.6609339118003845
24.247024536132812 7.7898406982421875 0.6197717785835266
23.663496017456055 7.7668232917785645 0.6045692563056946
23.226476669311523 7.785467147827148 0.5931468605995178
22.86628532409668 7.771940231323242 0.5847777128219604
22.68954086303711 7.764491081237793 0.5792632699012756
22.522493362426758 7.759576320648193 0.5753487348556519
22.364965438842773 7.758791446685791 0.5717463493347168
22.220470428466797 7.760362148284912 0.5684624910354614
22.073352813720703 7.760413646697998 0.5637388825416565
21.936437606811523 7.764970779418945 0.5606071949005127
21.819826126098633 7.774684429168701 0.5580389499664307
21.671588897705078 7.772585868835449 0.5546583533287048
21.52698516845703 7.772665500640869 0.5461311936378479
21.411104202270508 7.781087398529053 0.5422652959823608
21.275691986083984 7.783369064331055 0.5391994714736938
21.131256103515625 7.7802863121032715 0.535946786403656
21.00242805480957 7.782384395599365 0.533087968826294
20.875471115112305 7.786098957061768 0.5289812088012695
20.743698120117188 7.78602409362793 0.5259954333305359
20.620819091796875 7.790142059326172 0.5232999920845032
20.48515510559082 7.787564754486084 0.5189827084541321
20.38146209716797 7.796591281890869 0.5167646408081055
20.226003646850586 7.7866926193237305 0.5131899118423462
20.089679718017578 7.782118797302246 0.5101395845413208
19.955339431762695 7.777742385864258 0.5058820843696594
19.8507022857666 7.785848140716553 0.5035974979400635
19.72884750366211 7.785331726074219 0.5009147524833679
19.592060089111328 7.778379440307617 0.4978504478931427
19.4693603515625 7.7778544425964355 0.49392542243003845
19.356855392456055 7.779528617858887 0.4914282560348511
19.22260093688965 7.773253440856934 0.4884396493434906
19.10981559753418 7.773880958557129 0.4859832227230072
18.986675262451172 7.769746780395508 0.4820583462715149
18.608383178710938 7.751871109008789 0.47245046496391296
18.253803253173828 7.739185333251953 0.4600769579410553
17.928083419799805 7.73565673828125 0.45190319418907166
17.415538787841797 7.732364654541016 0.43984198570251465
17.11324691772461 7.72735595703125 0.4322795569896698
16.86558723449707 7.743536949157715 0.4261115789413452
16.765932083129883 7.7399492263793945 0.42399871349334717
16.605457305908203 7.750868797302246 0.41964277625083923
16.49521255493164 7.741139888763428 0.4172619879245758
16.406898498535156 7.74245548248291 0.4143822193145752
16.327028274536133 7.746280670166016 0.41272541880607605
16.23701286315918 7.744894504547119 0.4078274965286255
16.12920570373535 7.735809803009033 0.40548956394195557
16.059856414794922 7.743584632873535 0.40310484170913696
15.96217155456543 7.737349033355713 0.401055246591568
15.889548301696777 7.744109630584717 0.39960142970085144
15.784158706665039 7.733322620391846 0.397353857755661
15.716020584106445 7.74042272567749 0.3950154185295105
15.616442680358887 7.732874870300293 0.392884224653244
15.527650833129883 7.729072093963623 0.39105281233787537
15.449114799499512 7.731155872344971 0.3884775936603546
15.374524116516113 7.733813762664795 0.38696223497390747
15.280223846435547 7.726152420043945 0.38499218225479126
15.17455005645752 7.713468551635742 0.3817468583583832
15.082724571228027 7.706220626831055 0.37979647517204285
15.010808944702148 7.709911823272705 0.3783993124961853
14.941978454589844 7.713835716247559 0.3770672380924225
14.850223541259766 7.705538749694824 0.3741748034954071
14.756149291992188 7.696779251098633 0.37217655777931213
14.680069923400879 7.6958909034729 0.3706601858139038
14.601420402526855 7.693329811096191 0.3681093752384186
14.417555809020996 7.674201488494873 0.36424583196640015
14.360573768615723 7.682157516479492 0.3622547686100006
14.197409629821777 7.67194938659668 0.35804611444473267
14.10988998413086 7.66359806060791 0.3553106188774109
13.965859413146973 7.660648822784424 0.3524414598941803
13.747323989868164 7.653594970703125 0.34717389941215515
13.549304008483887 7.655324935913086 0.34243109822273254
13.350934982299805 7.6554059982299805 0.3376995027065277
13.134618759155273 7.641534805297852 0.33250895142555237
13.000240325927734 7.636772155761719 0.3289976418018341
12.949250221252441 7.643052101135254 0.328107625246048
12.814678192138672 7.636531352996826 0.3245997130870819
12.744911193847656 7.630884170532227 0.32323306798934937
12.607568740844727 7.620965003967285 0.31966203451156616
12.551929473876953 7.622941970825195 0.317827969789505
12.417643547058105 7.613156795501709 0.3152013123035431
12.355409622192383 7.610323905944824 0.3131723999977112
12.29262924194336 7.607882022857666 0.3119916617870331
12.241307258605957 7.611340045928955 0.3110530972480774
12.185725212097168 7.611889362335205 0.30920103192329407
12.129796028137207 7.612982273101807 0.30819281935691833
12.088227272033691 7.621947288513184 0.3075021207332611
12.027581214904785 7.618637561798096 0.30552712082862854
11.96408748626709 7.614278793334961 0.3043268620967865
11.91264533996582 7.616321086883545 0.303383469581604
11.870335578918457 7.624019145965576 0.30188220739364624
11.816118240356445 7.624899387359619 0.30091676115989685
11.759096145629883 7.622713088989258 0.29983192682266235
11.693145751953125 7.615445137023926 0.29774683713912964
11.657356262207031 7.626676559448242 0.29720303416252136
11.58722972869873 7.615183353424072 0.29500633478164673
11.548142433166504 7.624827861785889 0.2944242060184479
11.48007869720459 7.614184379577637 0.293056845664978
11.434417724609375 7.619081020355225 0.2915005683898926
11.365193367004395 7.607099533081055 0.290139377117157
11.324193954467773 7.613732814788818 0.2894609272480011
11.272005081176758 7.613617897033691 0.28774479031562805
11.227761268615723 7.617751598358154 0.28701862692832947
11.163053512573242 7.607726097106934 0.28576818108558655
11.049125671386719 7.598424434661865 0.2828505337238312
11.015917778015137 7.609307289123535 0.28240320086479187
10.920624732971191 7.6116180419921875 0.27996593713760376
10.852506637573242 7.598596572875977 0.27863553166389465
10.75382137298584 7.596248149871826 0.27610573172569275
10.714553833007812 7.602830410003662 0.27551308274269104
10.317468643188477 7.58459997177124 0.26619353890419006
10.188421249389648 7.588858127593994 0.2632817327976227
10.082801818847656 7.576416969299316 0.26063668727874756
10.053415298461914 7.587067604064941 0.26028358936309814
9.966264724731445 7.58734655380249 0.25882044434547424
9.915887832641602 7.581588268280029 0.2571895122528076
9.80739688873291 7.564259052276611 0.2544432282447815
9.790149688720703 7.583450794219971 0.25440388917922974
9.737890243530273 7.575355052947998 0.2534228265285492
9.697999000549316 7.577631950378418 0.25208449363708496
9.647849082946777 7.57074499130249 0.2511582374572754
9.597058296203613 7.56403112411499 0.2495412677526474
9.567439079284668 7.572966575622559 0.2491786777973175
9.529436111450195 7.575103759765625 0.2485666424036026
9.464022636413574 7.55611515045166 0.24657252430915833
9.436787605285645 7.566529750823975 0.24624158442020416
9.403650283813477 7.572072505950928 0.24578575789928436
9.355436325073242 7.566211223602295 0.24424287676811218
9.301652908325195 7.55473518371582 0.24321818351745605
9.275279998779297 7.565313339233398 0.24223746359348297
9.23072624206543 7.561869144439697 0.2414647340774536
9.190705299377441 7.561009407043457 0.2408277839422226
9.14440631866455 7.555695056915283 0.2393123209476471
9.11686897277832 7.564871788024902 0.2390025109052658
9.065339088439941 7.553933143615723 0.23737074434757233
9.032695770263672 7.559445858001709 0.23762854933738708
8.97780990600586 7.545285224914551 0.23656682670116425
8.949607849121094 7.553328514099121 0.23554980754852295
8.907495498657227 7.550390243530273 0.2348359078168869
8.868035316467285 7.548660755157471 0.2335270643234253
8.83450698852539 7.5526885986328125 0.23306801915168762
8.800056457519531 7.554940223693848 0.23254363238811493
8.760119438171387 7.55228853225708 0.23122456669807434
8.715791702270508 7.546551704406738 0.23045030236244202
8.695162773132324 7.560357570648193 0.22964425384998322
8.650423049926758 7.553036212921143 0.22884781658649445
8.61972427368164 7.558707237243652 0.22846120595932007
8.529572486877441 7.54254150390625 0.22620528936386108
8.420483589172363 7.541822910308838 0.223225399851799
8.301097869873047 7.529478073120117 0.22062687575817108
8.211840629577637 7.543156623840332 0.21880140900611877
8.14838981628418 7.548389911651611 0.2179557979106903
8.024930000305176 7.528315544128418 0.21457131206989288
7.983002662658691 7.520226955413818 0.21386773884296417
7.919780731201172 7.523834705352783 0.21235397458076477
7.893636226654053 7.530262470245361 0.21207164227962494
7.846431255340576 7.51727294921875 0.2105710804462433
7.8202667236328125 7.523392677307129 0.2102866917848587
7.779321670532227 7.515187740325928 0.20894527435302734
7.740693092346191 7.509866714477539 0.20833754539489746
7.72312068939209 7.523993492126465 0.20825661718845367
7.6769304275512695 7.510146141052246 0.2068035900592804
7.651761531829834 7.517541885375977 0.20655681192874908
7.608060836791992 7.505736827850342 0.20514535903930664
7.585424900054932 7.514530181884766 0.20495495200157166
7.547698020935059 7.509133815765381 0.20434123277664185
7.531581878662109 7.524302005767822 0.20370399951934814
7.481937408447266 7.506670951843262 0.202768012881279
7.4588518142700195 7.514671802520752 0.20194503664970398
7.418924331665039 7.505533218383789 0.20125864446163177
7.395687103271484 7.5140252113342285 0.20044533908367157
7.349442481994629 7.498139381408691 0.19961439073085785
7.33072566986084 7.510156631469727 0.19891391694545746
