VERSION .7
FIELDS x y z
SIZE 4 4 4
TYPE F F F
COUNT 1 1 1
WIDTH 839
HEIGHT 1
VIEWPOINT 0 0 0 1 0 0 0
POINTS 839
DATA ascii
11.160492897033691 5.526566982269287 -0.2724513113498688
11.130958557128906 5.540937423706055 -0.27125221490859985
11.125795364379883 5.56785249710083 -0.27141571044921875
11.100492477416992 5.613771438598633 -0.2725251615047455
11.0900239944458 5.637407302856445 -0.27237555384635925
11.063185691833496 5.682521820068359 -0.2717210650444031
11.038789749145508 5.757981300354004 -0.27124762535095215
10.847954750061035 6.1004486083984375 -0.26734820008277893
10.837400436401367 6.184510231018066 -0.2678641676902771
10.79504680633545 6.2207536697387695 -0.2667018473148346
10.77935791015625 6.241546154022217 -0.266625314950943
10.769333839416504 6.2658305168151855 -0.2665157914161682
10.733292579650879 6.275379657745361 -0.26537469029426575
10.704971313476562 6.288665771484375 -0.264996200799942
10.658590316772461 6.291416645050049 -0.2639893591403961
10.631246566772461 6.305729866027832 -0.263063907623291
10.562851905822754 6.294831275939941 -0.2616923749446869
10.547332763671875 6.316154479980469 -0.26089271903038025
10.498900413513184 6.316789627075195 -0.2600148022174835
10.458311080932617 6.322174549102783 -0.25933387875556946
10.423455238342285 6.331336975097656 -0.25806209444999695
10.399191856384277 6.346179008483887 -0.2577844262123108
10.337944984436035 6.338492393493652 -0.2558533549308777
10.313093185424805 6.353398323059082 -0.2555723786354065
10.268478393554688 6.355348110198975 -0.2547939717769623
10.225381851196289 6.358926296234131 -0.25332528352737427
10.194353103637695 6.369003772735596 -0.2528844177722931
10.163004875183105 6.378779888153076 -0.2518763542175293
10.120866775512695 6.382510185241699 -0.2509937286376953
10.093642234802246 6.394656181335449 -0.2506474256515503
10.029640197753906 6.413459300994873 -0.24844986200332642
9.980461120605469 6.41123104095459 -0.24700894951820374
9.911090850830078 6.425793647766113 -0.2457866370677948
9.794499397277832 6.438018798828125 -0.24263398349285126
9.478680610656738 6.490525245666504 -0.23500525951385498
9.371474266052246 6.504031181335449 -0.2326589673757553
9.290976524353027 6.506105422973633 -0.23064188659191132
9.262372970581055 6.51496696472168 -0.23026904463768005
9.186992645263672 6.519949913024902 -0.22682124376296997
9.168275833129883 6.535318374633789 -0.22669504582881927
9.123018264770508 6.531651973724365 -0.22522585093975067
9.111942291259766 6.5532097816467285 -0.22529715299606323
9.063920974731445 6.54725456237793 -0.22376203536987305
9.039579391479492 6.559103965759277 -0.2235063761472702
8.997530937194824 6.557137966156006 -0.22280246019363403
8.966133117675781 6.562788009643555 -0.22168324887752533
8.937031745910645 6.570852279663086 -0.22130849957466125
8.900716781616211 6.572652339935303 -0.22007110714912415
8.855499267578125 6.567702770233154 -0.21929195523262024
8.832260131835938 6.5797600746154785 -0.2183893471956253
8.79727840423584 6.582131862640381 -0.21786309778690338
8.762198448181152 6.584927082061768 -0.21682851016521454
8.732919692993164 6.591526508331299 -0.21628835797309875
8.703596115112305 6.597789287567139 -0.21539179980754852
8.674141883850098 6.604686737060547 -0.21485134959220886
8.6345796585083 6.602915287017822 -0.2137056142091751
8.592366218566895 6.599569797515869 -0.2128494679927826
8.575850486755371 6.615426063537598 -0.21227802336215973
8.537413597106934 6.614080429077148 -0.21150937676429749
8.507181167602539 6.61958646774292 -0.21110782027244568
8.478972434997559 6.626132965087891 -0.21009191870689392
8.452742576599121 6.633935451507568 -0.20978230237960815
8.38896369934082 6.641159534454346 -0.20625457167625427
8.356769561767578 6.643930435180664 -0.205306738615036
8.302436828613281 6.657991409301758 -0.20401044189929962
8.037683486938477 6.699240207672119 -0.19802555441856384
7.950900077819824 6.712263107299805 -0.1956547349691391
7.882239818572998 6.711156845092773 -0.19402478635311127
7.866288661956787 6.725982666015625 -0.19397899508476257
7.796053409576416 6.722770690917969 -0.19231130182743073
7.765201568603516 6.724513053894043 -0.1912696659564972
7.719232082366943 6.741602420806885 -0.1884564757347107
7.690378665924072 6.744785785675049 -0.18794550001621246
7.650362014770508 6.737828254699707 -0.18683603405952454
7.6374101638793945 6.755446434020996 -0.18672209978103638
7.608118534088135 6.757730484008789 -0.18587668240070343
7.5842084884643555 6.765330791473389 -0.18549340963363647
7.556882858276367 6.769369125366211 -0.18470023572444916
7.529265403747559 6.772844314575195 -0.184219628572464
7.499570846557617 6.775174140930176 -0.18337813019752502
7.474698066711426 6.7809271812438965 -0.18296542763710022
7.442214012145996 6.779665946960449 -0.1820477843284607
7.409727096557617 6.779092311859131 -0.18099381029605865
7.3857316970825195 6.785348892211914 -0.18075107038021088
7.363215446472168 6.793524742126465 -0.17994055151939392
7.3284454345703125 6.789852619171143 -0.17943742871284485
7.305023670196533 6.796379566192627 -0.1785995066165924
7.283017158508301 6.804787635803223 -0.17826759815216064
7.249621391296387 6.802017688751221 -0.1773369312286377
7.227191925048828 6.809861183166504 -0.17699527740478516
7.202958583831787 6.8155012130737305 -0.17629046738147736
7.165792942047119 6.808574676513672 -0.17558109760284424
7.159038066864014 6.83111572265625 -0.17531144618988037
7.133398056030273 6.835188388824463 -0.17488792538642883
7.093310356140137 6.825067043304443 -0.1737956404685974
7.065332889556885 6.82707405090332 -0.17149898409843445
7.038430213928223 6.8295793533325195 -0.17119209468364716
7.0172319412231445 6.837339401245117 -0.17042291164398193
6.998300552368164 6.847896575927734 -0.17031462490558624
6.9457221031188965 6.853944301605225 -0.16914033889770508
6.863551616668701 6.858556747436523 -0.16700169444084167
6.665134429931641 6.887701034545898 -0.1626230776309967
6.58649206161499 6.8926191329956055 -0.16059403121471405
6.542096138000488 6.904139995574951 -0.15963903069496155
6.510730266571045 6.899862766265869 -0.1586463898420334
6.489654541015625 6.906182289123535 -0.15848182141780853
6.470226764678955 6.914846420288086 -0.15690840780735016
6.44611120223999 6.917996883392334 -0.15653611719608307
6.415295600891113 6.913635730743408 -0.15569856762886047
6.39633321762085 6.922597408294678 -0.15501976013183594
6.375655651092529 6.929216384887695 -0.1548677235841751
6.34217643737793 6.92224645614624 -0.15383785963058472
6.333661079406738 6.941818714141846 -0.15384240448474884
6.309186935424805 6.944087028503418 -0.15316514670848846
6.2780327796936035 6.939319610595703 -0.15262731909751892
6.256691932678223 6.944849491119385 -0.15202873945236206
6.235201835632324 6.949944496154785 -0.15128690004348755
6.207612037658691 6.948792934417725 -0.15083840489387512
6.1841020584106445 6.951662063598633 -0.15018749237060547
6.166040420532227 6.960392475128174 -0.1499636471271515
6.144700527191162 6.966228485107422 -0.14937394857406616
6.111680030822754 6.957845687866211 -0.14878863096237183
6.08708381652832 6.959567546844482 -0.14798307418823242
6.0618367195129395 6.960000038146973 -0.14729434251785278
6.051070690155029 6.97681999206543 -0.1472482979297638
6.028703212738037 6.980896949768066 -0.14663583040237427
5.9963250160217285 6.9728102684021 -0.14606843888759613
5.981618881225586 6.98563289642334 -0.14564406871795654
5.9564528465271 6.985533237457275 -0.14482463896274567
5.929887771606445 6.983889102935791 -0.14439824223518372
5.908096790313721 6.988219261169434 -0.14366954565048218
5.891696929931641 6.998434543609619 -0.14320150017738342
5.866758346557617 6.998236656188965 -0.14281386137008667
5.832868576049805 6.987868785858154 -0.1417936384677887
5.804803848266602 7.013421058654785 -0.1412637084722519
5.780027866363525 7.013727188110352 -0.14060258865356445
5.735305309295654 7.0194854736328125 -0.1395449936389923
5.710100173950195 7.018311500549316 -0.1388663947582245
5.665536880493164 7.0237555503845215 -0.13781829178333282
5.637848854064941 7.01918888092041 -0.13749872148036957
5.59760856628418 7.029520034790039 -0.1362731009721756
5.559187412261963 7.041926383972168 -0.13537754118442535
5.540329933166504 7.0480637550354 -0.13527469336986542
5.48944616317749 7.044190883636475 -0.13366509974002838
5.468276023864746 7.0473527908325195 -0.1335088014602661
5.453335762023926 7.058967590332031 -0.13296417891979218
5.4303789138793945 7.059484481811523 -0.1327609121799469
5.410273551940918 7.063845634460449 -0.13208766281604767
5.385201454162598 7.06209659576416 -0.13170942664146423
5.372664451599121 7.076062202453613 -0.131219744682312
5.3502044677734375 7.077141761779785 -0.1309022456407547
5.3330278396606445 7.085619926452637 -0.13043822348117828
5.291553974151611 7.0609660148620605 -0.1296529322862625
5.2843170166015625 7.082103729248047 -0.12929798662662506
5.2606520652771 7.081683158874512 -0.12867793440818787
5.238821983337402 7.08317232131958 -0.12837636470794678
5.211259841918945 7.077261924743652 -0.12766167521476746
5.198870658874512 7.09121036529541 -0.12718066573143005
5.175310134887695 7.090101718902588 -0.12683796882629395
5.162197113037109 7.103735446929932 -0.12647773325443268
5.128750801086426 7.088596343994141 -0.12589064240455627
5.117501258850098 7.104263782501221 -0.12544414401054382
5.09567928314209 7.105708599090576 -0.12487239390611649
5.077052116394043 7.110846519470215 -0.12464907765388489
5.055635452270508 7.112931728363037 -0.12396376579999924
5.0374908447265625 7.118640899658203 -0.12347652018070221
5.005507469177246 7.104889392852783 -0.12292815744876862
4.992562294006348 7.118542671203613 -0.12244982272386551
4.977495193481445 7.128480911254883 -0.12204035371541977
4.959560871124268 7.134514808654785 -0.12183801084756851
4.926180839538574 7.118673324584961 -0.12086078524589539
4.9122209548950195 7.130075454711914 -0.12047985196113586
4.88696813583374 7.1259565353393555 -0.12037909775972366
4.866931438446045 7.128410339355469 -0.12024951726198196
4.846972465515137 7.131135940551758 -0.11959818005561829
4.8295817375183105 7.138075828552246 -0.1194155365228653
4.811166286468506 7.142749786376953 -0.11892756074666977
4.787470817565918 7.139728546142578 -0.11818546056747437
4.765560150146484 7.1397528648376465 -0.11749449372291565
4.758368968963623 7.1611175537109375 -0.11768307536840439
4.736979007720947 7.162071228027344 -0.11700788140296936
4.708420276641846 7.151100158691406 -0.11614622920751572
4.697803974151611 7.1673150062561035 -0.11625087261199951
4.6758904457092285 7.167229652404785 -0.11556478589773178
4.652896881103516 7.164430618286133 -0.11484229564666748
4.638772487640381 7.175235271453857 -0.11486087739467621
4.615711212158203 7.173126220703125 -0.11414872109889984
4.597194671630859 7.177036762237549 -0.11353850364685059
4.560320854187012 7.185922622680664 -0.11285453289747238
4.543231964111328 7.191939830780029 -0.11228147894144058
4.524998664855957 7.197082042694092 -0.11208534240722656
4.503528118133545 7.196029186248779 -0.11152973026037216
4.484596252441406 7.198956489562988 -0.11091307550668716
4.464870929718018 7.201524257659912 -0.11068065464496613
4.440751075744629 7.195923328399658 -0.11006110906600952
4.404341697692871 7.204639911651611 -0.10966086387634277
4.382150650024414 7.201881408691406 -0.10935579985380173
4.363528251647949 7.205896377563477 -0.10876117646694183
4.3417768478393555 7.203672409057617 -0.10820172727108002
4.325847625732422 7.211048603057861 -0.1080537810921669
4.31380558013916 7.225922107696533 -0.10762469470500946
4.288346290588379 7.217264175415039 -0.10697370767593384
4.266981601715088 7.216124534606934 -0.10631073266267776
4.241911888122559 7.208069801330566 -0.10593777894973755
4.234131336212158 7.229126453399658 -0.1057303249835968
4.212082862854004 7.2268385887146 -0.1050543338060379
4.196726322174072 7.234959602355957 -0.1049221083521843
4.169285297393799 7.222141742706299 -0.10410161316394806
13.116722106933594 -1.2393848896026611 -0.3144802153110504
13.006063461303711 -0.1607772409915924 -0.31243741512298584
13.000150680541992 -0.0242196936160326 -0.31306517124176025
14.86368465423584 0.4396483600139618 -0.23643018305301666
14.817347526550293 0.5315290689468384 -0.23574082553386688
14.689789772033691 1.487549066543579 -0.22947877645492554
14.692062377929688 1.581150770187378 -0.2296636402606964
14.644943237304688 1.6384994983673096 -0.2290305495262146
14.647603988647461 1.7321007251739502 -0.2292376160621643
14.631769180297852 1.8235692977905273 -0.22916561365127563
14.407208442687988 2.6628990173339844 -0.22251132130622864
14.377673149108887 2.7510242462158203 -0.22163763642311096
14.345304489135742 2.807507038116455 -0.22132033109664917
14.320915222167969 2.8336031436920166 -0.21831747889518738
14.278117179870605 2.887673854827881 -0.21763668954372406
14.269816398620605 2.916832447052002 -0.21760153770446777
14.243640899658203 2.974027633666992 -0.21671514213085175
14.183021545410156 3.0545449256896973 -0.21608072519302368
14.156255722045898 3.1420297622680664 -0.21575920283794403
13.842000961303711 3.9072139263153076 -0.20915518701076508
13.824785232543945 3.933346748352051 -0.20901766419410706
13.787680625915527 3.98563289642334 -0.20849987864494324
13.773658752441406 4.012569427490234 -0.20774655044078827
13.764137268066406 4.07275915145874 -0.20785978436470032
13.748924255371094 4.099307060241699 -0.20775800943374634
13.731871604919434 4.126184940338135 -0.20742416381835938
13.718045234680176 4.153088569641113 -0.20713593065738678
13.713950157165527 4.182934761047363 -0.20720531046390533
13.685083389282227 4.23720645904541 -0.20637080073356628
13.654335021972656 4.3219404220581055 -0.20610396564006805
13.631800651550293 4.409280300140381 -0.20530398190021515
13.32544231414795 5.065006732940674 -0.20104269683361053
13.280088424682617 5.143769264221191 -0.200842946767807
13.270512580871582 5.171757221221924 -0.19999010860919952
13.288708686828613 5.211349964141846 -0.20043343305587769
13.246406555175781 5.22672700881958 -0.19995778799057007
13.223727226257324 5.249519348144531 -0.19977812469005585
13.222476959228516 5.281747341156006 -0.1992693841457367
13.221330642700195 5.313129901885986 -0.1992119550704956
13.217867851257324 5.343624591827393 -0.1993258148431778
13.183206558227539 5.362405776977539 -0.1989748775959015
13.169255256652832 5.388608932495117 -0.19827045500278473
13.194478034973145 5.4309210777282715 -0.1986130326986313
13.143390655517578 5.474737167358398 -0.19996412098407745
13.152692794799805 5.511387825012207 -0.20028650760650635
13.105050086975098 5.556420803070068 -0.19904468953609467
13.07944393157959 5.642832279205322 -0.19852572679519653
13.045509338378906 5.725734710693359 -0.197685107588768
12.83418083190918 6.121968746185303 -0.1962740421295166
12.804126739501953 6.206739902496338 -0.19574765861034393
12.768082618713379 6.28870153427124 -0.19492536783218384
12.747751235961914 6.345536708831787 -0.19415420293807983
12.748373031616211 6.3788909912109375 -0.19436591863632202
12.725275993347168 6.400619983673096 -0.19334422051906586
12.701741218566895 6.422585487365723 -0.19319124519824982
12.66297435760498 6.4362473487854 -0.19280274212360382
12.630680084228516 6.452850818634033 -0.19251367449760437
12.60024642944336 6.4710493087768555 -0.1913929581642151
12.542131423950195 6.474364757537842 -0.19070926308631897
12.498327255249023 6.485371112823486 -0.1902533322572708
12.445870399475098 6.491199970245361 -0.18880435824394226
12.401187896728516 6.500666618347168 -0.18832997977733612
12.342245101928711 6.50318717956543 -0.18699443340301514
12.258445739746094 6.525137424468994 -0.18593935668468475
12.20180606842041 6.527520656585693 -0.18464285135269165
12.130736351013184 6.555357456207275 -0.18570168316364288
11.965230941772461 6.563439846038818 -0.18232375383377075
11.823915481567383 6.582956790924072 -0.1799745261669159
11.680954933166504 6.599899768829346 -0.1776072084903717
11.43371295928955 6.652157783508301 -0.17349712550640106
11.300202369689941 6.669918060302734 -0.17130059003829956
11.159527778625488 6.681836128234863 -0.1690090298652649
11.067652702331543 6.690306186676025 -0.167252779006958
11.038276672363281 6.703865051269531 -0.1676206886768341
10.950252532958984 6.713694095611572 -0.1659250408411026
10.894149780273438 6.710443019866943 -0.16528671979904175
10.821020126342773 6.728423118591309 -0.16382549703121185
10.775729179382324 6.731309413909912 -0.1633535474538803
10.724398612976074 6.731136322021484 -0.1620183289051056
10.692604064941406 6.742152214050293 -0.16174577176570892
10.655956268310547 6.7499895095825195 -0.16063621640205383
10.601259231567383 6.747118949890137 -0.1600254327058792
10.569321632385254 6.757650852203369 -0.15975768864154816
10.525975227355957 6.76165771484375 -0.15855248272418976
10.474723815917969 6.759482383728027 -0.15799453854560852
10.43929672241211 6.767348289489746 -0.15691040456295013
10.399669647216797 6.773253917694092 -0.15653224289417267
10.371052742004395 6.785309314727783 -0.15574094653129578
10.326120376586914 6.786772727966309 -0.15509584546089172
10.28198528289795 6.789045333862305 -0.15464846789836884
10.234533309936523 6.7882537841796875 -0.1533958613872528
10.164713859558105 6.803757190704346 -0.15221340954303741
10.126214981079102 6.808459758758545 -0.1516692340373993
10.05876636505127 6.824796676635742 -0.14996150135993958
9.93092155456543 6.829618453979492 -0.14777997136116028
9.835514068603516 6.855478286743164 -0.14570948481559753
9.708465576171875 6.858684539794922 -0.1437404453754425
9.602500915527344 6.874938011169434 -0.14209255576133728
9.487658500671387 6.883344650268555 -0.13959644734859467
9.401937484741211 6.911785125732422 -0.13826194405555725
9.325752258300781 6.916467189788818 -0.13685522973537445
9.285358428955078 6.916423797607422 -0.13647322356700897
9.213933944702148 6.923744201660156 -0.13514989614486694
9.182424545288086 6.929927825927734 -0.13329695165157318
9.109637260437012 6.935403823852539 -0.13196773827075958
9.06472396850586 6.930972099304199 -0.13099178671836853
9.047834396362305 6.948736667633057 -0.13079671561717987
9.006375312805176 6.946657180786133 -0.12987668812274933
8.9755220413208 6.952614784240723 -0.1294732540845871
8.94340705871582 6.958357334136963 -0.12869881093502045
8.916939735412598 6.9675188064575195 -0.12836049497127533
8.880332946777344 6.969308376312256 -0.12752322852611542
8.848185539245605 6.974008560180664 -0.1271049529314041
8.806074142456055 6.970492839813232 -0.12618333101272583
8.783772468566895 6.983412742614746 -0.12591604888439178
8.737180709838867 6.976011276245117 -0.12493587285280228
8.70808219909668 6.982418060302734 -0.12456223368644714
8.672980308532715 6.984764575958252 -0.1237562745809555
8.647114753723145 6.993565559387207 -0.12343178689479828
8.60082721710205 6.986364364624023 -0.12298278510570526
8.579229354858398 6.998631000518799 -0.12237050384283066
8.538712501525879 6.995140075683594 -0.12132338434457779
8.479372024536133 7.006410598754883 -0.12073706090450287
8.452853202819824 7.014067649841309 -0.12005696445703506
8.398469924926758 7.028872966766357 -0.11700588464736938
8.352424621582031 7.019860744476318 -0.11656709015369415
8.299530982971191 7.035261631011963 -0.11557838320732117
8.202293395996094 7.041928291320801 -0.11351725459098816
8.112728118896484 7.054769515991211 -0.11223684251308441
8.022191047668457 7.065096855163574 -0.11029250919818878
7.9373321533203125 7.079666614532471 -0.10843905806541443
7.887934684753418 7.09527063369751 -0.10752330720424652
7.8558030128479 7.096125602722168 -0.10728636384010315
7.793581485748291 7.099752902984619 -0.10619939863681793
7.767047882080078 7.105130195617676 -0.10539769381284714
7.705224990844727 7.108412265777588 -0.1043236032128334
7.676194667816162 7.1111741065979 -0.1021895632147789
7.624911308288574 7.123569488525391 -0.10126838088035583
7.580959320068359 7.112028121948242 -0.10039857774972916
7.5747222900390625 7.13645076751709 -0.10036344826221466
7.538090705871582 7.131734371185303 -0.09959404915571213
7.510144233703613 7.1348876953125 -0.0992683619260788
7.485391139984131 7.141856670379639 -0.09866298735141754
7.463924407958984 7.151022434234619 -0.09842367470264435
7.4245195388793945 7.14354133605957 -0.0976259708404541
7.400397777557373 7.150176048278809 -0.09687702357769012
7.367808818817139 7.148312568664551 -0.0964936688542366
7.352237701416016 7.163547039031982 -0.09601259976625443
7.3160858154296875 7.158188819885254 -0.09558543562889099
7.291200637817383 7.163516044616699 -0.09498068690299988
7.258720397949219 7.161931991577148 -0.09460537880659103
7.238765716552734 7.17216157913208 -0.09406817704439163
7.200471878051758 7.163891792297363 -0.09361428767442703
7.187762260437012 7.18186616897583 -0.09317723661661148
7.1494574546813965 7.17330265045166 -0.0927247703075409
7.1259331703186035 7.180102348327637 -0.09214811027050018
7.100229263305664 7.184168815612793 -0.0913928747177124
7.080574989318848 7.194082736968994 -0.0911838635802269
7.021437168121338 7.194350242614746 -0.08879955112934113
6.9887895584106445 7.190692901611328 -0.08811160176992416
6.945074558258057 7.206187725067139 -0.08732998371124268
6.91215181350708 7.202547073364258 -0.08650027215480804
6.869105339050293 7.217628002166748 -0.08572841435670853
6.8227386474609375 7.199432373046875 -0.0853409394621849
6.70822811126709 7.229110240936279 -0.08304629474878311
6.628451347351074 7.233818054199219 -0.0814221054315567
6.567989826202393 7.258927345275879 -0.08049651235342026
6.519974708557129 7.267146110534668 -0.07923499494791031
6.488450527191162 7.262485504150391 -0.07903596013784409
6.432446002960205 7.260903358459473 -0.07799019664525986
6.414267539978027 7.270941734313965 -0.07660654932260513
6.3858747482299805 7.269107818603516 -0.07585585862398148
6.35936975479126 7.269985198974609 -0.07558183372020721
6.344846725463867 7.284045219421387 -0.07514281570911407
6.320900917053223 7.287032127380371 -0.07489566504955292
6.282299995422363 7.273866653442383 -0.07417730242013931
6.272336483001709 7.292868614196777 -0.0740966796875
6.245023727416992 7.292349338531494 -0.07337016612291336
6.224916458129883 7.299694061279297 -0.07286865264177322
6.1905622482299805 7.289994716644287 -0.07250365614891052
6.1768646240234375 7.305219650268555 -0.07208078354597092
6.1462721824646 7.2999267578125 -0.07176118344068527
6.129971981048584 7.3119964599609375 -0.07116919755935669
6.098023414611816 7.304623126983643 -0.07053536921739578
6.08243465423584 7.316978931427002 -0.07039076089859009
6.0517401695251465 7.311553478240967 -0.06977499276399612
6.02054500579834 7.304891586303711 -0.06945304572582245
6.00559663772583 7.317641735076904 -0.06887710094451904
5.991275310516357 7.331855773925781 -0.06845127791166306
5.947129249572754 7.308953285217285 -0.06798441708087921
5.935208797454834 7.325996398925781 -0.06744866073131561
5.907638072967529 7.3229827880859375 -0.06730847805738449
5.890254974365234 7.332740783691406 -0.06671041250228882
5.858514785766602 7.325002670288086 -0.06609128415584564
5.842060565948486 7.3355865478515625 -0.06550620496273041
5.8208184242248535 7.340340614318848 -0.06530106067657471
5.7925190925598145 7.33657169342041 -0.0645892322063446
5.7690887451171875 7.338376522064209 -0.06449773162603378
5.751795291900635 7.347710609436035 -0.06390625238418579
5.725765228271484 7.346515655517578 -0.06322071701288223
5.67728328704834 7.347924709320068 -0.062458835542201996
5.618100643157959 7.366585731506348 -0.06118587777018547
5.575600624084473 7.375066757202148 -0.06049621105194092
5.547571182250977 7.369731426239014 -0.05979543924331665
5.500197887420654 7.371203422546387 -0.05905721336603165
5.487448692321777 7.386045932769775 -0.05852220207452774
5.441328048706055 7.388767242431641 -0.0578022375702858
5.373530864715576 7.3936052322387695 -0.056459732353687286
5.320676803588867 7.3860883712768555 -0.055674877017736435
5.309514045715332 7.402937412261963 -0.055583856999874115
5.280904769897461 7.39563512802124 -0.05531303584575653
5.275753021240234 7.4216628074646 -0.05486775562167168
5.251309394836426 7.419834613800049 -0.05435207858681679
5.225009918212891 7.415492057800293 -0.05410654470324516
5.197149753570557 7.409286975860596 -0.053429216146469116
5.181527614593506 7.4197187423706055 -0.05300750583410263
5.159213066101074 7.421489715576172 -0.05280836671590805
5.1408281326293945 7.427885055541992 -0.052226632833480835
5.111697196960449 7.418880462646484 -0.05167102441191673
5.098573684692383 7.433538436889648 -0.05156464874744415
5.071826457977295 7.427539348602295 -0.050901107490062714
5.057293891906738 7.439596176147461 -0.050494834780693054
5.0309295654296875 7.434688568115234 -0.05025574192404747
5.014172077178955 7.443155288696289 -0.049694932997226715
4.98813533782959 7.438750267028809 -0.049179550260305405
4.968489170074463 7.44279670715332 -0.049006879329681396
4.9512786865234375 7.450688362121582 -0.04844426363706589
4.922972679138184 7.44229793548584 -0.04790929704904556
4.901420593261719 7.4432373046875 -0.047717563807964325
4.888086318969727 7.456870079040527 -0.04719548299908638
4.864470481872559 7.455292701721191 -0.04670726880431175
4.836440086364746 7.446050643920898 -0.04645666480064392
4.818112850189209 7.452638626098633 -0.04589146375656128
4.807436943054199 7.47007942199707 -0.04621758311986923
4.7802228927612305 7.461773872375488 -0.045564040541648865
4.764583587646484 7.472457408905029 -0.04556698352098465
4.742470741271973 7.471936225891113 -0.04496341198682785
4.717863082885742 7.467615604400635 -0.0443391315639019
4.698965549468994 7.472765922546387 -0.04418032988905907
4.679203033447266 7.475718975067139 -0.0437316931784153
4.656907081604004 7.474789142608643 -0.04313172399997711
4.641257286071777 7.485003471374512 -0.04300418496131897
4.616261959075928 7.479304313659668 -0.04250940680503845
4.602396011352539 7.492603778839111 -0.0419919416308403
4.580488204956055 7.491753101348877 -0.041804734617471695
4.560802459716797 7.494458198547363 -0.041360702365636826
4.541115760803223 7.498128890991211 -0.040792036801576614
4.5240983963012695 7.505136489868164 -0.04024427756667137
4.498595714569092 7.499014377593994 -0.040159519761800766
4.483088493347168 7.50844144821167 -0.03962650150060654
4.459383964538574 7.504075527191162 -0.03902175650000572
4.4462127685546875 7.518436431884766 -0.038918472826480865
4.426158428192139 7.520100116729736 -0.038475219160318375
4.408545970916748 7.525858402252197 -0.037925247102975845
4.37890625 7.512009620666504 -0.03768050670623779
4.36595344543457 7.525639533996582 -0.03730016201734543
4.329681396484375 7.53605842590332 -0.03700554370880127
4.297700881958008 7.516463279724121 -0.03673741966485977
4.28250789642334 7.527162551879883 -0.03621648997068405
4.2605462074279785 7.524849891662598 -0.035762589424848557
4.2435736656188965 7.531283378601074 -0.035223692655563354
4.227587699890137 7.540531158447266 -0.03509745001792908
4.2053632736206055 7.5375165939331055 -0.034516092389822006
4.185371398925781 7.5384087562561035 -0.03408065438270569
4.164115905761719 7.538024425506592 -0.03391155228018761
4.139164924621582 7.529732704162598 -0.03331120312213898
4.129864692687988 7.550716876983643 -0.03296682983636856
4.108755111694336 7.549555778503418 -0.032399632036685944
4.090306282043457 7.552946090698242 -0.03225134313106537
4.067630767822266 7.549543857574463 -0.03180226683616638
13.156547546386719 2.7470414638519287 -0.26529091596603394
13.142707824707031 2.7726259231567383 -0.2651229500770569
13.106002807617188 2.8225860595703125 -0.26462119817733765
13.055437088012695 2.897693634033203 -0.26314184069633484
13.017476081848145 2.975257396697998 -0.26275140047073364
12.725361824035645 3.620540142059326 -0.25710704922676086
12.704177856445312 3.7009992599487305 -0.25713974237442017
12.669931411743164 3.748981237411499 -0.2567662298679352
12.676448822021484 3.779536247253418 -0.25686562061309814
12.642616271972656 3.8274993896484375 -0.2563183009624481
12.616540908813477 3.848205327987671 -0.2559530735015869
12.590347290039062 3.898247003555298 -0.2551361918449402
12.601875305175781 3.9304933547973633 -0.25553444027900696
12.5717191696167 3.979259967803955 -0.25507161021232605
12.52766227722168 4.052134990692139 -0.2540724575519562
12.4901704788208 4.126922607421875 -0.2536458671092987
12.18319034576416 4.748002052307129 -0.24936041235923767
12.160344123840332 4.798186302185059 -0.24930383265018463
12.15805435180664 4.826465129852295 -0.24866382777690887
12.145389556884766 4.880746364593506 -0.248821422457695
12.102910041809082 4.892871379852295 -0.24815674126148224
12.094520568847656 4.948841094970703 -0.24761350452899933
12.09584903717041 4.978714942932129 -0.2494964748620987
12.056830406188965 5.022136688232422 -0.24851560592651367
12.041519165039062 5.045108318328857 -0.24841561913490295
12.014715194702148 5.093465328216553 -0.2481154501438141
11.991864204406738 5.172954082489014 -0.2475125640630722
11.952739715576172 5.246109962463379 -0.24677599966526031
11.708321571350098 5.7667317390441895 -0.24439606070518494
11.661376953125 5.834989547729492 -0.24338075518608093
11.636591911315918 5.853023529052734 -0.2431177943944931
11.633161544799805 5.912815093994141 -0.24337637424468994
11.606700897216797 5.929707050323486 -0.24247175455093384
11.617523193359375 5.966353416442871 -0.24296192824840546
11.591745376586914 5.983758449554443 -0.24249590933322906
11.561334609985352 5.998479843139648 -0.24151122570037842
11.555425643920898 6.0265655517578125 -0.24165481328964233
11.55280590057373 6.0559401512146 -0.24186430871486664
11.519539833068848 6.069010257720947 -0.2412428855895996
11.498432159423828 6.089094161987305 -0.2404642105102539
11.507919311523438 6.124942779541016 -0.24092963337898254
11.486717224121094 6.144969940185547 -0.2411791831254959
11.445247650146484 6.184231758117676 -0.2408454716205597
11.453641891479492 6.2201995849609375 -0.24069350957870483
11.405584335327148 6.25644588470459 -0.24004626274108887
11.345598220825195 6.316651344299316 -0.23881962895393372
11.233535766601562 6.3470988273620605 -0.2365061342716217
10.623181343078613 6.451765060424805 -0.2247842252254486
10.487232208251953 6.459793567657471 -0.22200998663902283
10.375186920166016 6.481100082397461 -0.21974878013134003
10.31045913696289 6.501191139221191 -0.21821171045303345
10.266992568969727 6.50360107421875 -0.21757647395133972
10.227771759033203 6.508747100830078 -0.21685586869716644
10.18911361694336 6.5145583152771 -0.21576809883117676
10.14693546295166 6.517504692077637 -0.21516293287277222
10.112117767333984 6.52482271194458 -0.2145351767539978
10.070958137512207 6.528568267822266 -0.21339769661426544
10.038206100463867 6.53717041015625 -0.21299341320991516
9.994083404541016 6.538675308227539 -0.21217499673366547
9.953376770019531 6.541579246520996 -0.21104653179645538
9.93293571472168 6.55790901184082 -0.2109030932188034
9.884440422058105 6.556046962738037 -0.20999400317668915
9.814613342285156 6.5694169998168945 -0.2083757519721985
9.770265579223633 6.5691328048706055 -0.20734885334968567
9.70036506652832 6.581623077392578 -0.205735981464386
9.58223819732666 6.58982515335083 -0.2033947855234146
9.481891632080078 6.608999252319336 -0.20143723487854004
9.368125915527344 6.617595195770264 -0.19919975101947784
9.059383392333984 6.659958362579346 -0.19253385066986084
8.958528518676758 6.672975063323975 -0.19059622287750244
8.84804916381836 6.677577495574951 -0.18691560626029968
8.794193267822266 6.695248126983643 -0.18585890531539917
8.760641098022461 6.69846773147583 -0.1852816939353943
8.694287300109863 6.705941677093506 -0.1839645802974701
8.660090446472168 6.7082743644714355 -0.1833745241165161
8.6278715133667 6.71221399307251 -0.18248163163661957
8.593036651611328 6.7144269943237305 -0.18188607692718506
8.572759628295898 6.72728157043457 -0.1812465488910675
8.534894943237305 6.727077484130859 -0.18058975040912628
8.50919246673584 6.735494613647461 -0.1803411990404129
8.466191291809082 6.730283737182617 -0.1792263686656952
8.450014114379883 6.746729850769043 -0.17902763187885284
8.40404987335205 6.7386345863342285 -0.17785008251667023
8.379913330078125 6.748743534088135 -0.17748616635799408
8.346197128295898 6.7501912117004395 -0.17706835269927979
8.323259353637695 6.760258674621582 -0.17638158798217773
8.290197372436523 6.7628493309021 -0.17582976818084717
8.259605407714844 6.766489028930664 -0.1749834269285202
8.231080055236816 6.771712779998779 -0.1745198369026184
8.188312530517578 6.76591157913208 -0.1734265685081482
8.17173957824707 6.780802249908447 -0.1717396229505539
8.109967231750488 6.787417888641357 -0.17055058479309082
8.060155868530273 6.774222373962402 -0.169644296169281
8.012362480163574 6.7918381690979 -0.16859745979309082
7.922430038452148 6.801656723022461 -0.16647940874099731
7.839561939239502 6.816588401794434 -0.16500133275985718
7.671084880828857 6.842188835144043 -0.1618555188179016
7.580013275146484 6.847005844116211 -0.15974245965480804
7.501036643981934 6.861789226531982 -0.15836291015148163
7.432848930358887 6.857133388519287 -0.1553594172000885
7.416055679321289 6.870182514190674 -0.15530657768249512
7.358219146728516 6.8744120597839355 -0.15408483147621155
7.335505962371826 6.8817572593688965 -0.15329305827617645
7.307104110717773 6.883880615234375 -0.15300054848194122
7.287199974060059 6.894368648529053 -0.15242469310760498
7.255529403686523 6.8929948806762695 -0.15191428363323212
7.222599029541016 6.8904852867126465 -0.1515260487794876
7.210592746734619 6.908310890197754 -0.15097081661224365
7.1692047119140625 6.897248268127441 -0.1504051834344864
7.141645431518555 6.900172233581543 -0.14952965080738068
7.1231513023376465 6.910942554473877 -0.14944003522396088
7.101578712463379 6.918679237365723 -0.14868319034576416
7.070141315460205 6.9175519943237305 -0.1483343094587326
7.038482666015625 6.915223121643066 -0.14736978709697723
7.008278846740723 6.915032863616943 -0.14704683423042297
6.9895758628845215 6.92526388168335 -0.1468101441860199
6.958362579345703 6.923011779785156 -0.14600136876106262
6.934850692749023 6.92916202545166 -0.14567522704601288
6.909903526306152 6.932950496673584 -0.14499998092651367
6.883142471313477 6.934823513031006 -0.1447397768497467
6.853489875793457 6.934513568878174 -0.1438319981098175
6.837210178375244 6.946816444396973 -0.14274710416793823
6.808436393737793 6.947000026702881 -0.1418568342924118
6.78489875793457 6.951987266540527 -0.14167164266109467
6.759088516235352 6.954355239868164 -0.14128951728343964
6.708128929138184 6.960334777832031 -0.14024588465690613
6.683488368988037 6.963630676269531 -0.13958381116390228
6.631997108459473 6.968489646911621 -0.13853450119495392
6.40475606918335 6.9896931648254395 -0.13406974077224731
6.337834358215332 7.004766941070557 -0.13257555663585663
6.269168853759766 7.0170440673828125 -0.13134421408176422
6.223905086517334 7.025503158569336 -0.13030420243740082
6.206636428833008 7.035578727722168 -0.12981408834457397
6.174361228942871 7.028339385986328 -0.12930625677108765
6.153381824493408 7.034501075744629 -0.12874561548233032
6.1234965324401855 7.029929161071777 -0.12829187512397766
6.108201026916504 7.041821479797363 -0.12784430384635925
6.074633598327637 7.033422470092773 -0.12732051312923431
6.061839580535889 7.048123359680176 -0.1269274652004242
6.028780937194824 7.039841651916504 -0.12641240656375885
6.00333309173584 7.039852619171143 -0.12575706839561462
5.983080863952637 7.045665740966797 -0.12550382316112518
5.96270227432251 7.0521464347839355 -0.12496523559093475
5.950585842132568 7.06751012802124 -0.12488022446632385
5.911774635314941 7.051724910736084 -0.12395577132701874
5.900575637817383 7.068317890167236 -0.12389343231916428
5.8862104415893555 7.08092737197876 -0.12347334623336792
5.858116626739502 7.077622413635254 -0.12306343019008636
5.830630302429199 7.074462890625 -0.12237077206373215
5.80483865737915 7.073024272918701 -0.12200367450714111
5.790386199951172 7.086016654968262 -0.12145620584487915
5.753828525543213 7.0713887214660645 -0.1210002452135086
5.73157262802124 7.073971748352051 -0.12028443813323975
5.7084856033325195 7.076330184936523 -0.12011629343032837
5.696189880371094 7.091150283813477 -0.12003382295370102
5.669487953186035 7.088658809661865 -0.1192326471209526
5.64979362487793 7.0943803787231445 -0.11899756640195847
5.625953674316406 7.094607353210449 -0.11838613450527191
5.606726169586182 7.101253509521484 -0.11816489696502686
5.5826616287231445 7.101237773895264 -0.11755133420228958
5.565404415130615 7.109602928161621 -0.11736591905355453
5.537713050842285 7.1052327156066895 -0.11668243259191513
5.499622344970703 7.117984771728516 -0.11596120893955231
5.4281392097473145 7.117503643035889 -0.11430257558822632
5.386626243591309 7.125102519989014 -0.11351372301578522
5.320224761962891 7.130008220672607 -0.1123836413025856
5.260365962982178 7.143039226531982 -0.11111263930797577
5.197456359863281 7.15133810043335 -0.11006151139736176
5.154396057128906 7.15526008605957 -0.10952704399824142
5.141721248626709 7.169210433959961 -0.1091671735048294
5.115725040435791 7.164309024810791 -0.10880120098590851
5.095972061157227 7.168756008148193 -0.10829692333936691
5.081929683685303 7.180733680725098 -0.10818690061569214
5.056167125701904 7.175865173339844 -0.10754931718111038
5.036152362823486 7.179762840270996 -0.10731786489486694
5.003303527832031 7.164735317230225 -0.10640384256839752
4.993344306945801 7.182888507843018 -0.10651542246341705
4.968592643737793 7.179024696350098 -0.10577207058668137
4.946249961853027 7.178757190704346 -0.10521174967288971
4.929808616638184 7.1874847412109375 -0.10505826026201248
4.897629261016846 7.172659397125244 -0.10428948700428009
4.883963108062744 7.185330867767334 -0.10419481992721558
4.868629455566406 7.194842338562012 -0.10365573316812515
4.8512420654296875 7.201526641845703 -0.10360585153102875
4.826259613037109 7.1973466873168945 -0.10286907851696014
4.8051438331604 7.1981048583984375 -0.10233654081821442
4.793009281158447 7.212524890899658 -0.10227110981941223
4.773271560668945 7.215986728668213 -0.10164831578731537
4.7501983642578125 7.213825225830078 -0.10147777199745178
4.724616050720215 7.208221912384033 -0.10073176771402359
4.713614463806152 7.224089622497559 -0.10081679373979568
4.687615394592285 7.217157363891602 -0.10085472464561462
4.672791481018066 7.227856159210205 -0.10034008324146271
4.65444278717041 7.232348442077637 -0.09986965358257294
4.6346893310546875 7.234835624694824 -0.09964362531900406
4.60764217376709 7.226321220397949 -0.09886834770441055
4.580088138580322 7.216096878051758 -0.09859821200370789
4.568432807922363 7.231091499328613 -0.09815029799938202
4.551213264465332 7.237795829772949 -0.09771379083395004
4.501678466796875 7.226377964019775 -0.09665796905755997
4.492672443389893 7.24537992477417 -0.0967872217297554
4.447999000549316 7.2412495613098145 -0.09556858241558075
4.43226957321167 7.249329566955566 -0.09542850404977798
4.416621685028076 7.258533000946045 -0.09503167867660522
4.385977268218994 7.241970062255859 -0.09457080811262131
4.369739532470703 7.249066352844238 -0.09402817487716675
4.353153228759766 7.256566524505615 -0.09361262619495392
4.333929061889648 7.258623123168945 -0.09339848905801773
4.297208786010742 7.266474723815918 -0.09275050461292267
4.2806396484375 7.272861480712891 -0.0922033041715622
4.262309551239014 7.277236461639404 -0.09175251424312592
4.234864711761475 7.264906883239746 -0.09175191074609756
4.226482391357422 7.285479545593262 -0.09177620708942413
4.202891826629639 7.280356407165527 -0.0912095233798027
14.856362342834473 3.62532639503479 -0.17486640810966492
14.824316024780273 3.7164039611816406 -0.17476186156272888
14.412755012512207 4.627890110015869 -0.1682637631893158
14.38328742980957 4.685338973999023 -0.16744086146354675
14.365196228027344 4.712441921234131 -0.16734516620635986
14.356893539428711 4.77678108215332 -0.16726425290107727
14.316056251525879 4.7962141036987305 -0.16690532863140106
14.30661392211914 4.860159873962402 -0.16681768000125885
14.267038345336914 4.9469733238220215 -0.16600942611694336
14.20885181427002 5.027082443237305 -0.16547857224941254
14.180098533630371 5.117437839508057 -0.16481196880340576
13.876813888549805 5.814051628112793 -0.1610867977142334
13.8243408203125 5.894501686096191 -0.15998569130897522
13.774375915527344 5.975812911987305 -0.159841850399971
13.761272430419922 6.004090309143066 -0.15983355045318604
13.764904975891113 6.040710926055908 -0.15910926461219788
13.734073638916016 6.061201095581055 -0.15889546275138855
13.738537788391113 6.097264766693115 -0.15909269452095032
13.705015182495117 6.117465019226074 -0.1600436121225357
13.701333045959473 6.149951457977295 -0.1601489633321762
13.67510986328125 6.17307710647583 -0.15977954864501953
13.652974128723145 6.197460174560547 -0.1596723198890686
13.648761749267578 6.229740142822266 -0.15907394886016846
13.606354713439941 6.314040660858154 -0.1588231325149536
13.568540573120117 6.40123987197876 -0.15793561935424805
12.625011444091797 6.651192665100098 -0.14699019491672516
12.457319259643555 6.663231372833252 -0.14466014504432678
12.330674171447754 6.695757865905762 -0.14347189664840698
12.229860305786133 6.707627773284912 -0.14197728037834167
12.17812728881836 6.712396621704102 -0.14133670926094055
12.128159523010254 6.717708110809326 -0.140273779630661
12.070679664611816 6.719606876373291 -0.13977468013763428
12.022303581237793 6.725395202636719 -0.13917455077171326
11.978243827819824 6.734153747558594 -0.1381915956735611
11.915440559387207 6.731656074523926 -0.13762858510017395
11.869180679321289 6.738051414489746 -0.13725575804710388
11.844596862792969 6.757363319396973 -0.13693778216838837
11.796528816223145 6.762655735015869 -0.1371772736310959
11.726727485656738 6.755738258361816 -0.13653096556663513
11.590522766113281 6.7746734619140625 -0.13461977243423462
11.461712837219238 6.796413898468018 -0.13280317187309265
11.321771621704102 6.809996128082275 -0.1308685839176178
10.659284591674805 6.877659797668457 -0.12178073078393936
10.53870964050293 6.894080638885498 -0.12012723833322525
10.458881378173828 6.904929161071777 -0.11936559528112411
10.426637649536133 6.914752960205078 -0.11857941746711731
10.34904670715332 6.926225662231445 -0.11784572154283524
10.29665756225586 6.922144889831543 -0.11683648824691772
10.273401260375977 6.93842077255249 -0.1165599524974823
10.22299861907959 6.935314655303955 -0.11615034937858582
10.178780555725098 6.9364237785339355 -0.11524015665054321
10.141936302185059 6.942870140075684 -0.1148109957575798
10.108396530151367 6.950761795043945 -0.11459337919950485
10.065183639526367 6.952071666717529 -0.11370024085044861
10.03637981414795 6.963675022125244 -0.11336356401443481
9.98547077178955 6.959311485290527 -0.1123865395784378
9.9537353515625 6.967926979064941 -0.11219225078821182
9.907883644104004 6.967197418212891 -0.11166436970233917
9.88065242767334 6.978953838348389 -0.11096026748418808
9.827202796936035 6.972499370574951 -0.11052469164133072
9.799532890319824 6.983484745025635 -0.11020040512084961
9.722350120544434 6.990407466888428 -0.10855148732662201
9.60680866241455 6.99936580657959 -0.10702531039714813
9.495866775512695 7.010343551635742 -0.10555755347013474
9.386146545410156 7.02093505859375 -0.10356730967760086
9.072515487670898 7.057919979095459 -0.09928871691226959
8.965707778930664 7.0657501220703125 -0.09790724515914917
8.877237319946289 7.086948394775391 -0.09515180438756943
8.80583381652832 7.090871334075928 -0.09401565790176392
8.769081115722656 7.091322898864746 -0.09325697273015976
8.69257640838623 7.090211868286133 -0.09259575605392456
8.671621322631836 7.103137969970703 -0.09200991690158844
8.62188720703125 7.093229293823242 -0.09147878736257553
8.603960037231445 7.108471393585205 -0.09092704206705093
8.560274124145508 7.102320671081543 -0.09045831114053726
8.547590255737305 7.122681140899658 -0.08996842056512833
8.496818542480469 7.110300540924072 -0.08942671120166779
8.477569580078125 7.1243696212768555 -0.08938059210777283
8.439590454101562 7.1230573654174805 -0.08862710744142532
8.412215232849121 7.129897594451904 -0.0883331373333931
8.371566772460938 7.1262311935424805 -0.08755619823932648
8.356966972351074 7.143765449523926 -0.08739699423313141
8.302339553833008 7.127151966094971 -0.08698151260614395
8.277499198913574 7.136386394500732 -0.08637331426143646
8.246817588806152 7.139822959899902 -0.08604737371206284
8.224370956420898 7.150513648986816 -0.0854635164141655
8.191316604614258 7.152346611022949 -0.08511783927679062
8.152844429016113 7.148627281188965 -0.08436977118253708
8.096521377563477 7.159778594970703 -0.081934854388237
8.0706787109375 7.166825294494629 -0.08166471123695374
8.009037017822266 7.172640800476074 -0.08084786683320999
7.912746429443359 7.176556587219238 -0.07952094078063965
7.820611000061035 7.1831159591674805 -0.07790619134902954
7.7426862716674805 7.201804161071777 -0.07693472504615784
7.660092830657959 7.216211318969727 -0.0757700726389885
7.570767879486084 7.222432613372803 -0.0742114782333374
7.477614879608154 7.223900318145752 -0.07295525819063187
7.39249849319458 7.232069492340088 -0.07049661129713058
7.341586112976074 7.2430219650268555 -0.06967206299304962
7.312725067138672 7.244555473327637 -0.06891335546970367
7.24772834777832 7.240899085998535 -0.06796184182167053
7.235877990722656 7.259124755859375 -0.06799004971981049
7.206422805786133 7.2605299949646 -0.0672350823879242
7.179937839508057 7.263934135437012 -0.06713064014911652
7.153564453125 7.267354488372803 -0.06687380373477936
7.128847599029541 7.273258209228516 -0.06631502509117126
7.098231792449951 7.272149085998535 -0.06602224707603455
7.082618713378906 7.286341667175293 -0.06554532051086426
7.042662620544434 7.276272296905518 -0.06517182290554047
7.02651834487915 7.289803504943848 -0.06469201296567917
6.987785339355469 7.280682563781738 -0.06433118879795074
6.966204643249512 7.288413047790527 -0.0638037919998169
6.939897537231445 7.291120529174805 -0.06370092928409576
6.922311305999756 7.303824424743652 -0.06306693702936172
6.881271839141846 7.290765762329102 -0.06283274292945862
6.873780250549316 7.313173770904541 -0.062290165573358536
6.82460880279541 7.292011260986328 -0.061986759305000305
6.813441276550293 7.310427665710449 -0.061412692070007324
6.764408111572266 7.319378852844238 -0.060030270367860794
6.72628927230835 7.308502197265625 -0.059366267174482346
6.676373481750488 7.315860748291016 -0.05859438702464104
6.656696319580078 7.324768543243408 -0.05840837582945824
6.598608016967773 7.322574138641357 -0.057567860931158066
6.521766662597656 7.329435348510742 -0.056243691593408585
6.380008220672607 7.354955673217773 -0.05403432995080948
6.310459136962891 7.368067741394043 -0.053103622049093246
6.225645542144775 7.36221981048584 -0.05174478143453598
6.176164627075195 7.36618185043335 -0.05085979774594307
6.15562629699707 7.372929573059082 -0.05067794397473335
6.116920471191406 7.389605522155762 -0.050026219338178635
6.082155227661133 7.378726959228516 -0.04928544536232948
6.066190719604492 7.391252517700195 -0.04884031414985657
6.0426740646362305 7.394055366516113 -0.048632726073265076
6.01503849029541 7.391491413116455 -0.04809330403804779
5.986850738525391 7.38881778717041 -0.04785455763339996
5.977046012878418 7.408315658569336 -0.047457996755838394
5.941613674163818 7.395751953125 -0.047159235924482346
5.923947334289551 7.405887603759766 -0.046703264117240906
5.892781734466553 7.398570537567139 -0.046442098915576935
5.882397651672363 7.417065143585205 -0.04604330658912659
5.8470048904418945 7.404875755310059 -0.045751865953207016
5.833168983459473 7.4189558029174805 -0.045324116945266724
5.806173324584961 7.416951656341553 -0.045100096613168716
5.7854461669921875 7.422381401062012 -0.04448408633470535
5.750732421875 7.409506320953369 -0.04433414712548256
5.740930080413818 7.42936372756958 -0.043806497007608414
5.713932514190674 7.42645263671875 -0.04371875151991844
