VERSION .7
FIELDS x y z
SIZE 4 4 4
TYPE F F F
COUNT 1 1 1
WIDTH 828
HEIGHT 1
VIEWPOINT 0 0 0 1 0 0 0
POINTS 828
DATA ascii
14.144346237182617 -6.020608425140381 -0.2668043076992035
14.156350135803223 -5.920876979827881 -0.2672584354877472
14.171533584594727 -5.7531867027282715 -0.2682562470436096
14.175033569335938 -5.548050880432129 -0.268838107585907
14.189190864562988 -5.519663333892822 -0.26888543367385864
14.187728881835938 -5.484229564666748 -0.26863893866539
14.192197799682617 -5.452132225036621 -0.2694397270679474
14.190755844116211 -5.417810440063477 -0.26919645071029663
14.20161247253418 -5.387222766876221 -0.26917868852615356
14.198766708374023 -5.35246467590332 -0.26644426584243774
14.210540771484375 -5.32226037979126 -0.2670694589614868
14.21470832824707 -5.2902116775512695 -0.26725101470947266
14.222350120544434 -5.25947904586792 -0.2671867609024048
14.222326278686523 -5.224959850311279 -0.266975998878479
14.22627067565918 -5.192927360534668 -0.2677674889564514
14.232076644897461 -5.09388542175293 -0.2672708034515381
14.230838775634766 -5.025933265686035 -0.26776960492134094
14.225467681884766 -4.99085807800293 -0.26747050881385803
14.231332778930664 -4.925703525543213 -0.2681064009666443
14.241891860961914 -4.8962860107421875 -0.26811838150024414
14.25454330444336 -4.83360481262207 -0.2688795328140259
14.274393081665039 -4.4424567222595215 -0.26644670963287354
14.264785766601562 -4.341294288635254 -0.26665979623794556
14.263927459716797 -4.243241310119629 -0.2670470178127289
14.281272888183594 -4.183015823364258 -0.2670389413833618
14.253321647644043 -4.1427321434021 -0.267258882522583
14.268190383911133 -4.114962100982666 -0.26737380027770996
14.268250465393066 -4.081984043121338 -0.2672092318534851
14.267850875854492 -4.049856662750244 -0.267044335603714
14.269479751586914 -4.018340110778809 -0.26782381534576416
14.272418022155762 -3.9862799644470215 -0.26771318912506104
14.275606155395508 -3.9552533626556396 -0.2676231861114502
14.273344039916992 -3.9218149185180664 -0.26742228865623474
14.2842378616333 -3.8929455280303955 -0.26777005195617676
14.287250518798828 -3.8619332313537598 -0.2679804265499115
14.301411628723145 -3.8329966068267822 -0.2680888772010803
14.282161712646484 -3.7960875034332275 -0.26606833934783936
14.274770736694336 -3.762424945831299 -0.2657879590988159
14.279126167297363 -3.730968475341797 -0.2657163739204407
14.27353286743164 -3.6978819370269775 -0.26546984910964966
14.28314208984375 -3.6678287982940674 -0.2658018469810486
14.293794631958008 -3.638962745666504 -0.26646220684051514
14.283369064331055 -3.6047635078430176 -0.2661329507827759
14.27284049987793 -3.5696918964385986 -0.26578885316848755
14.290136337280273 -3.5425238609313965 -0.26626765727996826
14.284809112548828 -3.509753704071045 -0.26663345098495483
14.29848575592041 -3.4807424545288086 -0.26675504446029663
14.303908348083496 -3.4506354331970215 -0.2667084038257599
14.299186706542969 -3.385836601257324 -0.2666539251804352
14.284937858581543 -3.3511714935302734 -0.2668565809726715
14.31428050994873 -3.294516086578369 -0.2671300768852234
14.290935516357422 -3.2579305171966553 -0.2665766477584839
14.302461624145508 -3.008657932281494 -0.2655135989189148
14.31649398803711 -2.9177474975585938 -0.2660193145275116
14.330480575561523 -2.826275587081909 -0.26682019233703613
14.327853202819824 -2.732295513153076 -0.26675552129745483
14.311027526855469 -2.698319911956787 -0.2663266062736511
14.31643295288086 -2.66768217086792 -0.2663307189941406
14.325151443481445 -2.6385586261749268 -0.26697856187820435
14.318746566772461 -2.606668472290039 -0.26675742864608765
14.32984733581543 -2.546386957168579 -0.26704660058021545
14.332159042358398 -2.516127824783325 -0.2669948935508728
14.349038124084473 -2.4875054359436035 -0.26780587434768677
14.340652465820312 -2.455408811569214 -0.26755857467651367
14.341766357421875 -2.4246790409088135 -0.2674751281738281
14.340215682983398 -2.3932151794433594 -0.2676461338996887
14.353719711303711 -2.2408506870269775 -0.26744669675827026
14.339320182800293 -2.208130359649658 -0.26708778738975525
14.32380485534668 -2.082988739013672 -0.26733723282814026
14.314723014831543 -2.0507442951202393 -0.26708531379699707
14.121946334838867 -0.32097771763801575 -0.2684033215045929
14.135224342346191 -0.23209942877292633 -0.2692067623138428
14.132832527160645 -0.14319643378257751 -0.2685719132423401
14.143379211425781 -0.08373559266328812 -0.27108240127563477
14.134727478027344 -0.0543513298034668 -0.27091366052627563
16.430400848388672 0.1775081753730774 -0.1784600019454956
16.425586700439453 0.24664291739463806 -0.17841647565364838
16.383134841918945 0.5551830530166626 -0.18075475096702576
16.37117576599121 0.623813271522522 -0.18097476661205292
16.359493255615234 0.6580429077148438 -0.1808619499206543
16.371509552001953 0.7269229292869568 -0.18102583289146423
16.351030349731445 0.7606890797615051 -0.18081733584403992
16.353973388671875 0.7951669692993164 -0.18086831271648407
16.348196029663086 0.8288954496383667 -0.18082253634929657
16.35516357421875 0.8639543652534485 -0.18091915547847748
16.3385009765625 0.8974041938781738 -0.1807560920715332
16.32929801940918 0.9315646886825562 -0.1806764453649521
16.31349754333496 0.9646312594413757 -0.18052294850349426
16.3189640045166 0.9992687702178955 -0.1806057244539261
16.30576515197754 1.0331025123596191 -0.1804834008216858
16.315099716186523 1.0680177211761475 -0.18061111867427826
16.304601669311523 1.1013154983520508 -0.1798688769340515
16.29503631591797 1.1353166103363037 -0.17978957295417786
16.299137115478516 1.1699219942092896 -0.18322008848190308
16.286197662353516 1.2029695510864258 -0.18310248851776123
16.271852493286133 1.236539602279663 -0.18297018110752106
16.283048629760742 1.2717078924179077 -0.1831267774105072
16.27223777770996 1.3055164813995361 -0.18303519487380981
16.267839431762695 1.3391456604003906 -0.18301737308502197
16.264591217041016 1.3731913566589355 -0.18301279842853546
16.246543884277344 1.4063013792037964 -0.18284155428409576
16.243396759033203 1.4403221607208252 -0.1828397661447525
16.252063751220703 1.4757626056671143 -0.18297390639781952
16.23402976989746 1.5080976486206055 -0.18280449509620667
16.24169158935547 1.5431381464004517 -0.1829267293214798
16.221662521362305 1.5758821964263916 -0.18273931741714478
16.2283935546875 1.6108641624450684 -0.18285401165485382
16.213159561157227 1.6433359384536743 -0.18271934986114502
16.19982147216797 1.7109391689300537 -0.18264774978160858
16.209836959838867 1.7460181713104248 -0.18280088901519775
16.19158935546875 1.8130650520324707 -0.18267954885959625
16.194801330566406 1.8825161457061768 -0.18280360102653503
16.175968170166016 1.9143575429916382 -0.1823117434978485
16.148212432861328 1.9800667762756348 -0.1847582757472992
16.143667221069336 2.0135231018066406 -0.18442872166633606
16.107820510864258 2.0779809951782227 -0.184114471077919
16.088281631469727 2.1443803310394287 -0.18398793041706085
16.071945190429688 2.176156997680664 -0.1838570386171341
16.03365707397461 2.2397751808166504 -0.1828596144914627
16.037029266357422 2.2748570442199707 -0.18295620381832123
16.015090942382812 2.3059847354888916 -0.1827598214149475
16.010425567626953 2.3392372131347656 -0.18276181817054749
15.973258972167969 2.368342399597168 -0.18239355087280273
15.968160629272461 2.4017887115478516 -0.1823892891407013
15.964866638183594 2.4351837635040283 -0.18241138756275177
15.945329666137695 2.4667439460754395 -0.1822449266910553
15.924349784851074 2.4976727962493896 -0.18206565082073212
15.915541648864746 2.5308120250701904 -0.18202322721481323
15.905330657958984 2.5630409717559814 -0.18196819722652435
15.899755477905273 2.596332311630249 -0.1819624900817871
15.880721092224121 2.6277389526367188 -0.18180882930755615
15.869258880615234 2.6600141525268555 -0.18174438178539276
15.838122367858887 2.6885976791381836 -0.1811295449733734
15.829565048217773 2.72162127494812 -0.1810939460992813
15.787496566772461 2.7484569549560547 -0.18133598566055298
15.779901504516602 2.780885934829712 -0.1806587278842926
15.76915168762207 2.8134117126464844 -0.18060483038425446
15.755638122558594 2.845075845718384 -0.1805165708065033
15.732166290283203 2.8752281665802 -0.1803150773048401
15.732820510864258 2.909425735473633 -0.18039244413375854
15.69579792022705 2.9362778663635254 -0.18003270030021667
15.699581146240234 2.9713852405548096 -0.18015024065971375
15.679250717163086 3.0015792846679688 -0.17998898029327393
15.672126770019531 3.0346105098724365 -0.179981529712677
15.657661437988281 3.065859794616699 -0.1798892617225647
15.646175384521484 3.0973384380340576 -0.17982971668243408
15.636161804199219 3.129756450653076 -0.17978991568088531
15.631143569946289 3.1628289222717285 -0.1798093169927597
15.611299514770508 3.1925506591796875 -0.17933353781700134
15.590261459350586 3.256711006164551 -0.17859825491905212
15.543356895446777 3.349027633666992 -0.1782958209514618
15.538623809814453 3.416548252105713 -0.17840664088726044
15.504820823669434 3.4428625106811523 -0.1780996024608612
15.499914169311523 3.5103328227996826 -0.1769067496061325
15.470004081726074 3.5373244285583496 -0.1766481250524521
15.435976028442383 3.5980167388916016 -0.17611181735992432
15.421645164489746 3.663219451904297 -0.17612230777740479
15.412976264953613 3.6949667930603027 -0.1761150062084198
15.399215698242188 3.7261459827423096 -0.1753970831632614
15.38485336303711 3.7568106651306152 -0.17531712353229523
15.376317977905273 3.789222240447998 -0.17531077563762665
15.350770950317383 3.8170619010925293 -0.17511236667633057
15.3360595703125 3.847215175628662 -0.17503374814987183
15.323674201965332 3.8785934448242188 -0.17498335242271423
15.315998077392578 3.9108166694641113 -0.17467474937438965
15.308515548706055 3.942763328552246 -0.17468465864658356
15.276630401611328 3.969041585922241 -0.1744098961353302
15.257658004760742 3.998258113861084 -0.17364317178726196
15.24179744720459 4.028590202331543 -0.17356163263320923
15.229094505310059 4.0590620040893555 -0.17351184785366058
15.225652694702148 4.09233283996582 -0.173570454120636
15.200393676757812 4.120053291320801 -0.17338120937347412
15.202877044677734 4.154939651489258 -0.17350834608078003
15.165807723999023 4.178650856018066 -0.17318087816238403
15.164739608764648 4.21290397644043 -0.17327536642551422
15.144556045532227 4.241497993469238 -0.17056873440742493
15.147419929504395 4.276219367980957 -0.17038364708423615
15.136754989624023 4.307812690734863 -0.17036399245262146
15.112947463989258 4.335289001464844 -0.1701992154121399
15.102298736572266 4.366844177246094 -0.17018398642539978
15.09227180480957 4.3982319831848145 -0.1701740026473999
15.074274063110352 4.426946640014648 -0.16942961513996124
15.058225631713867 4.4568681716918945 -0.16935521364212036
15.029698371887207 4.482696533203125 -0.16913901269435883
15.0405912399292 4.520626068115234 -0.16905313730239868
15.014453887939453 4.547094345092773 -0.16886502504348755
15.011880874633789 4.58034610748291 -0.1689435839653015
14.984708786010742 4.64112663269043 -0.16885317862033844
14.967750549316406 4.6699371337890625 -0.1681317538022995
14.927120208740234 4.726335525512695 -0.1675836592912674
14.92469596862793 4.759666919708252 -0.16766305267810822
14.927586555480957 4.795744895935059 -0.16781258583068848
14.9122314453125 4.824974060058594 -0.16775305569171906
14.878190994262695 4.883273124694824 -0.16695885360240936
14.87044906616211 4.914938926696777 -0.16698727011680603
14.838459968566895 4.973780632019043 -0.16429908573627472
14.835052490234375 5.006906509399414 -0.1640602946281433
14.811208724975586 5.068439960479736 -0.1633913666009903
14.79658031463623 5.0984368324279785 -0.16334863007068634
14.778040885925293 5.126715660095215 -0.16326220333576202
14.770232200622559 5.158371448516846 -0.16329383850097656
14.750551223754883 5.186544418334961 -0.1628822684288025
14.743900299072266 5.218944549560547 -0.16292902827262878
14.73399543762207 5.250550270080566 -0.16230244934558868
14.72387409210205 5.28173828125 -0.16231249272823334
14.70833969116211 5.310641765594482 -0.16226240992546082
14.676349639892578 5.33422327041626 -0.16203364729881287
14.69102668762207 5.374433517456055 -0.16200459003448486
14.650279998779297 5.39402437210083 -0.16167795658111572
14.659265518188477 5.432585716247559 -0.16126461327075958
14.656923294067383 5.466673851013184 -0.16136449575424194
14.635196685791016 5.49319314956665 -0.16125044226646423
14.622182846069336 5.523974418640137 -0.1612367033958435
14.611589431762695 5.5546488761901855 -0.1609317511320114
14.59900188446045 5.585248947143555 -0.16092222929000854
14.6025390625 5.621706008911133 -0.1604514718055725
14.565503120422363 5.642182350158691 -0.15985745191574097
14.554952621459961 5.673543930053711 -0.15732106566429138
14.525550842285156 5.697174072265625 -0.15713229775428772
14.509889602661133 5.725802421569824 -0.15645341575145721
14.506368637084961 5.759918689727783 -0.1565486192703247
14.509227752685547 5.796278953552246 -0.156708225607872
14.476581573486328 5.818102836608887 -0.1561695635318756
14.487589836120605 5.8585052490234375 -0.15642313659191132
14.45463752746582 5.880110740661621 -0.15556012094020844
14.452960968017578 5.915103912353516 -0.1556771993637085
14.428807258605957 5.940546989440918 -0.15555104613304138
14.419570922851562 5.971770286560059 -0.15527044236660004
14.378571510314941 5.990805625915527 -0.15496698021888733
14.342634201049805 6.010793685913086 -0.15408095717430115
14.264423370361328 6.048766613006592 -0.15352176129817963
14.197147369384766 6.055028438568115 -0.15261833369731903
14.106868743896484 6.0868682861328125 -0.15129874646663666
14.030546188354492 6.088504791259766 -0.15061572194099426
13.963580131530762 6.094924449920654 -0.1497250199317932
13.89373779296875 6.098795413970947 -0.14911264181137085
13.791589736938477 6.123358726501465 -0.1476781964302063
13.72696304321289 6.128798484802246 -0.14681454002857208
13.606376647949219 6.1438140869140625 -0.14367705583572388
13.550334930419922 6.152393817901611 -0.14321771264076233
13.433357238769531 6.167648792266846 -0.14195528626441956
13.369449615478516 6.171931743621826 -0.1408160775899887
13.315349578857422 6.181497573852539 -0.1403852254152298
13.261927604675293 6.190181255340576 -0.13995680212974548
13.211324691772461 6.200638294219971 -0.13956156373023987
13.143685340881348 6.202537536621094 -0.13809630274772644
13.105801582336426 6.2179460525512695 -0.13783398270606995
13.043195724487305 6.222412586212158 -0.13731467723846436
12.98875617980957 6.2295637130737305 -0.1368783712387085
12.93760871887207 6.238737106323242 -0.13618341088294983
12.880460739135742 6.24448299407959 -0.13513889908790588
12.806856155395508 6.241654396057129 -0.13450296223163605
12.7703857421875 6.257352828979492 -0.13425877690315247
12.708452224731445 6.260065078735352 -0.13288164138793945
12.66055679321289 6.2691545486450195 -0.1325160562992096
12.6021728515625 6.273480415344238 -0.13204365968704224
12.556397438049316 6.283561706542969 -0.1316993534564972
12.495609283447266 6.285600185394287 -0.1309136599302292
12.456487655639648 6.299300670623779 -0.1300789713859558
12.402189254760742 6.304194450378418 -0.12907910346984863
12.34817886352539 6.309651851654053 -0.1280928999185562
12.28792953491211 6.311375617980957 -0.12760429084300995
12.242483139038086 6.3201751708984375 -0.12726826965808868
12.18328857421875 6.322299003601074 -0.12651094794273376
12.132307052612305 6.328149795532227 -0.12556415796279907
12.077278137207031 6.331362724304199 -0.12513042986392975
12.035795211791992 6.342430114746094 -0.12484083324670792
11.979955673217773 6.344804763793945 -0.12412041425704956
11.935062408447266 6.352777481079102 -0.12324215471744537
11.887895584106445 6.3602986335754395 -0.12289538979530334
11.83402156829834 6.36309814453125 -0.12247440218925476
11.790106773376465 6.371679306030273 -0.12188519537448883
11.738131523132324 6.375409126281738 -0.12094376236200333
11.690523147583008 6.381004333496094 -0.12059140205383301
11.645825386047363 6.388935089111328 -0.12026888132095337
11.597540855407715 6.393791675567627 -0.1196359321475029
11.491518020629883 6.398592948913574 -0.11828498542308807
11.457977294921875 6.411103248596191 -0.11780808866024017
11.360904693603516 6.419761657714844 -0.11655959486961365
11.322147369384766 6.428894996643066 -0.11629653722047806
11.277711868286133 6.435561180114746 -0.11571548879146576
11.2242431640625 6.435964584350586 -0.11424940824508667
11.13331413269043 6.446279525756836 -0.11412152647972107
11.103267669677734 6.459686279296875 -0.11368801444768906
11.000106811523438 6.461827754974365 -0.11239162087440491
10.954654693603516 6.465742588043213 -0.11180386692285538
10.864215850830078 6.474209785461426 -0.11115814000368118
10.823734283447266 6.480562210083008 -0.11011125147342682
10.771652221679688 6.480678081512451 -0.10972200334072113
10.742070198059082 6.493278980255127 -0.10955768823623657
10.700033187866211 6.498819351196289 -0.10876096785068512
10.660717010498047 6.505561828613281 -0.10824410617351532
10.617080688476562 6.509209632873535 -0.10793797671794891
10.57453727722168 6.514247417449951 -0.1071428507566452
10.52283763885498 6.512561798095703 -0.10650236904621124
10.488277435302734 6.521903038024902 -0.1062919944524765
10.435483932495117 6.519439697265625 -0.10589521378278732
10.401917457580566 6.528519630432129 -0.1049422025680542
10.358966827392578 6.532154083251953 -0.10464809089899063
10.327184677124023 6.54240083694458 -0.1044653058052063
10.27048397064209 6.536386489868164 -0.10353508591651917
10.239974021911621 6.547450542449951 -0.10311788320541382
10.195609092712402 6.5492262840271 -0.10231280326843262
10.179498672485352 6.568758487701416 -0.10376274585723877
10.127817153930664 6.566095352172852 -0.10312899947166443
10.089540481567383 6.5710577964782715 -0.10239031910896301
10.055364608764648 6.579140663146973 -0.10218542814254761
10.012154579162598 6.580875396728516 -0.1018870398402214
9.961609840393066 6.577296257019043 -0.10078024864196777
9.93863582611084 6.592363357543945 -0.10068927705287933
9.895347595214844 6.59355354309082 -0.10039260983467102
9.84628963470459 6.590410232543945 -0.09930752217769623
9.817343711853027 6.601447582244873 -0.09915716201066971
9.781639099121094 6.606956958770752 -0.09893715381622314
9.733491897583008 6.604469299316406 -0.09787365794181824
9.710460662841797 6.6186017990112305 -0.09777984768152237
9.659703254699707 6.613406658172607 -0.09740681946277618
9.636377334594727 6.627425193786621 -0.09660114347934723
9.593257904052734 6.6274261474609375 -0.09630616009235382
9.553177833557129 6.62906551361084 -0.09604045748710632
9.514095306396484 6.632101058959961 -0.09508198499679565
9.47402572631836 6.633425712585449 -0.09481966495513916
9.40611457824707 6.645085334777832 -0.09371683746576309
9.358199119567871 6.640388488769531 -0.0933762937784195
9.290670394897461 6.65147590637207 -0.0920490249991417
9.266969680786133 6.663639068603516 -0.09357006847858429
9.233152389526367 6.6692914962768555 -0.09337496757507324
9.209449768066406 6.681296348571777 -0.09281104803085327
9.134932518005371 6.686136245727539 -0.09165255725383759
9.09455394744873 6.685608863830566 -0.0913861021399498
9.021309852600098 6.6904706954956055 -0.09024524688720703
8.991052627563477 6.696996688842773 -0.09008403867483139
8.915740966796875 6.699464321136475 -0.08892568945884705
8.874612808227539 6.6974196434021 -0.08842514455318451
8.851978302001953 6.710066795349121 -0.08789746463298798
8.821637153625488 6.715937614440918 -0.08773086220026016
8.782838821411133 6.715799331665039 -0.08725994825363159
8.757902145385742 6.725864410400391 -0.0867045670747757
8.724717140197754 6.729208946228027 -0.08651453256607056
8.695913314819336 6.736669063568115 -0.08614596724510193
8.66109848022461 6.738504409790039 -0.08549517393112183
8.629107475280762 6.742972373962402 -0.08532122522592545
8.598411560058594 6.748055458068848 -0.0844879299402237
8.56158447265625 6.747910499572754 -0.08426259458065033
8.528942108154297 6.751486778259277 -0.08386160433292389
8.499391555786133 6.757115364074707 -0.083045095205307
8.470821380615234 6.763138771057129 -0.08466261625289917
8.432408332824707 6.761733055114746 -0.08376477658748627
8.404960632324219 6.768712043762207 -0.08362717181444168
8.372191429138184 6.771573066711426 -0.0827886238694191
8.344032287597656 6.777771949768066 -0.08264948427677155
8.3126859664917 6.780991077423096 -0.08247645944356918
8.277592658996582 6.781582355499268 -0.08161962032318115
8.248292922973633 6.786515235900879 -0.08146942406892776
8.222858428955078 6.794252395629883 -0.08092294633388519
8.186328887939453 6.793266296386719 -0.08048991858959198
8.165435791015625 6.804874420166016 -0.0804259181022644
8.122930526733398 6.798064231872559 -0.07949676364660263
8.100963592529297 6.808876991271973 -0.0794256404042244
8.066827774047852 6.809083938598633 -0.07880409806966782
8.038535118103027 6.814379692077637 -0.07844860106706619
7.999751091003418 6.810365676879883 -0.07821035385131836
7.969849586486816 6.8134870529174805 -0.07741399109363556
7.93821907043457 6.815568923950195 -0.07725033164024353
7.915675163269043 6.825081825256348 -0.07674472033977509
7.853257179260254 6.829135894775391 -0.0757843554019928
7.8172078132629395 6.826328277587891 -0.07535815984010696
7.768984794616699 6.842098712921143 -0.07453715801239014
7.7332258224487305 6.839153289794922 -0.07516980916261673
7.684637069702148 6.854074478149414 -0.07434676587581635
7.651649475097656 6.853215217590332 -0.07395686954259872
7.591972351074219 6.857605934143066 -0.07323720306158066
7.550779819488525 6.878364086151123 -0.07249986380338669
7.509028911590576 6.868897438049316 -0.07202170789241791
7.4465556144714355 6.869576454162598 -0.07108746469020844
7.429116725921631 6.882079601287842 -0.07064727693796158
7.37500524520874 6.889892578125 -0.06978803128004074
7.351143836975098 6.896225452423096 -0.06970450282096863
7.306609153747559 6.883567810058594 -0.06920860707759857
7.291428089141846 6.898165702819824 -0.0687909871339798
7.268703460693359 6.9058685302734375 -0.06871846318244934
7.239911079406738 6.907439708709717 -0.06797203421592712
7.206734657287598 6.904411315917969 -0.06779807806015015
7.180377006530762 6.908354759216309 -0.06707233935594559
7.151576995849609 6.909565448760986 -0.06694203615188599
7.132264137268066 6.92014217376709 -0.06629271060228348
7.098783493041992 6.916597366333008 -0.06611078977584839
7.077641487121582 6.924687385559082 -0.06584827601909637
7.0530781745910645 6.929922103881836 -0.06576024740934372
7.0164899826049805 6.922932147979736 -0.06494991481304169
6.995139122009277 6.930572509765625 -0.06488156318664551
6.974339008331299 6.939266204833984 -0.0642254650592804
6.945758819580078 6.939857482910156 -0.06410090625286102
6.921838760375977 6.94472074508667 -0.06361111998558044
6.886879920959473 6.938946723937988 -0.06322629004716873
6.871127605438232 6.952155113220215 -0.06281843781471252
6.837062835693359 6.947025299072266 -0.06244005262851715
6.816050052642822 6.954768657684326 -0.06198699772357941
6.784978866577148 6.951865196228027 -0.06163201481103897
6.766773223876953 6.962621688842773 -0.06121038645505905
6.731698989868164 6.955638885498047 -0.0610220693051815
6.712034702301025 6.964181900024414 -0.06038748472929001
6.68803596496582 6.9687299728393555 -0.06030520796775818
6.663951873779297 6.972826957702637 -0.059634018689394
6.632778644561768 6.9691057205200195 -0.05948016792535782
6.616519451141357 6.981541156768799 -0.058878231793642044
6.580386161804199 6.972622871398926 -0.05868426710367203
6.533312797546387 6.9814133644104 -0.057946205139160156
6.505268573760986 6.980424880981445 -0.05724448710680008
6.4630537033081055 6.993950843811035 -0.05674605816602707
6.4248857498168945 6.981659412384033 -0.05595162510871887
6.4097394943237305 6.995131015777588 -0.05595690757036209
6.3904008865356445 7.003148555755615 -0.055333830416202545
6.336668014526367 7.003271102905273 -0.05454675853252411
6.321958065032959 7.0162248611450195 -0.05454535037279129
6.267663955688477 7.0151519775390625 -0.05375266075134277
6.241850852966309 7.015508651733398 -0.05328167974948883
6.191479682922363 7.018190383911133 -0.05253119021654129
6.168201446533203 7.021119117736816 -0.05226559564471245
6.149009704589844 7.029503345489502 -0.05185167118906975
6.1355390548706055 7.043545722961426 -0.051668766885995865
6.095118045806885 7.027106285095215 -0.05107887089252472
6.078207015991211 7.037350654602051 -0.05086877569556236
6.047116279602051 7.030795574188232 -0.050350844860076904
6.026157379150391 7.036486625671387 -0.05011512339115143
6.003597259521484 7.039953231811523 -0.049673210829496384
5.9912214279174805 7.055041313171387 -0.049504879862070084
5.961160659790039 7.0498199462890625 -0.04900374263525009
5.934436798095703 7.048120498657227 -0.04834135249257088
5.9152631759643555 7.055011749267578 -0.04830237850546837
5.894097328186035 7.060346603393555 -0.04713861271739006
5.862770080566406 7.052518844604492 -0.046812862157821655
5.843936920166016 7.0601959228515625 -0.04641128331422806
5.822291851043701 7.06413459777832 -0.04616957902908325
5.811685085296631 7.081153869628906 -0.04583227261900902
5.7690324783325195 7.059589385986328 -0.04542739316821098
5.755476474761963 7.0732011795043945 -0.04506560415029526
5.732369422912598 7.074743270874023 -0.0448145791888237
5.712611675262451 7.081232070922852 -0.04440751299262047
5.683734893798828 7.075431823730469 -0.044111162424087524
5.668246746063232 7.086809158325195 -0.04373922944068909
5.641357421875 7.0835723876953125 -0.04309478774666786
5.62436056137085 7.092382907867432 -0.04307836294174194
5.589123725891113 7.078660011291504 -0.042372312396764755
5.572279453277588 7.087817668914795 -0.0423554964363575
5.553792953491211 7.094554901123047 -0.041777461767196655
5.526518821716309 7.090869903564453 -0.041686102747917175
5.502411842346191 7.090235710144043 -0.041067566722631454
5.485805511474609 7.099205017089844 -0.04105237126350403
5.462388038635254 7.100198745727539 -0.040444158017635345
5.441555500030518 7.103573799133301 -0.04039326682686806
5.414799690246582 7.0997114181518555 -0.039768923074007034
5.400497913360596 7.111818790435791 -0.039773497730493546
5.377155780792236 7.111673355102539 -0.039346903562545776
5.3565168380737305 7.115619659423828 -0.038036420941352844
5.326784133911133 7.107072830200195 -0.037572942674160004
5.312024116516113 7.118112087249756 -0.0373949259519577
5.2947492599487305 7.126368999481201 -0.03701702505350113
5.272524833679199 7.12761116027832 -0.03678165748715401
5.242767333984375 7.118232727050781 -0.036318592727184296
5.22946834564209 7.132033824920654 -0.0357963927090168
5.206960678100586 7.132328033447266 -0.03574129939079285
5.165731430053711 7.138791084289551 -0.035125233232975006
5.1450066566467285 7.1413068771362305 -0.03455169498920441
5.123099327087402 7.143023490905762 -0.03450314700603485
5.104776859283447 7.148755073547363 -0.03394640237092972
5.077569961547852 7.141946315765381 -0.033860743045806885
5.057149410247803 7.1454973220825195 -0.03329050540924072
5.034767150878906 7.145271301269531 -0.03324415534734726
4.993428707122803 7.150370121002197 -0.032282136380672455
4.975564956665039 7.156381130218506 -0.03208327293395996
4.942986488342285 7.173794746398926 -0.031539417803287506
4.915127754211426 7.16514253616333 -0.030924536287784576
4.901962757110596 7.178778648376465 -0.030938468873500824
4.872124671936035 7.166973114013672 -0.03049055114388466
4.861515998840332 7.183384895324707 -0.02928628772497177
4.827014923095703 7.165334701538086 -0.028820756822824478
4.811169624328613 7.173897743225098 -0.028636055067181587
4.786229133605957 7.168822765350342 -0.028227699920535088
4.773798942565918 7.183387756347656 -0.028069356456398964
4.751093864440918 7.181506156921387 -0.027673404663801193
4.737165451049805 7.193480491638184 -0.027505172416567802
4.7168354988098145 7.195392608642578 -0.026950795203447342
4.688351154327393 7.184412956237793 -0.02686963602900505
4.669195175170898 7.188565254211426 -0.026323890313506126
4.656558036804199 7.201782703399658 -0.025992058217525482
4.629436016082764 7.192526817321777 -0.025749079883098602
4.619997978210449 7.211668014526367 -0.02543454058468342
4.589322090148926 7.196619987487793 -0.025172337889671326
4.570845603942871 7.200563430786133 -0.02480735257267952
4.549881935119629 7.201493740081787 -0.02460264228284359
4.532247543334961 7.206659317016602 -0.02406817115843296
4.512027740478516 7.20863151550293 -0.02369893155992031
4.494571685791016 7.213988304138184 -0.02351120300590992
4.467133522033691 7.203211784362793 -0.023101238533854485
4.451446533203125 7.2122697830200195 -0.02292521297931671
4.429631233215332 7.210359573364258 -0.0225482489913702
4.4134674072265625 7.217587471008301 -0.02236880734562874
4.383175849914551 7.202576160430908 -0.02195023186504841
4.372200012207031 7.218227863311768 -0.02111431211233139
4.353152275085449 7.221214771270752 -0.02058233879506588
4.33797550201416 7.230264186859131 -0.020581917837262154
4.313158988952637 7.222835540771484 -0.02002030238509178
4.2987260818481445 7.233726501464844 -0.02002611570060253
4.278989315032959 7.234658241271973 -0.019490830600261688
4.265346050262451 7.2458648681640625 -0.01915598288178444
4.236861705780029 7.232775688171387 -0.018925247713923454
4.222722053527832 7.243060111999512 -0.018418259918689728
4.199074745178223 7.236973285675049 -0.01838023215532303
4.1893310546875 7.2558441162109375 -0.017894426360726357
4.160864353179932 7.2412004470825195 -0.017836298793554306
4.1251630783081055 7.249576568603516 -0.01696738600730896
4.109539985656738 7.257113933563232 -0.016794387251138687
4.083723068237305 7.24758768081665 -0.016244307160377502
4.072818756103516 7.263438701629639 -0.016260657459497452
4.045151710510254 7.249320983886719 -0.015702664852142334
4.028378963470459 7.255645275115967 -0.015360934659838676
4.006784915924072 7.25217342376709 -0.01516677625477314
3.991466999053955 7.259999752044678 -0.014661015011370182
3.970757484436035 7.259018898010254 -0.014640366658568382
3.9597668647766113 7.27474308013916 -0.014151488430798054
3.9143590927124023 7.264008522033691 -0.013592974282801151
6.333441734313965 -10.488837242126465 -0.01521720364689827
6.419837474822998 -10.482420921325684 -0.01676841452717781
6.505634307861328 -10.474096298217773 -0.017827196046710014
6.598381996154785 -10.475905418395996 -0.019160330295562744
6.656084060668945 -10.469480514526367 -0.020207032561302185
6.686129570007324 -10.468694686889648 -0.020738251507282257
6.736549377441406 -10.450357437133789 -0.021516617387533188
6.774662017822266 -10.46174430847168 -0.021821625530719757
6.837404251098633 -10.461799621582031 -0.0226446446031332
6.8668212890625 -10.4593505859375 -0.023433078080415726
6.9194536209106445 -10.44338607788086 -0.023212045431137085
7.021572113037109 -10.454174995422363 -0.024868778884410858
7.103034973144531 -10.433151245117188 -0.0262057576328516
8.198272705078125 -10.367548942565918 -0.04062601178884506
8.310737609863281 -10.375041007995605 -0.042479462921619415
8.33420467376709 -10.36020278930664 -0.04276404157280922
8.393707275390625 -10.344663619995117 -0.04365869611501694
8.43779182434082 -10.355002403259277 -0.04404846578836441
8.511454582214355 -10.356032371520996 -0.043926022946834564
8.542734146118164 -10.350229263305664 -0.044253572821617126
8.584123611450195 -10.35523796081543 -0.045180730521678925
8.614180564880371 -10.347715377807617 -0.04522476717829704
8.728142738342285 -10.351567268371582 -0.04713032394647598
8.822959899902344 -10.331520080566406 -0.04812052100896835
8.942475318908691 -10.33913803100586 -0.05007879436016083
9.990240097045898 -10.264339447021484 -0.06297718733549118
10.113118171691895 -10.260732650756836 -0.06509096175432205
10.23687744140625 -10.256522178649902 -0.06606262177228928
10.315042495727539 -10.248152732849121 -0.06658873707056046
10.347354888916016 -10.237676620483398 -0.06696151196956635
10.436595916748047 -10.23935317993164 -0.0681479424238205
10.486071586608887 -10.24527359008789 -0.06833574920892715
10.562615394592285 -10.233467102050781 -0.06945132464170456
10.595027923583984 -10.222331047058105 -0.0704149678349495
10.687082290649414 -10.224593162536621 -0.0716429203748703
10.731413841247559 -10.22443675994873 -0.0717942863702774
10.811494827270508 -10.214218139648438 -0.07295526564121246
10.85539722442627 -10.213144302368164 -0.07401289790868759
10.934803009033203 -10.201380729675293 -0.07456918805837631
11.074069023132324 -10.201850891113281 -0.07661107182502747
12.366205215454102 -10.116975784301758 -0.09266702830791473
12.494318008422852 -10.090497970581055 -0.09543781727552414
12.642719268798828 -10.079689025878906 -0.09805233031511307
12.758121490478516 -10.084949493408203 -0.09961235523223877
12.804733276367188 -10.077847480773926 -0.09981659054756165
12.858007431030273 -10.076635360717773 -0.10039882361888885
12.894339561462402 -10.061562538146973 -0.10117845237255096
12.954038619995117 -10.064122200012207 -0.10181652009487152
13.001333236694336 -10.057670593261719 -0.10269968211650848
13.059995651245117 -10.058528900146484 -0.10332047939300537
13.110174179077148 -10.053900718688965 -0.10355508327484131
13.161263465881348 -10.049774169921875 -0.10446423292160034
13.204200744628906 -10.037979125976562 -0.10497193038463593
13.263809204101562 -10.03993034362793 -0.10595713555812836
13.41817855834961 -10.024718284606934 -0.10804753005504608
13.738901138305664 -9.997232437133789 -0.11340659856796265
13.911178588867188 -9.9894380569458 -0.1160469800233841
15.32916259765625 -9.877671241760254 -0.13543325662612915
15.384592056274414 -9.867385864257812 -0.13685846328735352
15.517669677734375 -9.861635208129883 -0.13879382610321045
15.71925163269043 -9.851561546325684 -0.14117173850536346
15.775156021118164 -9.840170860290527 -0.1414884328842163
15.854902267456055 -9.797403335571289 -0.1429532766342163
15.897621154785156 -9.778267860412598 -0.14314478635787964
15.921282768249512 -9.746896743774414 -0.14431524276733398
15.93255615234375 -9.707510948181152 -0.144224151968956
15.958555221557617 -9.677999496459961 -0.1446676403284073
15.970380783081055 -9.639453887939453 -0.145352303981781
15.985620498657227 -9.602564811706543 -0.14530318975448608
16.009435653686523 -9.571274757385254 -0.14647206664085388
16.017179489135742 -9.530839920043945 -0.1463562548160553
16.03083038330078 -9.49308967590332 -0.14591579139232635
16.03078842163086 -9.447750091552734 -0.14801734685897827
16.022632598876953 -9.352689743041992 -0.1487143337726593
16.048274993896484 -9.322625160217285 -0.14876781404018402
16.08078956604004 -9.251155853271484 -0.14983662962913513
16.085142135620117 -9.209284782409668 -0.15007644891738892
16.099403381347656 -9.127639770507812 -0.15060192346572876
16.308076858520508 -8.276250839233398 -0.15887296199798584
16.33626365661621 -8.20422077178955 -0.15917836129665375
16.343124389648438 -8.165241241455078 -0.15982404351234436
16.350711822509766 -8.08316421508789 -0.15993262827396393
16.35393524169922 -8.041741371154785 -0.16053852438926697
16.35823631286621 -8.001334190368652 -0.16041839122772217
16.3553409576416 -7.957898139953613 -0.1605968177318573
16.36838150024414 -7.921453952789307 -0.16130010783672333
16.377029418945312 -7.841508865356445 -0.16143250465393066
16.376041412353516 -7.798482894897461 -0.16199631989002228
16.409595489501953 -7.772320747375488 -0.16216856241226196
16.400787353515625 -7.726517677307129 -0.16228967905044556
16.4110107421875 -7.688540458679199 -0.162967711687088
16.428211212158203 -7.655063629150391 -0.16297823190689087
16.424972534179688 -7.6112961769104 -0.16315433382987976
16.4285888671875 -7.571193695068359 -0.1630307286977768
16.448055267333984 -7.538822174072266 -0.16380685567855835
16.449729919433594 -7.49751091003418 -0.1640307605266571
16.44377326965332 -7.453221321105957 -0.16381965577602386
16.449914932250977 -7.41489315032959 -0.16445839405059814
16.463388442993164 -7.379092216491699 -0.16480134427547455
16.4781494140625 -7.344280242919922 -0.16479484736919403
16.46981430053711 -7.299635887145996 -0.1652928590774536
16.499507904052734 -7.2298150062561035 -0.16565243899822235
16.5136775970459 -7.112613677978516 -0.16643981635570526
16.643869400024414 -6.555379867553711 -0.16849762201309204
16.63758659362793 -6.432382583618164 -0.1691133826971054
16.653419494628906 -6.358016014099121 -0.1693621575832367
16.659442901611328 -6.320735931396484 -0.17001235485076904
16.647192001342773 -6.2360148429870605 -0.1699778288602829
16.637405395507812 -6.193010330200195 -0.17047251760959625
16.644512176513672 -6.155203819274902 -0.17041142284870148
16.6304931640625 -6.110817909240723 -0.17013153433799744
16.638751983642578 -6.074690818786621 -0.17043882608413696
16.610776901245117 -6.024294853210449 -0.17074677348136902
16.613861083984375 -5.9864301681518555 -0.17064771056175232
16.627119064331055 -5.951486587524414 -0.1710079461336136
16.594249725341797 -5.900524616241455 -0.17126688361167908
16.561962127685547 -5.8503570556640625 -0.17080822587013245
16.572250366210938 -5.814579486846924 -0.1707882434129715
16.5383243560791 -5.763782501220703 -0.17067095637321472
16.537275314331055 -5.724958896636963 -0.17124754190444946
16.536983489990234 -5.6853251457214355 -0.16826237738132477
16.518699645996094 -5.640735626220703 -0.16796231269836426
16.5699405670166 -5.580425262451172 -0.1685929000377655
16.566844940185547 -5.541130542755127 -0.169158935546875
16.58418846130371 -5.469384670257568 -0.1691017895936966
16.601844787597656 -5.437033653259277 -0.16951383650302887
16.61591339111328 -5.364264011383057 -0.1701306700706482
16.547521591186523 -5.304288864135742 -0.16962799429893494
16.60708236694336 -5.24636173248291 -0.17076843976974487
16.618682861328125 -5.212121963500977 -0.1707671582698822
16.628969192504883 -5.138529300689697 -0.17171795666217804
16.629627227783203 -5.024426460266113 -0.17174674570560455
16.625024795532227 -4.794676303863525 -0.1689501404762268
16.65506362915039 -4.690129280090332 -0.17000004649162292
16.650938034057617 -4.5761871337890625 -0.17070624232292175
16.6231746673584 -4.456350803375244 -0.1704605519771576
16.668960571289062 -4.393465042114258 -0.17145511507987976
16.666709899902344 -4.355903625488281 -0.17134764790534973
16.65822410583496 -4.278820514678955 -0.17211979627609253
16.6585750579834 -4.242079734802246 -0.17203474044799805
16.656627655029297 -4.203714370727539 -0.1719210296869278
16.67055892944336 -4.1704511642456055 -0.1719701737165451
16.652450561523438 -4.129220962524414 -0.17204704880714417
16.654296875 -4.091933250427246 -0.17266958951950073
16.654319763183594 -4.055309772491455 -0.1725849062204361
16.679697036743164 -4.024121284484863 -0.17275774478912354
16.659696578979492 -3.9823739528656006 -0.1724654734134674
16.679407119750977 -3.9505128860473633 -0.1725844144821167
16.66461944580078 -3.909432888031006 -0.17024798691272736
16.662620544433594 -3.872499942779541 -0.17048974335193634
16.66998291015625 -3.837766647338867 -0.17117251455783844
16.66328239440918 -3.7987594604492188 -0.17102666199207306
16.667606353759766 -3.763376235961914 -0.17098680138587952
16.663471221923828 -3.7261159420013428 -0.17085504531860352
16.664588928222656 -3.689004421234131 -0.17113357782363892
16.671796798706055 -3.6543238162994385 -0.17182570695877075
16.675819396972656 -3.581669807434082 -0.17171011865139008
16.671274185180664 -3.544517993927002 -0.17193131148815155
16.663978576660156 -3.469679832458496 -0.1723991185426712
16.677335739135742 -3.4363675117492676 -0.17246027290821075
16.69269561767578 -3.3663105964660645 -0.1724708378314972
16.677284240722656 -3.326852321624756 -0.17258168756961823
16.667757034301758 -3.252372980117798 -0.17303520441055298
16.687023162841797 -3.0378026962280273 -0.17142358422279358
16.677066802978516 -2.927795171737671 -0.1721593141555786
16.694345474243164 -2.822760581970215 -0.17214100062847137
16.688282012939453 -2.750197410583496 -0.17265887558460236
16.689741134643555 -2.7141737937927246 -0.17295674979686737
16.67487144470215 -2.6397228240966797 -0.1726926565170288
16.672380447387695 -2.6038742065429688 -0.17260320484638214
16.683673858642578 -2.5337092876434326 -0.17329871654510498
16.700000762939453 -2.500744581222534 -0.17341366410255432
16.692480087280273 -2.463869333267212 -0.17362099885940552
16.69845962524414 -2.428657293319702 -0.17362895607948303
16.696645736694336 -2.393022298812866 -0.17355115711688995
16.71258544921875 -2.3595805168151855 -0.17366546392440796
16.717845916748047 -2.3242509365081787 -0.17434823513031006
16.722675323486328 -2.2895588874816895 -0.1743539273738861
16.702428817749023 -2.250448703765869 -0.17342156171798706
16.706327438354492 -2.2156851291656494 -0.17374207079410553
16.715364456176758 -2.1812543869018555 -0.1737874150276184
16.721670150756836 -2.146099090576172 -0.17380936443805695
16.725021362304688 -2.1112592220306396 -0.17448773980140686
16.725515365600586 -2.0750317573547363 -0.1744435429573059
16.73980140686035 -2.041539430618286 -0.1745293289422989
16.728519439697266 -2.00494122505188 -0.17437118291854858
16.71632957458496 -1.96726655960083 -0.1745339334011078
16.72419548034668 -1.933014154434204 -0.1745760589838028
16.70524787902832 -1.8953640460968018 -0.1743364781141281
16.693273544311523 -1.858233094215393 -0.1741778701543808
16.666297912597656 -1.820223093032837 -0.17452847957611084
13.545967102050781 3.7940759658813477 -0.22668051719665527
13.132037162780762 4.804404258728027 -0.2196475863456726
13.094507217407227 4.8842291831970215 -0.21924224495887756
13.0397367477417 4.957401275634766 -0.21884268522262573
12.997701644897461 5.004169464111328 -0.21763864159584045
12.998330116271973 5.035409927368164 -0.21613074839115143
12.960741996765137 5.083726406097412 -0.21586020290851593
12.939580917358398 5.169521808624268 -0.21519286930561066
12.91684341430664 5.254839897155762 -0.21535968780517578
12.392744064331055 5.912410736083984 -0.20647066831588745
12.265140533447266 5.946475505828857 -0.20440953969955444
12.098799705505371 5.960056304931641 -0.2014356255531311
12.004880905151367 5.976748943328857 -0.20001310110092163
11.958179473876953 5.984496116638184 -0.19944149255752563
11.853294372558594 5.994560241699219 -0.19730053842067719
11.814424514770508 6.0057220458984375 -0.19632339477539062
11.714448928833008 6.017117500305176 -0.19427873194217682
11.671192169189453 6.025541305541992 -0.1937677562236786
11.582439422607422 6.041635513305664 -0.1924464851617813
11.523382186889648 6.04128360748291 -0.19114556908607483
10.358945846557617 6.202845573425293 -0.1727113127708435
10.236855506896973 6.218068599700928 -0.17108188569545746
10.1248779296875 6.237521171569824 -0.16938021779060364
10.03089714050293 6.237490653991699 -0.1675218641757965
9.989592552185059 6.241152763366699 -0.16705042123794556
9.914738655090332 6.252031326293945 -0.16599410772323608
9.886520385742188 6.263510704040527 -0.16526944935321808
9.841045379638672 6.263358116149902 -0.1647247076034546
9.80902099609375 6.272457122802734 -0.16464588046073914
9.767661094665527 6.274605751037598 -0.1636998951435089
9.741144180297852 6.286167144775391 -0.16347366571426392
9.701542854309082 6.290008068084717 -0.16303279995918274
9.658319473266602 6.29049015045166 -0.16228988766670227
9.614816665649414 6.2908935546875 -0.16131451725959778
9.594675064086914 6.306744575500488 -0.1611998826265335
9.555648803710938 6.309527397155762 -0.16076427698135376
9.434822082519531 6.315556526184082 -0.1587059199810028
9.332318305969238 6.332259178161621 -0.15695831179618835
9.231257438659668 6.3488030433654785 -0.155242919921875
8.733222961425781 6.4205322265625 -0.14798644185066223
8.633420944213867 6.431158542633057 -0.14632096886634827
8.539926528930664 6.445384979248047 -0.14520056545734406
8.445161819458008 6.457594871520996 -0.14384594559669495
8.390174865722656 6.4717254638671875 -0.14272524416446686
8.344141006469727 6.463879585266113 -0.14217045903205872
8.31810474395752 6.4719157218933105 -0.14174343645572662
8.285771369934082 6.4746809005737305 -0.14099666476249695
8.249292373657227 6.474332809448242 -0.14060908555984497
8.21944808959961 6.478517532348633 -0.14032971858978271
8.199797630310059 6.490936756134033 -0.1402253359556198
8.180134773254395 6.5035719871521 -0.14012333750724792
8.133804321289062 6.494603157043457 -0.13935008645057678
8.10966682434082 6.502933979034424 -0.1387462019920349
8.074016571044922 6.5024614334106445 -0.13837124407291412
8.044034957885742 6.5061540603637695 -0.13787850737571716
8.019672393798828 6.514025688171387 -0.13769251108169556
7.990658760070801 6.518840789794922 -0.13701491057872772
7.962380409240723 6.523338317871094 -0.13655076920986176
7.908323287963867 6.534903526306152 -0.1356787234544754
7.872736930847168 6.533038139343262 -0.13509048521518707
7.803083419799805 6.530923366546631 -0.1339539736509323
7.7960591316223145 6.5526041984558105 -0.13385716080665588
7.737754821777344 6.559404373168945 -0.13291791081428528
7.650469779968262 6.568514823913574 -0.13150931894779205
7.564492702484131 6.577756404876709 -0.13012738525867462
7.313198566436768 6.60633659362793 -0.12672944366931915
7.232118606567383 6.616132736206055 -0.1254439651966095
7.153372764587402 6.627180099487305 -0.12400346994400024
7.101815223693848 6.635211944580078 -0.12319876253604889
7.076997756958008 6.639584064483643 -0.12280842661857605
7.046073913574219 6.638117790222168 -0.12211751937866211
7.021308898925781 6.643155097961426 -0.12193416059017181
6.997592926025391 6.648292541503906 -0.12156407535076141
6.96491003036499 6.645334720611572 -0.12084957957267761
6.945748329162598 6.654914855957031 -0.12075897306203842
6.915465354919434 6.65347957611084 -0.11988575756549835
6.886755466461182 6.653972148895264 -0.1198292076587677
6.86656379699707 6.662344932556152 -0.11933117359876633
6.841122627258301 6.665277004241943 -0.11893369257450104
6.819653511047363 6.672816276550293 -0.11842237412929535
6.793504238128662 6.674881458282471 -0.11801095306873322
6.771115303039551 6.680555820465088 -0.11786380410194397
6.740536689758301 6.678862571716309 -0.11719465255737305
6.720546722412109 6.686751365661621 -0.11689408123493195
6.697300910949707 6.691610336303711 -0.11673321574926376
6.667819976806641 6.690405368804932 -0.11608320474624634
6.641923904418945 6.692139625549316 -0.11568040400743484
6.622469902038574 6.701108932495117 -0.11520832777023315
6.588252544403076 6.6942138671875 -0.11466284096240997
6.568052291870117 6.701449394226074 -0.11455236375331879
6.536863327026367 6.698190689086914 -0.11387835443019867
6.517071723937988 6.705694198608398 -0.11358487606048584
6.49229621887207 6.7079973220825195 -0.11339451372623444
6.472811698913574 6.716517448425293 -0.11273496598005295
6.449243545532227 6.719915390014648 -0.11256760358810425
6.4193220138549805 6.716858386993408 -0.11191274225711823
6.397302150726318 6.722235679626465 -0.11158698797225952
6.380389213562012 6.732384204864502 -0.11153584718704224
6.301292419433594 6.733202934265137 -0.1101418286561966
6.226845741271973 6.738339900970459 -0.1084611639380455
6.1179070472717285 6.761497497558594 -0.10668189823627472
6.051480293273926 6.773186683654785 -0.10534073412418365
5.978569030761719 6.776850700378418 -0.10425864160060883
5.949778079986572 6.77304744720459 -0.10382217168807983
5.9091339111328125 6.784190654754639 -0.10324306041002274
5.885903358459473 6.785901069641113 -0.10290098190307617
5.87020206451416 6.796522617340088 -0.10250882804393768
5.839193820953369 6.789607524871826 -0.10203717648983002
5.8169264793396 6.792177200317383 -0.1015302836894989
5.786713600158691 6.785630702972412 -0.1012527123093605
5.780212879180908 6.807125091552734 -0.10120648145675659
5.754170894622803 6.805028438568115 -0.1006367951631546
5.7296366691589355 6.8048858642578125 -0.09937401115894318
5.704567909240723 6.8042802810668945 -0.09900742769241333
5.684743881225586 6.809569358825684 -0.09854868054389954
