# .PCD v0.7 - Point Cloud Data file format
VERSION 0.7
FIELDS x y z
SIZE 4 4 4
TYPE F F F
COUNT 1 1 1
WIDTH 1268
HEIGHT 1
VIEWPOINT 0 0 0 1 0 0 0
POINTS 1268
DATA ascii
-2.479972868 -18.33386228 26.35605183
-123.3592364 -37.85216237 26.58589745
35.54618392 -52.82610147 23.77286156
-128.9865055 -57.56988801 26.58589745
6.067953295 -35.03534442 26.58589745
-112.1046982 -35.03534442 26.58589745
-67.08654522 -26.67575567 26.58589745
-123.3592364 -21.04211977 26.58589745
-78.34108345 -18.22530182 26.58589745
-58.64564155 -65.38428619 26.58589745
-114.9183327 -54.75307006 26.58589745
-140.2410437 -12.59166592 26.58589745
-128.9865055 -49.11943416 26.58589745
-81.15471801 -29.49257362 26.58589745
-66.75980162 3.765182242 -49.39311997
20.88774424 -43.01601435 26.5250385
-89.59562169 -35.03534442 26.58589745
-47.39110331 -29.49257362 26.58589745
-24.0514448 -0.2425160374 2.585789666
-98.03652536 -54.75307006 26.58589745
-72.71381434 -65.38428619 26.58589745
-26.56808608 -0.08614670096 5.540872704
-109.2910636 -57.56988801 26.58589745
-128.9865055 -65.38428619 26.58589745
37.01793344 -65.38428619 26.58589745
-100.8501599 -49.11943416 26.58589745
17.32249153 -65.38428619 26.58589745
-134.6137746 -49.11943416 26.58589745
-114.7924063 -0.4773366763 4.407299943
-69.90017978 -9.774847976 26.58589745
34.20429888 -40.66898032 26.58589745
-109.2910636 -60.38670596 26.58589745
-77.04545109 2.980094924 3.495561194
11.69522241 -43.48579827 26.58589745
-53.01837243 -29.49257362 26.58589745
0.9446972806 -20.4849885 7.03529802
6.067953295 -43.48579827 26.58589745
-50.20473787 -65.38428619 26.58589745
-47.39110331 -26.67575567 26.58589745
22.94976064 -65.38428619 26.58589745
-5.177364998 -18.20778553 26.56853303
-67.08654522 -65.38428619 26.58589745
-16.47925475 -4.180338716 1.659762252
-50.20473787 -49.11943416 26.58589745
-2.87453936 -20.51753751 1.87593447
-131.8001401 -35.03534442 26.58589745
-114.9183327 -9.774847976 26.58589745
-114.9183327 -65.38428619 26.58589745
-36.44893282 5.616371864 -17.93224617
-41.7638342 -46.30261621 26.58589745
15.00937439 -32.87063768 24.03658367
-47.39110331 -46.30261621 26.58589745
-120.5456018 -60.38670596 26.58589745
28.57702976 -43.48579827 26.58589745
-137.4274092 -57.56988801 26.58589745
8.03322884 -19.10679491 10.14721897
-26.53380259 -3.368514174 8.573677022
-36.13656508 -54.75307006 26.58589745
-126.1728709 -63.20352391 26.58589745
-123.3592364 -9.774847976 26.58589745
-72.71381434 -63.20352391 26.58589745
-106.477429 -29.49257362 26.58589745
-137.4274092 -65.38428619 26.58589745
15.57478337 -42.30871244 22.63006573
-10.81385405 -54.75307006 26.58589745
-140.2410437 -63.20352391 26.58589745
-86.78198713 -32.21852647 26.58589745
-69.90017978 -63.20352391 26.58589745
-44.6058929 -9.84003675 26.57564159
-33.35092467 -4.586937509 24.61677232
-131.8001401 -63.20352391 26.58589745
-148.0466106 -54.75307006 26.58589745
-106.477429 -32.21852647 26.58589745
14.78527425 -29.98989604 24.12449104
-44.57746875 -57.56988801 26.58589745
-117.7319673 -63.20352391 26.58589745
-109.2910636 -63.20352391 26.58589745
-19.25475773 -60.38670596 26.58589745
-72.71381434 -37.85216237 26.58589745
28.57702976 -51.93625211 26.58589745
9.636593033 -24.70690788 18.14678978
-123.3592364 -32.21852647 26.58589745
-14.01153033 -4.292607904 -1.085636169
-89.59562169 -60.38670596 26.58589745
-64.27291066 -35.03534442 26.58589745
-100.8501599 -65.38428619 26.58589745
-25.26785496 -7.447998492 24.47612053
-56.04593797 4.499542337 -1.110095604
-112.1046982 -49.11943416 26.58589745
-58.64564155 -9.774847976 26.58589745
-47.39110331 -54.75307006 26.58589745
25.7633952 -65.38428619 26.58589745
5.332338944 -32.49650219 10.99699023
-21.25896907 3.899933739 -23.43339695
-50.20473787 -60.38670596 26.58589745
-22.06839229 -63.20352391 26.58589745
-67.08654522 -43.48579827 26.58589745
-61.4592761 -15.40848387 26.58589745
2.931805879 -17.15546429 18.55702418
-16.44112317 -18.22530182 26.58589745
-61.4592761 -63.20352391 26.58589745
-5.880586466 -26.76388033 -5.412385787
-12.87176319 -0.1164876045 -22.55949425
-61.4592761 -51.93625211 26.58589745
-50.20473787 -4.141212079 26.58589745
-78.34108345 -46.30261621 26.58589745
-50.44702977 5.25251383 -20.71998941
-27.13277077 4.844818275 -15.01915197
-19.25475773 -49.11943416 26.58589745
-83.96835257 -63.20352391 26.58589745
-83.72464305 3.655425212 -34.12879382
31.39066432 -51.93625211 26.58589745
-75.52744889 -60.38670596 26.58589745
-81.15471801 -63.20352391 26.58589745
-83.96835257 -54.75307006 26.58589745
-8.000219497 -23.85893772 26.58589745
10.176588 -31.13976625 17.79516029
-140.2410437 -37.85216237 26.58589745
17.41497244 -39.926968 26.53082295
-72.71381434 -23.85893772 26.58589745
-145.4369211 -9.499179152 25.10123962
-95.50682927 -2.976474927 20.8593601
-72.71381434 -57.56988801 26.58589745
37.01793344 -43.48579827 26.58589745
-2.931533311 -9.64275597 -9.398153529
-44.57746875 -32.21852647 26.58589745
16.60425802 -42.55310562 22.6476472
-109.2910636 -21.04211977 26.58589745
-2.37295038 -57.56988801 26.58589745
3.197476845 -17.0883408 -6.256296554
-64.27291066 -21.04211977 26.58589745
-41.7302161 5.31049971 -40.38747755
34.20429888 -60.38670596 26.58589745
-86.78198713 -65.38428619 26.58589745
-137.4274092 -46.30261621 26.58589745
6.067953295 -63.20352391 26.58589745
-27.6956614 -35.03534442 26.58589745
-120.4884615 -4.973885604 23.67239599
-9.698654888 -25.38146759 -6.788764061
-55.83200699 -63.20352391 26.58589745
-34.94928451 -0.5283495018 14.22677218
-55.84725275 0.8871987365 24.31323334
11.69522241 -32.21852647 26.58589745
-67.08654522 -60.38670596 26.58589745
-89.59562169 -9.774847976 26.58589745
-30.2637989 5.773545518 -23.65944448
-143.0546783 -49.11943416 26.58589745
22.94976064 -35.03534442 26.58589745
-58.64564155 -37.85216237 26.58589745
25.7633952 -60.38670596 26.58589745
-16.49111914 -10.04788574 10.29373126
-30.50929596 -49.11943416 26.58589745
-81.15471801 -54.75307006 26.58589745
8.49181852 -21.0320502 16.26077708
-89.59562169 -32.21852647 26.58589745
-75.46296243 1.983994988 16.237944
-5.186584938 -63.20352391 26.58589745
-22.06839229 -49.11943416 26.58589745
-83.96835257 -18.22530182 26.58589745
-114.9183327 -37.85216237 26.58589745
-18.83595676 -6.321348847 5.288646169
-67.11644451 4.89220134 -18.76396421
-41.7638342 -63.20352391 26.58589745
12.65968608 -40.05915122 23.89007139
-19.52913464 3.374084456 -20.72082663
-100.8501599 -43.48579827 26.58589745
-112.1046982 -57.56988801 26.58589745
-13.62748861 -57.56988801 26.58589745
20.17100815 -40.62592479 26.57983487
-2.37295038 -54.75307006 26.58589745
-16.44112317 -65.38428619 26.58589745
-50.20473787 -63.20352391 26.58589745
-47.39110331 -23.85893772 26.58589745
-44.57746875 -60.38670596 26.58589745
31.39066432 -43.48579827 26.58589745
-121.7483371 -5.659755419 20.60819618
-67.04621508 4.965754715 -29.34428861
-2.37295038 -35.03534442 26.58589745
-5.708797255 -4.646973067 -14.8390733
-140.2410437 -51.93625211 26.58589745
-103.6637945 -63.20352391 26.58589745
-13.53659724 0.7020785974 -17.86263467
-13.62748861 -51.93625211 26.58589745
-58.64564155 -60.38670596 26.58589745
-120.5456018 -54.75307006 26.58589745
-47.39110331 -63.20352391 26.58589745
-38.95019964 -63.20352391 26.58589745
-47.39110331 -40.66898032 26.58589745
20.13612609 -65.38428619 26.58589745
-106.4238736 -0.6213513794 10.15184568
-27.6956614 -63.20352391 26.58589745
-64.27291066 -65.38428619 26.58589745
-98.03652536 -32.21852647 26.58589745
-148.0466106 -37.85216237 26.58589745
-98.73501054 3.396166839 -20.08492525
-10.81385405 -65.38428619 26.58589745
-6.546210756 -13.61875185 13.22397697
-27.6956614 -51.93625211 26.58589745
28.39777981 -29.78343667 26.48681952
0.4406841781 -63.20352391 26.58589745
-4.20034933 -14.20332056 5.806269245
-8.000219497 -49.11943416 26.58589745
-48.66277486 2.998008259 17.53143818
-58.64564155 -21.04211977 26.58589745
11.69522241 -57.56988801 26.58589745
-69.90017978 -49.11943416 26.58589745
-68.78124618 3.40174579 1.15136462
25.7633952 -32.21852647 26.58589745
-78.34108345 -57.56988801 26.58589745
-58.64564155 -49.11943416 26.58589745
34.20429888 -57.56988801 26.58589745
-84.05654915 2.723538564 5.154531077
-72.71381434 -51.93625211 26.58589745
-58.64564155 -57.56988801 26.58589745
36.57773721 -54.9811008 24.84373317
-64.33320556 4.841042175 -15.23556696
-109.2910636 -54.75307006 26.58589745
10.62584574 -36.70004746 14.63049492
-78.34108345 -43.48579827 26.58589745
-24.88202685 -49.11943416 26.58589745
-53.01837243 -46.30261621 26.58589745
-134.6137746 -60.38670596 26.58589745
-140.2410437 -54.75307006 26.58589745
-131.8001401 -49.11943416 26.58589745
-134.5963189 -9.78444293 26.57759124
-134.6137746 -54.75307006 26.58589745
-123.3592364 -54.75307006 26.58589745
-109.2910636 -29.49257362 26.58589745
-8.000219497 -63.20352391 26.58589745
-69.90017978 -43.48579827 26.58589745
-24.88202685 -29.49257362 26.58589745
6.067953295 -49.11943416 26.58589745
-38.95019964 -51.93625211 26.58589745
-36.0615997 -12.70445821 26.58070095
-120.5456018 -43.48579827 26.58589745
-103.6637945 -40.66898032 26.58589745
-0.1684509858 -23.4094467 5.048591424
-89.59562169 -43.48579827 26.58589745
-30.50929596 -57.56988801 26.58589745
6.077969022 -34.89114784 13.08332518
3.254318736 -57.56988801 26.58589745
8.881587853 -63.20352391 26.58589745
-89.82425909 0.8939315694 10.23061827
-55.83200699 -60.38670596 26.58589745
-75.52744889 -54.75307006 26.58589745
-98.03652536 -37.85216237 26.58589745
-2.673860488 -15.95772221 25.14798401
22.94976064 -37.85216237 26.58589745
-61.4592761 -21.04211977 26.58589745
-148.0466106 -43.48579827 26.58589745
36.00354471 -30.43661272 24.76012896
-10.06912831 -11.90177432 6.860172747
-72.71381434 -49.11943416 26.58589745
-27.6956614 -49.11943416 26.58589745
-148.0466106 -21.04211977 26.58589745
-5.314238113 -17.9670907 -0.9919008192
33.59870416 -28.39965745 22.48355344
-44.57746875 -54.75307006 26.58589745
-148.0466106 -23.85893772 26.58589745
-61.45152572 3.237303063 13.16537206
-0.0349306417 -31.53475555 3.612771022
-103.6637945 -32.21852647 26.58589745
-55.83200699 -12.59166592 26.58589745
-58.64564155 -4.141212079 26.58589745
-38.95019964 -54.75307006 26.58589745
28.65424533 -26.82546367 22.1709939
-72.71381434 -12.59166592 26.58589745
25.7633952 -51.93625211 26.58589745
-92.40925624 -57.56988801 26.58589745
6.365032138 -27.84731789 13.04816223
-126.1728709 -32.21852647 26.58589745
36.96183072 -51.94686171 26.54732206
-30.50929596 -54.75307006 26.58589745
-6.474719352 -24.70962552 -3.478423614
-106.477429 -60.38670596 26.58589745
28.57702976 -37.85216237 26.58589745
-17.04076169 1.886405034 -20.70368196
-92.40925624 -18.22530182 26.58589745
-131.8001401 -51.93625211 26.58589745
-24.88202685 -54.75307006 26.58589745
-36.13656508 -29.49257362 26.58589745
-75.52744889 -32.21852647 26.58589745
-73.63034423 3.577382971 -23.27516368
-117.7319673 -18.22530182 26.58589745
-58.86196313 5.041937118 -29.39991
-13.62748861 -54.75307006 26.58589745
-5.186584938 -54.75307006 26.58589745
-24.88202685 -23.85893772 26.58589745
-29.91239085 5.076866399 -32.06590083
-44.57746875 -37.85216237 26.58589745
6.067953295 -54.75307006 26.58589745
14.50885697 -54.75307006 26.58589745
-5.286252914 -6.675847509 -14.8136067
-89.59562169 -37.85216237 26.58589745
-131.8001401 -46.30261621 26.58589745
-109.2413793 -2.269010509 19.18158512
0.13625644 -16.08395651 12.6613698
-3.977555216 -10.98777537 -10.56961825
20.13612609 -54.75307006 26.58589745
-106.477429 -26.67575567 26.58589745
-18.47863217 -19.21760316 14.63049492
28.57702976 -54.75307006 26.58589745
-117.7319673 -54.75307006 26.58589745
-106.477429 -51.93625211 26.58589745
-24.88202685 -21.04211977 26.58589745
-55.83200699 -35.03534442 26.58589745
-61.4592761 -60.38670596 26.58589745
-109.3428823 1.234451312 1.693549962
-31.57443282 5.693507949 -16.66452934
-143.0546783 -51.93625211 26.58589745
15.23569325 -35.48868498 23.77286156
-69.90017978 -54.75307006 26.58589745
-100.8372247 -0.8071595689 15.6930275
-134.6137746 -51.93625211 26.58589745
-13.14832724 -11.3064684 12.87234749
11.50094141 -37.07327848 18.93795612
-53.01837243 -4.141212079 26.58589745
-123.3592364 -51.93625211 26.58589745
-17.08604225 -18.37596095 18.49841927
-137.4274092 -15.40848387 26.58589745
-101.2064515 2.320808503 -0.6259809723
-140.1862129 -8.683487689 21.53122358
-47.28062137 5.371699011 -23.53357046
-90.1829059 -1.185569363 19.17391802
-53.01837243 -32.21852647 26.58589745
-95.2228908 -40.66898032 26.58589745
-58.64564155 -63.20352391 26.58589745
-78.34108345 -49.11943416 26.58589745
-5.390761588 -16.01930907 26.06486981
-64.27291066 -43.48579827 26.58589745
-148.0466106 -35.03534442 26.58589745
-0.02255365473 -16.53960275 24.09937465
-95.2228908 -51.93625211 26.58589745
-92.40925624 -51.93625211 26.58589745
-38.95019964 -29.49257362 26.58589745
-41.7638342 -18.22530182 26.58589745
-67.08654522 -63.20352391 26.58589745
-37.24107002 -10.6190698 24.33546873
-75.5025757 -1.631896842 26.53335511
25.7633952 -37.85216237 26.58589745
-78.34108345 -51.93625211 26.58589745
-69.90017978 -40.66898032 26.58589745
-131.8001401 -43.48579827 26.58589745
-19.38212526 1.758976779 -12.29287531
-67.08654522 -51.93625211 26.58589745
-71.35007224 3.445149412 -4.884941558
-64.27291066 -51.93625211 26.58589745
-58.64564155 -51.93625211 26.58589745
0.4406841781 -65.38428619 26.58589745
-6.300332535 -13.66202038 11.11420006
-64.27291066 -29.49257362 26.58589745
-114.9183327 -63.20352391 26.58589745
-81.15471801 -40.66898032 26.58589745
36.57572656 -49.22931581 24.80170339
-2.37295038 -51.93625211 26.58589745
-123.424501 -2.19798356 10.37084299
-90.71154768 3.384384051 -11.08869035
3.254318736 -51.93625211 26.58589745
-134.2240601 -8.020774635 23.30402224
3.254318736 -40.66898032 26.58589745
-47.31985396 5.357584323 -29.15069336
-90.99632248 0.01483000058 14.27886543
-2.73047256 -24.36706969 1.549878037
8.881587853 -51.93625211 26.58589745
-83.96835257 -51.93625211 26.58589745
22.94976064 -63.20352391 26.58589745
-131.8524115 -8.224213058 26.54194376
11.69522241 -51.93625211 26.58589745
-128.9865055 -9.774847976 26.58589745
-37.74691466 -11.20001265 24.82775002
8.881587853 -46.30261621 26.58589745
-56.07079951 4.914502874 -12.36683562
-61.35527211 3.988007351 4.631594918
14.50885697 -51.93625211 26.58589745
-75.52744889 -51.93625211 26.58589745
-71.93723989 2.904188662 9.215400834
-109.2910636 -26.67575567 26.58589745
16.37819535 -34.36603061 25.35519424
-75.85211627 2.752753624 7.901034065
-81.15471801 -57.56988801 26.58589745
20.13612609 -51.93625211 26.58589745
-37.07635769 3.021455694 11.81745903
-16.44112317 -40.66898032 26.58589745
-98.03652536 -9.774847976 26.58589745
-114.6003153 -2.565845256 15.7575125
-145.8683129 -49.11943416 26.58589745
-98.09414805 -1.132120099 18.65130165
-137.4274092 -49.11943416 26.58589745
-27.6956614 -65.38428619 26.58589745
-38.95019964 -46.30261621 26.58589745
-41.9529685 -2.172639937 26.5639206
-19.25475773 -57.56988801 26.58589745
-24.88202685 -35.03534442 26.58589745
-126.1728709 -40.66898032 26.58589745
-23.94394809 -3.328669067 5.704515657
-30.50929596 -21.04211977 26.58589745
-114.9183327 -49.11943416 26.58589745
8.881587853 -29.49257362 26.58589745
-6.541947933 -6.836895568 -16.66452934
-72.71381434 -6.958030028 26.58589745
-103.6637945 -49.11943416 26.58589745
20.13612609 -57.56988801 26.58589745
-98.03652536 -15.40848387 26.58589745
-89.59562169 -49.11943416 26.58589745
-140.2410437 -29.49257362 26.58589745
-103.6637945 -46.30261621 26.58589745
-81.15471801 -49.11943416 26.58589745
-13.62748861 -60.38670596 26.58589745
-5.01615777 -6.637406229 -3.745401557
-75.52744889 -49.11943416 26.58589745
-22.06839229 -12.59166592 26.58589745
-81.12409443 0.5537283772 18.46475261
-10.81385405 -37.85216237 26.58589745
-13.76187084 -23.88571188 26.55659499
-81.16663178 1.351573592 16.04913802
-4.957315396 -28.5970741 -1.368646697
-61.4592761 -49.11943416 26.58589745
-50.19219637 -6.955162244 26.58140856
-120.5456018 -40.66898032 26.58589745
-55.83200699 -49.11943416 26.58589745
-5.186584938 -37.85216237 26.58589745
-2.985979644 -10.06165858 -1.212769708
-53.01837243 -49.11943416 26.58589745
-81.29923002 1.904423329 13.30145466
-2.37295038 -23.85893772 26.58589745
-4.065848317 -29.01946332 1.854623592
-71.83681265 3.622866951 -29.60079307
-120.5456018 -63.20352391 26.58589745
-47.39110331 -49.11943416 26.58589745
-143.0546783 -40.66898032 26.58589745
-13.46933166 -3.703247372 -3.687006696
-92.3816197 0.02522782696 13.78338752
-128.9865055 -43.48579827 26.58589745
-67.06764979 3.384366529 4.609054566
-53.04390009 -1.454394654 26.55125415
11.39754533 -32.22487345 19.14307332
-10.81385405 -40.66898032 26.58589745
-5.922251585 -26.57818728 -3.754703924
-55.84650469 4.372090893 -54.4981039
-20.41940346 -16.5176787 11.11420006
-100.8501599 -32.21852647 26.58589745
-114.9183327 -43.48579827 26.58589745
-37.69959559 -0.1860581192 17.09190132
0.4406841781 -54.75307006 26.58589745
-53.23006343 5.054917802 -15.19773206
11.69522241 -49.11943416 26.58589745
34.16607202 -29.64364215 24.40235211
1.145480476 -23.55969356 6.753994431
14.50885697 -49.11943416 26.58589745
-115.01162 -3.218558212 18.73421786
-131.8001401 -32.21852647 26.58589745
-134.6137746 -23.85893772 26.58589745
-89.59562169 -63.20352391 26.58589745
-148.0466106 -32.21852647 26.58589745
-145.8683129 -40.66898032 26.58589745
2.923762256 -31.94344092 10.0593116
-148.0466106 -46.30261621 26.58589745
11.69522241 -65.38428619 26.58589745
-112.1046982 -65.38428619 26.58589745
-114.2994945 2.488817805 -5.58820053
-27.849151 2.080705525 1.998338156
-145.8683129 -46.30261621 26.58589745
-131.0960342 -3.472358551 10.64954681
-69.11080666 4.109404955 -9.456124877
6.067953295 -26.67575567 26.58589745
17.2155138 -37.84453764 26.57816933
-9.151246756 -25.37970974 -8.401236419
-120.5456018 -51.93625211 26.58589745
-13.77387733 -11.11590692 15.50956863
25.34843513 -27.54451372 26.37852621
-98.10220136 0.1070731056 12.42481905
-95.2228908 -43.48579827 26.58589745
-109.2910636 -46.30261621 26.58589745
-98.03652536 -46.30261621 26.58589745
25.90413249 -26.89069594 24.48257245
-69.90017978 -12.59166592 26.58589745
-131.7464246 -7.009458906 18.03413179
-95.2228908 -29.49257362 26.58589745
-122.4973551 -2.57424278 12.03954081
-2.37295038 -65.38428619 26.58589745
-112.1046982 -51.93625211 26.58589745
-78.34108345 -9.774847976 26.58589745
-106.477429 -12.59166592 26.58589745
31.39066432 -54.75307006 26.58589745
-112.6210219 -3.131091494 18.77972285
-79.39208995 3.694193495 -39.52044594
-25.97788187 0.2580984687 3.635311374
-109.2910636 -32.21852647 26.58589745
-69.90017978 -46.30261621 26.58589745
0.4406841781 -26.67575567 26.58589745
-94.42719708 3.403176599 -13.12755039
6.067953295 -32.21852647 26.58589745
-66.67209862 -0.006213659263 25.53100899
-109.2910636 -49.11943416 26.58589745
-143.0246349 -10.25125844 26.57497728
-67.08654522 -46.30261621 26.58589745
-148.0466106 -40.66898032 26.58589745
-7.994830715 -15.39946906 26.42836744
-64.27291066 -49.11943416 26.58589745
-145.8683129 -12.59166592 26.58589745
-117.2303596 0.3311702145 -2.128707356
-117.7319673 -51.93625211 26.58589745
-106.477429 -49.11943416 26.58589745
-52.98254967 4.719108081 -48.90982502
-97.69401115 2.969060356 -4.603637969
-58.64564155 -46.30261621 26.58589745
-112.2438883 -4.295901967 21.4872699
11.69522241 -46.30261621 26.58589745
-44.57746875 -46.30261621 26.58589745
-109.4322879 -1.980705229 15.68013518
-36.13656508 -46.30261621 26.58589745
-75.52744889 -65.38428619 26.58589745
-39.60631824 -2.350661239 24.22495661
-30.50929596 -26.67575567 26.58589745
-126.3510294 -1.934297385 7.430462585
-140.2410437 -46.30261621 26.58589745
-30.50929596 -46.30261621 26.58589745
-10.64802111 -3.266241632 -6.526176646
-24.88202685 -63.20352391 26.58589745
6.067953295 -37.85216237 26.58589745
-16.44112317 -46.30261621 26.58589745
-57.52182519 3.985300504 -59.02068855
-15.14219461 -10.63766091 1.409226243
-126.5222326 -2.977067156 11.1552235
-5.186584938 -46.30261621 26.58589745
-134.6137746 -35.03534442 26.58589745
-21.30921859 2.695799759 -30.86645358
-72.47123877 0.3152176017 23.34797593
3.254318736 -46.30261621 26.58589745
-44.47248231 4.531510087 4.648754669
-10.81385405 -57.56988801 26.58589745
14.50885697 -46.30261621 26.58589745
17.26121626 -46.37666786 26.57860223
-78.34108345 -26.67575567 26.58589745
-112.1046982 -46.30261621 26.58589745
20.18912049 -46.46931154 26.57585089
8.874862374 -20.65034785 24.80017123
-140.2410437 -26.67575567 26.58589745
-44.84890417 4.6852775 1.803051267
-103.6637945 -26.67575567 26.58589745
-19.25475773 -65.38428619 26.58589745
-13.87984653 -12.10583262 24.41751561
-137.4274092 -26.67575567 26.58589745
-78.51987327 -0.09116135672 21.99202835
-8.029895638 -13.01604365 10.0593116
-134.6137746 -26.67575567 26.58589745
-143.0546783 -60.38670596 26.58589745
-131.8001401 -26.67575567 26.58589745
-16.44112317 -32.21852647 26.58589745
-41.7638342 -37.85216237 26.58589745
-89.59562169 -6.958030028 26.58589745
-128.9865055 -26.67575567 26.58589745
-37.13037865 -11.41519283 24.3589107
-137.4274092 -43.48579827 26.58589745
-123.3592364 -26.67575567 26.58589745
-75.0025675 0.1594821711 23.06960258
-120.5456018 -26.67575567 26.58589745
-117.7319673 -26.67575567 26.58589745
-103.6637945 -15.40848387 26.58589745
-114.9183327 -26.67575567 26.58589745
-100.8501599 -9.774847976 26.58589745
-98.03652536 -35.03534442 26.58589745
-112.1046982 -26.67575567 26.58589745
-20.86004234 2.632682474 -30.14875572
-100.8501599 -26.67575567 26.58589745
0.4406841781 -51.93625211 26.58589745
-126.0270309 -7.393706226 26.55757829
-19.30961449 -0.9188449535 -1.051295557
-92.40925624 -26.67575567 26.58589745
-30.50929596 -51.93625211 26.58589745
-50.88424718 -6.844253884 24.75742412
-86.78198713 -26.67575567 26.58589745
-145.8202415 -10.44665232 26.56793098
-75.52744889 -26.67575567 26.58589745
-143.0546783 -18.22530182 26.58589745
-69.90017978 -26.67575567 26.58589745
-89.59562169 -15.40848387 26.58589745
-13.61149233 -15.42618109 26.57879382
-137.9840839 -8.57927133 23.9486763
-74.5559501 3.707341 -41.34891926
-64.27291066 -26.67575567 26.58589745
-69.86471228 -1.39521202 26.47694183
-61.4592761 -26.67575567 26.58589745
-10.97879883 -12.13469902 15.86119812
-58.64564155 -26.67575567 26.58589745
-75.52744889 -9.774847976 26.58589745
-55.83200699 -26.67575567 26.58589745
-36.12194056 5.639395082 -29.2846561
-50.20473787 -26.67575567 26.58589745
-44.57746875 -26.67575567 26.58589745
-36.13656508 -26.67575567 26.58589745
-33.32293052 -26.67575567 26.58589745
-14.05419505 -15.89166237 25.43054342
-73.01643875 3.716106004 -42.56790148
-27.6956614 -26.67575567 26.58589745
-24.88202685 -26.67575567 26.58589745
-0.2919651108 -21.30000637 5.312313538
-19.25475773 -26.67575567 26.58589745
-16.44112317 -26.67575567 26.58589745
-13.62748861 -26.67575567 26.58589745
-42.02017528 5.439986534 -14.927066
-10.81385405 -26.67575567 26.58589745
-78.34108345 -12.59166592 26.58589745
-8.000219497 -26.67575567 26.58589745
-12.21382671 0.1069761617 -17.36778831
38.47013192 -37.85216237 26.58589745
-5.186584938 -26.67575567 26.58589745
-61.4592761 -54.75307006 26.58589745
-2.37295038 -26.67575567 26.58589745
-100.8501599 -23.85893772 26.58589745
-126.1728709 -51.93625211 26.58589745
3.254318736 -26.67575567 26.58589745
-29.32695514 0.003971808126 8.652793656
-61.49322523 4.982191828 -23.57014175
-46.89542177 -0.1331624135 22.00169081
14.48054028 -26.6982695 26.53146108
-84.94654364 3.313338533 -3.380748756
36.08161066 -51.75091555 24.30030579
-134.3213251 -4.439710645 13.70037821
17.57240328 -27.00964691 26.44915265
-78.63194996 1.683628628 16.27760146
-7.043837569 -8.972436436 -1.227994903
20.11829252 -26.93532848 26.49345877
22.31589505 -24.68220508 18.79144384
-100.8501599 -40.66898032 26.58589745
-1.120948592 -14.3505896 -1.045638216
-64.24279479 4.896437033 -18.58147718
14.11151714 -21.27387589 7.773719941
-0.7898527545 -14.34756092 -11.03845756
-50.20473787 -29.49257362 26.58589745
-2.864154254 -18.52321292 2.206253078
17.06168601 -25.6012523 25.51342751
-78.29662679 0.9479801965 18.54198398
-8.581333471 -9.500129315 -4.114994235
-6.733018357 -11.27353967 -12.93725679
17.36563742 -22.61863824 12.87234749
-78.34108345 -37.85216237 26.58589745
10.92718181 -20.1306803 5.136498795
-10.39242389 -8.894646679 2.53560301
3.111462417 -17.30254278 -1.368646697
2.409780857 -17.04155337 -2.950979384
-64.30560255 -1.374817917 26.49310633
-0.8217743482 -15.37557089 -2.900746601
-2.456231011 -14.71168461 -6.702831862
-7.873711256 -3.33058434 -9.420205736
-127.6914577 -5.528247075 17.44353081
23.79521777 -25.65349074 22.01471413
22.42498444 -24.95053502 21.66308464
-1.402871544 -14.51930305 2.055114088
9.293553792 -19.60965236 4.433239823
-103.6637945 -35.03534442 26.58589745
1.744285163 -16.79775305 -3.654238357
-94.71375949 1.975687844 1.280912325
21.08909991 -24.33457319 18.49841927
-83.96835257 -35.03534442 26.58589745
-6.681100463 -16.91936494 -2.599349898
5.938198332 -21.70621345 26.40874061
-27.6956614 -54.75307006 26.58589745
9.83514909 -20.12139059 6.718831483
13.25140853 -21.39011774 10.41094109
-7.189599753 -15.29250077 -3.073285293
5.028130124 -17.90302906 15.86119812
3.193941776 -17.62534807 1.971833421
-6.698888178 -14.06072826 -10.54617628
6.328603821 -18.4164494 10.6746632
25.7633952 -46.30261621 26.58589745
6.106963959 -20.93175897 13.83932858
-55.96535677 4.517105139 -51.58178812
-33.983673 0.6109853705 12.4061421
-94.98140433 1.238494946 4.604766402
20.03652449 -23.82964264 21.91703927
-69.84624149 0.3785256886 24.14846578
18.67833341 -23.24067877 15.33375389
-6.706529579 -13.89456191 -10.62822316
-21.18469152 -8.58317103 12.69653275
-142.6907191 -9.146723176 24.37565496
-4.944469521 -13.2278832 -10.14144357
-99.597526 3.374323522 -19.5654726
-19.93389486 -12.42259331 13.16537206
-128.9203295 -4.845558949 16.02430336
-7.881117503 -3.818985312 -6.738903372
14.50885697 -37.85216237 26.58589745
-2.974135724 -13.11217327 -9.718405887
10.78782339 -23.45264192 19.67051755
-63.97310203 3.381004405 10.33819016
-106.477429 -37.85216237 26.58589745
14.56544277 -22.86920096 22.69843813
-106.477429 -6.958030028 26.58589745
-106.477429 -54.75307006 26.58589745
12.57120439 -24.09698427 21.59275874
22.2585067 -24.9501181 23.97379269
-16.4619827 1.686917778 -23.38508749
15.11872635 -21.89328793 16.21282761
-0.7634632082 -15.21925645 -1.04243621
-111.8286428 -2.229599117 15.79240105
-109.4701608 0.4286849001 3.896542186
-28.23876985 4.16989585 -34.26403593
16.12814666 -22.25781731 16.21282761
-64.05787698 3.596685503 7.488020983
-27.6956614 -46.30261621 26.58589745
14.39601269 -23.61899658 24.48480274
-95.16377067 0.8660375219 7.291251576
19.88045447 -24.49404626 24.26849169
-27.6956614 -57.56988801 26.58589745
8.757911329 -19.44983768 8.125349427
4.469332399 -20.6590571 11.81745903
17.35883373 -32.21061816 26.58415671
-128.9865055 -21.04211977 26.58589745
-6.825089347 -10.78497913 -13.37428201
-27.07045454 3.69059865 -6.232854588
-50.03574449 4.242073215 -57.02962259
-95.2228908 -18.22530182 26.58589745
-23.13195633 -7.981027441 16.38864235
0.5703766503 -17.71104462 25.10239553
-98.1063131 -3.065042422 20.87357693
-37.37037269 -2.045883197 17.61367411
-1.509260363 -17.85396216 4.081610337
2.62928958 -26.01797573 8.30116417
-145.8683129 -23.85893772 26.58589745
22.94976064 -57.56988801 26.58589745
-30.95476897 -5.208425059 18.23469715
-103.5431555 -2.259026513 21.08733966
-143.0546783 -23.85893772 26.58589745
12.71419091 -20.93134611 8.652793656
-137.4274092 -23.85893772 26.58589745
-131.8001401 -23.85893772 26.58589745
-3.671247218 -10.86772963 -13.85149345
-24.88202685 -18.22530182 26.58589745
-86.78198713 -29.49257362 26.58589745
17.43529684 -29.49678778 26.5823276
-128.9865055 -23.85893772 26.58589745
-93.37773455 3.23470845 -7.148556374
7.946615298 -19.38375795 23.6751867
-126.1728709 -23.85893772 26.58589745
-123.3592364 -23.85893772 26.58589745
-137.4274092 -21.04211977 26.58589745
-55.47602763 2.954851036 17.74106345
-61.4592761 -40.66898032 26.58589745
-67.08654522 -18.22530182 26.58589745
-30.50929596 -29.49257362 26.58589745
-120.5456018 -23.85893772 26.58589745
-114.9183327 -23.85893772 26.58589745
-112.1046982 -23.85893772 26.58589745
-69.90017978 -18.22530182 26.58589745
-109.2910636 -23.85893772 26.58589745
-47.26052927 5.161253188 -12.43363262
-5.393629866 -10.06446394 1.901276188
-106.477429 -23.85893772 26.58589745
-98.03652536 -23.85893772 26.58589745
17.6028389 -22.78860239 18.32260452
-86.78198713 -23.85893772 26.58589745
-83.96835257 -23.85893772 26.58589745
-72.71381434 -21.04211977 26.58589745
-81.15471801 -23.85893772 26.58589745
-16.44112317 -23.85893772 26.58589745
-50.20473787 -35.03534442 26.58589745
6.169531127 -20.24440614 25.10278694
-78.34108345 -23.85893772 26.58589745
3.254318736 -54.75307006 26.58589745
-75.52744889 -23.85893772 26.58589745
-13.64103524 -18.24971334 26.58589745
-67.08654522 -23.85893772 26.58589745
-61.4592761 -23.85893772 26.58589745
24.60064415 -25.2007864 18.14678978
-58.64564155 -23.85893772 26.58589745
-35.92683209 5.592438432 -15.16784999
-55.83200699 -23.85893772 26.58589745
-41.7638342 -51.93625211 26.58589745
-85.6994805 -2.692375259 23.06960258
-120.5456018 -15.40848387 26.58589745
-41.7638342 -23.85893772 26.58589745
-75.52744889 -57.56988801 26.58589745
-36.13656508 -23.85893772 26.58589745
3.143135471 -21.19744777 26.41510598
-131.8001401 -18.22530182 26.58589745
-33.32293052 -23.85893772 26.58589745
-44.65929504 -1.865822366 26.56376692
-114.9183327 -46.30261621 26.58589745
-30.50929596 -23.85893772 26.58589745
-27.6956614 -23.85893772 26.58589745
-0.6733213585 -17.99303439 5.136498795
-19.25475773 -23.85893772 26.58589745
-10.81385405 -23.85893772 26.58589745
38.47013192 -35.03534442 26.58589745
-5.186584938 -23.85893772 26.58589745
3.254318736 -23.85893772 26.58589745
-49.88672281 2.512271465 19.31120218
-75.52744889 -46.30261621 26.58589745
-8.143953027 -13.16116571 15.61505748
-92.40925624 -60.38670596 26.58589745
6.067953295 -23.85893772 26.58589745
8.886884506 -23.85284994 26.58434156
17.53887842 -22.83059946 22.09843543
-53.01837243 -65.38428619 26.58589745
-4.874033535 -11.82399588 -11.81115597
-18.88995448 -12.34992736 15.68538338
-13.43693384 -24.03527987 24.30030579
31.44269929 -29.02814364 24.45082344
-81.15471801 -15.40848387 26.58589745
0.9500155118 -17.58465394 7.36348554
-81.15471801 -12.59166592 26.58589745
9.298486473 -19.63870354 10.0593116
-9.458808452 -8.430188837 -5.060756301
3.709245818 -17.52593997 3.905795594
-92.40925624 -15.40848387 26.58589745
-63.75420197 -0.01989997662 25.50170653
-20.08047865 -20.1509706 12.28629835
37.01793344 -35.03534442 26.58589745
-38.95019964 -6.958030028 26.58589745
-27.6956614 -29.49257362 26.58589745
-16.21149732 -22.80008213 20.95982567
-86.72037047 1.853272463 7.578055146
5.019035493 -18.0308398 5.488128281
16.13610612 -22.24296239 19.20167824
-17.01951678 -21.49416955 19.27200414
-100.9499609 0.4260663303 7.608247241
16.31299945 -22.23724217 21.11052402
-23.55622065 -17.58438769 5.839757767
-17.49348797 -15.07624277 17.79516029
-16.25195107 -21.98643381 21.37006007
31.39066432 -65.38428619 26.58589745
-101.657521 0.2772457305 9.004423142
-23.58125072 -17.5011047 6.249992168
-14.52386307 -22.72752617 22.36634361
6.187823487 -18.41989124 21.6923871
10.56502917 -19.97549093 14.27886543
-13.99721986 -6.110898564 -2.977351596
-106.477429 -40.66898032 26.58589745
14.18789669 -21.98987211 21.76564324
-1.470265258 -12.5249541 -3.810269275
12.61937318 -22.6744085 25.34054302
-106.477429 -65.38428619 26.58589745
-131.8001401 -12.59166592 26.58589745
3.433953616 -17.70503967 10.32303371
11.9467429 -21.02494723 21.60682392
-0.3315447149 -15.75166567 4.248171672
-117.992605 -7.187776496 26.58391084
1.933208996 -16.70592302 4.784869309
-3.616735233 -9.566777487 -11.71746623
-16.78816517 1.625685549 -18.11324282
-10.81385405 -21.04211977 26.58589745
-15.96295098 -15.43026129 21.4872699
13.34870862 -22.06755192 24.25235631
-15.50122714 -22.4245244 24.82775002
-109.3067667 2.929462833 -9.159058587
0.3132395874 -16.11503413 10.32303371
-140.2410437 -49.11943416 26.58589745
-4.740386489 -10.06058694 -12.80722022
-5.256072898 -9.517383226 -14.63090149
-14.06947087 -21.65749908 24.65193527
14.50885697 -60.38670596 26.58589745
-81.15471801 -9.774847976 26.58589745
8.115904421 -19.36081814 15.88631451
19.82824558 -23.54847051 15.42166126
-95.52273213 2.282599046 -0.3617077143
-22.12721464 -6.776114872 7.361114243
-128.1776564 -2.369907486 7.922486262
2.059135755 -23.63941421 7.949534684
-145.8683129 -21.04211977 26.58589745
-143.0546783 -21.04211977 26.58589745
-61.48133429 5.017628127 -26.23065459
-140.2410437 -21.04211977 26.58589745
-134.6137746 -21.04211977 26.58589745
-103.7857353 -3.257161704 20.91053182
-24.88202685 -46.30261621 26.58589745
-131.8001401 -21.04211977 26.58589745
-120.5456018 -21.04211977 26.58589745
-112.1182394 -0.6559253976 7.361464681
-114.9183327 -21.04211977 26.58589745
-112.1046982 -21.04211977 26.58589745
14.65264487 -40.56322575 24.82775002
-103.6637945 -21.04211977 26.58589745
-21.73079889 -8.46586215 17.44353081
-16.44112317 -51.93625211 26.58589745
-98.03652536 -21.04211977 26.58589745
-21.07528611 -8.652559497 16.30073498
-95.2228908 -21.04211977 26.58589745
-78.34108345 -15.40848387 26.58589745
-123.3592364 -12.59166592 26.58589745
-120.5456018 -49.11943416 26.58589745
-13.25977367 -11.51189708 21.4872699
-128.9865055 -60.38670596 26.58589745
-25.13336332 -7.496995303 18.41051189
-92.40925624 -21.04211977 26.58589745
-15.90749856 -10.78373848 24.65193527
-92.40925624 -29.49257362 26.58589745
-81.15471801 -21.04211977 26.58589745
-126.1728709 -60.38670596 26.58589745
-16.17837366 0.9344414326 -12.11640369
-78.34108345 -21.04211977 26.58589745
-53.01837243 -15.40848387 26.58589745
-75.52744889 -21.04211977 26.58589745
-69.90017978 -21.04211977 26.58589745
-78.18503648 2.612447769 7.322716904
-95.3549238 -0.04996882907 13.63421138
-50.20473787 -21.04211977 26.58589745
-78.04698485 0.2615978403 20.78401093
-47.39110331 -21.04211977 26.58589745
-44.57746875 -21.04211977 26.58589745
-97.79197383 -0.121077965 13.7765376
-120.5456018 -35.03534442 26.58589745
-38.95019964 -21.04211977 26.58589745
-36.13656508 -21.04211977 26.58589745
-22.06839229 -21.04211977 26.58589745
-19.25475773 -21.04211977 26.58589745
-35.51089999 4.379135258 2.173080485
-86.78198713 -6.958030028 26.58589745
-16.44112317 -21.04211977 26.58589745
-140.1861564 -10.09858418 26.58412154
-101.0120338 0.9036023446 4.451043848
-13.67507502 -21.03173839 26.57926293
-5.186584938 -21.04211977 26.58589745
-89.59562169 -51.93625211 26.58589745
-111.2719169 -4.805503583 24.0703942
0.4329785112 -21.05277785 26.5748225
-53.01837243 -23.85893772 26.58589745
8.610329757 -22.0031116 26.2240758
-108.3310903 3.071082739 -11.27287722
0.5372938936 -16.18981667 7.070460969
-103.6637945 -9.774847976 26.58589745
-1.743341532 -12.5101213 -1.030836711
-113.9444691 -6.767060191 25.00356476
-17.81933022 -18.93448802 16.38864235
-139.9205063 -8.50549626 19.20167824
20.13612609 -35.03534442 26.58589745
-55.83200699 -21.04211977 26.58589745
-2.202613035 -14.58309124 4.950579757
9.67879661 -19.7093343 21.8975043
8.488372018 -19.29675526 21.73341054
-19.25475773 -51.93625211 26.58589745
3.059892371 -17.1509691 13.22397697
-2.345213876 -12.64786089 1.68210448
6.508018409 -18.52549398 19.0258635
3.686424399 -17.44129698 16.03701286
-2.252902336 -9.713273303 -6.59702399
-55.69826555 5.121231384 -23.4650436
-61.45891938 4.60594485 -6.312557271
-19.91722122 -14.70640944 12.69653275
25.7633952 -49.11943416 26.58589745
5.850360983 -18.96792552 24.13416892
8.881587853 -49.11943416 26.58589745
-2.640455691 -15.05441669 10.11791651
22.94976064 -54.75307006 26.58589745
-50.20473787 -9.774847976 26.58589745
-98.12952947 3.256468574 -9.952542975
-4.149059395 -11.64570265 2.354039384
-2.37295038 -21.04211977 26.58589745
-4.257832363 -14.40697738 7.246275712
0.07690434956 -18.99513412 26.15018265
-67.08654522 -4.141212079 26.58589745
2.034104578 -19.44941821 25.88263847
-143.0546783 -12.59166592 26.58589745
14.50885697 -63.20352391 26.58589745
28.57702976 -46.30261621 26.58589745
-81.15471801 -6.958030028 26.58589745
-122.5760378 -5.419477175 26.35147779
-148.0466106 -18.22530182 26.58589745
-145.8683129 -18.22530182 26.58589745
-140.2410437 -18.22530182 26.58589745
-137.4274092 -18.22530182 26.58589745
-134.6137746 -18.22530182 26.58589745
-128.9865055 -18.22530182 26.58589745
-126.1728709 -18.22530182 26.58589745
-16.78580526 0.5010036441 -9.7019473
-134.6137746 -32.21852647 26.58589745
-123.3592364 -18.22530182 26.58589745
-41.7638342 -26.67575567 26.58589745
-120.5456018 -18.22530182 26.58589745
-114.9183327 -18.22530182 26.58589745
16.35172749 -41.07942472 22.36634361
-109.2910636 -18.22530182 26.58589745
8.881587853 -26.67575567 26.58589745
-106.477429 -18.22530182 26.58589745
-4.982521825 -14.23056782 11.2900148
-100.8501599 -18.22530182 26.58589745
-30.45615262 5.755948182 -26.59220183
-128.9865055 -54.75307006 26.58589745
-81.15471801 -18.22530182 26.58589745
-117.7319673 -37.85216237 26.58589745
-72.71381434 -18.22530182 26.58589745
-64.27291066 -18.22530182 26.58589745
-114.9183327 -35.03534442 26.58589745
-58.64564155 -18.22530182 26.58589745
-55.83200699 -18.22530182 26.58589745
-94.76859303 3.500289591 -23.66363054
-75.52744889 -18.22530182 26.58589745
-53.01837243 -18.22530182 26.58589745
-61.4592761 -12.59166592 26.58589745
-50.20473787 -18.22530182 26.58589745
-38.95019964 -18.22530182 26.58589745
-114.8925455 -1.445940187 10.45539999
5.172343763 -26.73843243 11.46582954
-36.13656508 -18.22530182 26.58589745
-33.32293052 -18.22530182 26.58589745
-10.86660738 -1.259319165 -12.27144407
-131.8001401 -40.66898032 26.58589745
-30.50929596 -18.22530182 26.58589745
-89.93023728 1.23943281 7.096646143
-22.06839229 -18.22530182 26.58589745
-10.81385405 -18.22530182 26.58589745
31.39066432 -37.85216237 26.58589745
-64.27291066 -46.30261621 26.58589745
-8.000219497 -18.22530182 26.58589745
-86.78198713 -51.93625211 26.58589745
0.6601962693 -16.28664565 15.91980303
-7.200664869 -7.920337705 -16.14359677
-131.8001401 -37.85216237 26.58589745
-29.65693752 -14.76927361 21.60447973
-100.7089742 -1.317925982 18.43248874
-7.983299572 -7.181417941 -17.54983762
-29.28685333 -14.89946319 23.5384419
-100.8959707 -2.118546861 21.38492997
-2.400708434 -9.730161494 -3.797373779
-89.59562169 -57.56988801 26.58589745
2.706197724 -17.19608513 21.61285186
-21.70291311 -13.6621385 8.652793656
-0.09038462263 -16.1533041 18.85004875
-99.25401929 -0.2605597028 2.191601849
-55.83200699 -4.141212079 26.58589745
-140.2410437 -23.85893772 26.58589745
-4.360035381 -6.820672132 -12.35965951
-1.587445713 -17.15165536 25.53100899
-98.03652536 -63.20352391 26.58589745
0.132424309 -16.2109444 21.76857349
-4.285882621 -14.48567772 12.87234749
1.795169726 -16.92466579 22.7179731
-123.0998362 -1.316934379 4.734636525
-21.16917291 -12.71383685 10.09838154
-44.89771249 3.08827395 15.23607903
-81.8738613 -0.01279584724 19.90493721
-2.643252085 -15.15595141 18.49841927
-47.414489 4.212253152 7.220229083
-10.81385405 -46.30261621 26.58589745
-4.5859329 -8.993911939 -0.6133609133
-100.6677655 3.289671312 -12.25629627
-20.55862012 -13.59399467 11.46582954
-2.348157208 -15.53126071 21.57517727
-5.086524363 -14.29263267 16.08096655
-3.439217268 -10.7452898 1.048149994
-28.2788982 -1.721102043 9.553030257
-33.32293052 -43.48579827 26.58589745
-21.19896839 -6.164570083 5.377340909
-148.0466106 -15.40848387 26.58589745
-145.8683129 -15.40848387 26.58589745
-76.52226247 3.280207966 0.2136859902
-103.9496582 -4.21744784 7.447206847
-7.21634498 -9.320686766 -15.07516406
-143.0546783 -15.40848387 26.58589745
-140.2410437 -15.40848387 26.58589745
-24.88202685 -40.66898032 26.58589745
-131.8001401 -15.40848387 26.58589745
-126.1728709 -15.40848387 26.58589745
-58.53836044 -1.662015337 26.53443947
-112.1046982 -15.40848387 26.58589745
-33.32293052 -54.75307006 26.58589745
-109.2910636 -15.40848387 26.58589745
-44.7484237 -0.3892513087 20.88234799
-65.83869447 3.773837035 -50.59677475
-95.2228908 -15.40848387 26.58589745
-50.28008299 4.6687183 -1.085814284
-86.78198713 -15.40848387 26.58589745
-83.96835257 -15.40848387 26.58589745
-131.8035046 -7.903380022 24.71054019
-72.71381434 -15.40848387 26.58589745
-69.90017978 -15.40848387 26.58589745
-126.0490823 -2.394352701 9.998930779
-67.08654522 -15.40848387 26.58589745
-64.27291066 -15.40848387 26.58589745
-58.64564155 -15.40848387 26.58589745
-55.83200699 -15.40848387 26.58589745
-50.20473787 -15.40848387 26.58589745
-18.78698818 -8.764776277 7.936010473
-115.4505759 -0.08799653698 -0.3953865125
-86.78198713 -43.48579827 26.58589745
-47.39110331 -15.40848387 26.58589745
12.40400149 -38.31149255 23.06960258
-120.5456018 -29.49257362 26.58589745
-38.95019964 -15.40848387 26.58589745
-36.13656508 -15.40848387 26.58589745
-30.50929596 -15.40848387 26.58589745
-27.64771299 -15.30679628 26.57723662
-5.216137867 -4.750346257 -9.498690551
-24.88202685 -15.40848387 26.58589745
-22.06839229 -15.40848387 26.58589745
-16.44112317 -15.40848387 26.58589745
-83.96660674 3.646154535 -32.8394857
-10.81385405 -15.40848387 26.58589745
-4.161416897 -15.11256377 19.37749298
-28.47362432 -15.31013929 23.86076893
-5.452460124 -4.651699029 -12.32459785
-10.75278741 -12.23186337 9.766287029
-143.0546783 -46.30261621 26.58589745
-13.54150783 -11.45634679 4.081610337
-83.96835257 -21.04211977 26.58589745
-7.98407672 -13.38136554 12.520718
-29.98804682 -14.45162681 18.79144384
-30.82306753 -14.06285474 16.21282761
-14.16819146 -9.360510781 2.054817979
-47.65768383 5.071656702 -9.531474052
-5.944464359 -11.02239878 3.404397993
-30.96945224 -13.46324229 16.21282761
-89.76952563 -3.021524169 24.04635116
-143.0546783 -43.48579827 26.58589745
-14.51258667 -9.901368186 4.119143821
-53.01837243 -51.93625211 26.58589745
-47.39110331 -12.59166592 26.58589745
-10.30386328 -11.34310761 5.656298905
-8.344442158 -10.64346136 3.798971446
-5.030684446 -14.35839249 21.31145515
-81.15471801 -32.21852647 26.58589745
-30.52386686 -13.57813529 17.88306767
-89.52947235 -2.799548175 22.20651203
3.254318736 -35.03534442 26.58589745
-50.20473787 -54.75307006 26.58589745
-5.228791975 -14.81371555 25.2980015
-12.70494101 -11.4977926 7.070460969
-6.269655082 -13.91822628 18.49841927
-7.98130764 -13.23308431 18.79144384
-17.22479647 -12.43756664 19.37749298
-83.96835257 -6.958030028 26.58589745
-11.5581273 -11.87184787 13.08332518
-44.57781836 -6.957634807 26.5829672
-9.651578322 -6.863924287 -4.91649805
-4.026172491 -6.040058379 -9.644804113
-58.68306629 3.059957138 15.63515059
-29.99128661 -13.81958456 20.37377653
-15.30163815 -13.34189603 23.50913944
-6.827853425 -14.15807807 25.53100899
6.877623256 -20.86650069 14.86491458
-6.480013018 -13.92301274 23.77286156
-148.0466106 -29.49257362 26.58589745
-13.15689205 -11.26168847 10.41094109
-16.95671477 -9.390802989 6.739732536
-33.32293052 -40.66898032 26.58589745
-21.43544605 -9.253766721 9.785822
-142.7718057 -8.993322097 22.01471413
34.20429888 -43.48579827 26.58589745
-123.3329453 -6.98460299 26.58140856
-148.0466106 -26.67575567 26.58589745
-14.14414937 -10.96942677 9.707682114
-13.70915334 -12.90289307 26.55048153
-8.530897025 -13.60917787 26.35657387
-10.68591913 -12.3236942 19.13135234
-5.327704646 -7.638472933 -1.675336989
-50.29209887 5.098608318 -40.37732944
-27.67887068 3.227619082 -1.263703013
-33.32293052 -37.85216237 26.58589745
-148.0121988 -10.52951964 26.56283977
-114.8161292 0.5343157002 -1.64654742
-75.52744889 -35.03534442 26.58589745
-148.0466106 -12.59166592 26.58589745
-15.41792135 -3.231281375 -0.1379434959
-137.4274092 -12.59166592 26.58589745
-20.3138461 -17.89382246 10.93838532
-33.31485871 -1.285422993 13.12419023
-86.78198713 -49.11943416 26.58589745
-109.8785586 2.10463757 -3.675389002
-103.6637945 -65.38428619 26.58589745
-100.8620956 1.782458046 1.556055312
-134.6137746 -12.59166592 26.58589745
-143.0546783 -35.03534442 26.58589745
-128.9865055 -12.59166592 26.58589745
-17.29125252 -2.513933477 0.8445506564
-103.2051723 -3.971144153 24.3589107
-120.5456018 -12.59166592 26.58589745
-24.79335505 -4.026277525 7.73441001
-112.1046982 -12.59166592 26.58589745
-33.32293052 -51.93625211 26.58589745
-109.2910636 -12.59166592 26.58589745
-24.58075435 3.922170193 -32.28273901
11.69522241 -37.85216237 26.58589745
-100.8501599 -12.59166592 26.58589745
-53.05105129 5.118781875 -34.81447131
-98.03652536 -12.59166592 26.58589745
-19.26976297 -7.603339109 6.832593963
-22.69431964 -17.40645911 6.986739662
-95.2228908 -12.59166592 26.58589745
-92.40925624 -12.59166592 26.58589745
-64.95800747 3.779488755 -50.87305506
-69.90017978 -23.85893772 26.58589745
-89.59562169 -12.59166592 26.58589745
-86.78198713 -12.59166592 26.58589745
-83.96835257 -12.59166592 26.58589745
-75.52744889 -12.59166592 26.58589745
-137.4131408 -9.88305579 26.5811457
-64.27291066 -12.59166592 26.58589745
-38.95019964 -12.59166592 26.58589745
-27.6956614 -12.59166592 26.58589745
-29.82153709 5.722620216 -15.92610742
-24.88202685 -12.59166592 26.58589745
-19.25475773 -12.59166592 26.58589745
-69.90017978 -6.958030028 26.58589745
-102.0203971 2.864554683 -5.412385787
-126.1728709 -57.56988801 26.58589745
-123.3017365 -4.8854982 18.3457116
-10.92731788 -13.22372421 26.57194389
-64.27291066 -40.66898032 26.58589745
-14.3233106 -10.90637905 12.40350817
-58.79260214 3.8637685 7.324415597
-16.65923458 -11.8833053 20.54426355
-8.410745513 -8.044013292 0.8622470423
-134.6137746 -15.40848387 26.58589745
-99.716438 -0.9383050866 2.901139919
-14.23326682 -7.129376249 1.440594629
-8.814216454 -2.324811717 -12.4431441
-36.59018835 -3.412694195 24.47612053
-10.98914497 -12.30151354 24.3589107
31.39066432 -46.30261621 26.58589745
-16.23245348 -10.20693001 12.75513766
-98.20808918 0.26415805 10.10954438
8.682497525 -29.8311047 15.68538338
-4.303157239 -5.99247475 -6.407531371
-16.73509241 -7.167472543 4.301378766
-17.10227928 -10.64554651 18.69021717
-67.08654522 -29.49257362 26.58589745
-106.5562433 -1.028388426 13.22397697
-17.22057805 -10.16905199 15.82603517
-106.3398437 -1.422456284 15.76529917
-19.23741819 -9.548988839 15.50956863
-115.0741733 -0.3000343968 1.873496361
-10.39967878 -6.314798118 -0.7363045961
-37.73406939 -11.03868957 24.59333036
-128.9865055 -46.30261621 26.58589745
-38.02109594 -10.33851047 21.20596631
-38.27665835 -10.23024909 19.65879657
8.594078106 -26.79972731 16.12492023
-53.01837243 -63.20352391 26.58589745
-6.532551354 -4.089990292 -16.66452934
-86.78198713 -46.30261621 26.58589745
-5.420267353 -4.94443771 -6.642420491
-7.663519304 -3.218070025 -17.21273909
-131.8001401 -9.774847976 26.58589745
-120.5456018 -9.774847976 26.58589745
-117.7319673 -9.774847976 26.58589745
-33.32293052 -49.11943416 26.58589745
-109.2910636 -9.774847976 26.58589745
-11.78123792 -2.510771546 -7.493340614
-92.40925624 -9.774847976 26.58589745
-64.27291066 -9.774847976 26.58589745
-61.4592761 -9.774847976 26.58589745
-129.4362244 -5.806117726 16.9363729
-47.39110331 -9.774847976 26.58589745
-30.58987447 1.460180653 7.378609389
-120.5456018 -46.30261621 26.58589745
-83.96835257 -26.67575567 26.58589745
-36.09252028 -9.709323727 26.5751018
-75.47273989 -0.2616824213 24.24648495
-117.7319673 -46.30261621 26.58589745
-27.66590115 -9.819346836 26.57993762
-24.88202685 -9.774847976 26.58589745
-50.35842818 5.133817155 -15.12615034
-27.22213049 4.80411303 -20.73220133
-2.37295038 -49.11943416 26.58589745
-22.18896487 -9.96669923 26.57779538
-122.5507265 -5.357242897 25.1793795
-18.9912983 -9.489375064 18.70939696
-7.38205008 -3.282261898 -15.16041627
-140.2410437 -43.48579827 26.58589745
-6.142269956 -5.186771673 -4.670056872
14.50885697 -57.56988801 26.58589745
-19.32061341 -9.516664997 24.54644643
-81.15471801 -26.67575567 26.58589745
-10.6663773 -4.158832023 -3.498289686
-8.01687699 -4.795543297 -3.934692086
-28.39586926 -9.139333045 25.21844944
-19.69427093 -9.280722246 22.19052887
-115.0153892 -0.9895563899 7.255909396
-29.19187488 -9.501912387 23.06960258
